# .PCD v0.7 - Point Cloud Data file format
VERSION 0.7
FIELDS x y z rgb label
SIZE 4 4 4 4 4
TYPE F F F F U
COUNT 1 1 1 1 1
WIDTH 535
HEIGHT 1
VIEWPOINT 0 0 0 1 0 0 0
POINTS 535
DATA ascii
36.849396 -18.820297 10.281050 0.000000000000000e+00 1954047316
36.031116 -20.082592 9.833801 0.000000000000000e+00 1954047316
35.404488 -13.162836 -2.249397 0.000000000000000e+00 1851878480
29.391193 -10.918901 -2.134353 0.000000000000000e+00 1851878480
29.156725 -12.191864 -2.050418 0.000000000000000e+00 1851878480
27.436043 -14.162636 -1.757458 0.000000000000000e+00 1851878480
26.469328 -15.037221 -1.587827 0.000000000000000e+00 1851878480
26.716623 -9.917751 -2.183060 0.000000000000000e+00 1851878480
26.252789 -10.973723 -2.092212 0.000000000000000e+00 1851878480
25.020674 -12.919808 -1.852768 0.000000000000000e+00 1851878480
24.336857 -13.833914 -1.711584 0.000000000000000e+00 1851878480
24.117044 -8.945930 -2.190169 0.000000000000000e+00 1851878480
24.255943 -10.135477 -2.160634 0.000000000000000e+00 1851878480
23.181450 -11.973800 -1.948535 0.000000000000000e+00 1851878480
22.727041 -12.926489 -1.833742 0.000000000000000e+00 1851878480
22.090303 -8.187894 -2.207427 0.000000000000000e+00 1851878480
22.197166 -9.271953 -2.185753 0.000000000000000e+00 1851878480
21.822271 -11.275259 -2.052971 0.000000000000000e+00 1851878480
21.530907 -12.253408 -1.960573 0.000000000000000e+00 1851878480
20.456354 -7.576483 -2.230820 0.000000000000000e+00 1851878480
20.546375 -8.579373 -2.216474 0.000000000000000e+00 1851878480
20.630547 -10.662815 -2.147932 0.000000000000000e+00 1851878480
20.338720 -11.581794 -2.063356 0.000000000000000e+00 1851878480
18.923645 -7.003454 -2.236617 0.000000000000000e+00 1851878480
19.014528 -7.936934 -2.230372 0.000000000000000e+00 1851878480
19.376341 -10.017709 -2.212190 0.000000000000000e+00 1851878480
19.186092 -10.931919 -2.146176 0.000000000000000e+00 1851878480
17.576788 -6.500011 -2.238326 0.000000000000000e+00 1851878480
17.589315 -7.339435 -2.229205 0.000000000000000e+00 1851878480
17.949993 -9.283172 -2.230195 0.000000000000000e+00 1851878480
18.020855 -10.274099 -2.203845 0.000000000000000e+00 1851878480
16.407393 -6.062907 -2.239871 0.000000000000000e+00 1851878480
16.475416 -6.872212 -2.243825 0.000000000000000e+00 1851878480
16.582691 -8.578731 -2.227744 0.000000000000000e+00 1851878480
16.736975 -9.547822 -2.221850 0.000000000000000e+00 1851878480
15.371608 -5.675798 -2.239703 0.000000000000000e+00 1851878480
15.396067 -6.419710 -2.242702 0.000000000000000e+00 1851878480
15.468032 -8.004587 -2.234526 0.000000000000000e+00 1851878480
15.518124 -8.857806 -2.222703 0.000000000000000e+00 1851878480
14.463687 -5.336435 -2.240582 0.000000000000000e+00 1851878480
14.461936 -6.028060 -2.243954 0.000000000000000e+00 1851878480
14.463043 -7.486866 -2.236056 0.000000000000000e+00 1851878480
14.463383 -8.260702 -2.223622 0.000000000000000e+00 1851878480
13.617234 -5.020256 -2.235111 0.000000000000000e+00 1851878480
13.591193 -5.663100 -2.238206 0.000000000000000e+00 1851878480
13.648639 -7.067514 -2.248955 0.000000000000000e+00 1851878480
13.602232 -7.773527 -2.234561 0.000000000000000e+00 1851878480
12.897952 -4.751395 -2.236348 0.000000000000000e+00 1851878480
12.881678 -5.365540 -2.244273 0.000000000000000e+00 1851878480
12.780226 -6.619923 -2.236197 0.000000000000000e+00 1851878480
12.836180 -7.340155 -2.244370 0.000000000000000e+00 1851878480
12.310227 -4.531360 -2.248598 0.000000000000000e+00 1851878480
12.177867 -5.070573 -2.238158 0.000000000000000e+00 1851878480
12.133196 -6.286766 -2.247085 0.000000000000000e+00 1851878480
12.080802 -6.912385 -2.240360 0.000000000000000e+00 1851878480
11.695645 -4.301779 -2.245080 0.000000000000000e+00 1851878480
11.610229 -4.832483 -2.245214 0.000000000000000e+00 1851878480
11.514218 -5.967938 -2.250576 0.000000000000000e+00 1851878480
11.437637 -6.548338 -2.242723 0.000000000000000e+00 1851878480
11.147582 -4.096987 -2.243815 0.000000000000000e+00 1851878480
10.992613 -4.573761 -2.231546 0.000000000000000e+00 1851878480
10.955438 -5.680120 -2.254114 0.000000000000000e+00 1851878480
10.864517 -6.223993 -2.246278 0.000000000000000e+00 1851878480
10.572186 -3.882468 -2.226866 0.000000000000000e+00 1851878480
10.558942 -4.391731 -2.245419 0.000000000000000e+00 1851878480
10.385527 -5.386354 -2.244107 0.000000000000000e+00 1851878480
10.289284 -5.898053 -2.237532 0.000000000000000e+00 1851878480
10.158517 -3.727619 -2.235033 0.000000000000000e+00 1851878480
10.122627 -4.208727 -2.250655 0.000000000000000e+00 1851878480
9.895056 -5.133630 -2.240681 0.000000000000000e+00 1851878480
9.886166 -5.670445 -2.256136 0.000000000000000e+00 1851878480
9.782609 -3.586845 -2.244400 0.000000000000000e+00 1851878480
9.668134 -4.018298 -2.243539 0.000000000000000e+00 1851878480
9.483221 -4.921548 -2.246073 0.000000000000000e+00 1851878480
9.392494 -5.390600 -2.244825 0.000000000000000e+00 1851878480
9.403656 -3.445166 -2.246267 0.000000000000000e+00 1851878480
9.302045 -3.864728 -2.249288 0.000000000000000e+00 1851878480
9.096375 -4.722311 -2.249442 0.000000000000000e+00 1851878480
9.010616 -5.174622 -2.251180 0.000000000000000e+00 1851878480
8.996032 -3.293201 -2.234162 0.000000000000000e+00 1851878480
8.943018 -3.714197 -2.249999 0.000000000000000e+00 1851878480
8.739865 -4.538702 -2.252919 0.000000000000000e+00 1851878480
8.650479 -4.970874 -2.255323 0.000000000000000e+00 1851878480
8.682680 -3.175955 -2.238945 0.000000000000000e+00 1851878480
8.590504 -3.566478 -2.245711 0.000000000000000e+00 1851878480
8.401685 -4.364502 -2.254208 0.000000000000000e+00 1851878480
8.288788 -4.765998 -2.251605 0.000000000000000e+00 1851878480
8.375780 -3.061239 -2.239801 0.000000000000000e+00 1851878480
8.282756 -3.437438 -2.246968 0.000000000000000e+00 1851878480
8.072670 -4.194961 -2.251303 0.000000000000000e+00 1851878480
7.902646 -4.546810 -2.233467 0.000000000000000e+00 1851878480
8.085680 -2.952828 -2.239762 0.000000000000000e+00 1851878480
7.974684 -3.308358 -2.242394 0.000000000000000e+00 1851878480
7.792000 -4.050437 -2.255808 0.000000000000000e+00 1851878480
7.627742 -4.391396 -2.239909 0.000000000000000e+00 1851878480
7.869598 -2.871584 -2.255687 0.000000000000000e+00 1851878480
7.688500 -3.188441 -2.238418 0.000000000000000e+00 1851878480
7.524670 -3.912767 -2.258729 0.000000000000000e+00 1851878480
4.220425 -2.431288 -1.286120 1.880790849211783e-38 1684957512
7.605810 -2.773072 -2.253638 0.000000000000000e+00 1851878480
7.453938 -3.090007 -2.244625 0.000000000000000e+00 1851878480
4.171977 -2.170113 -1.297075 1.880790849211783e-38 1684957512
4.074184 -2.348532 -1.286944 1.880790849211783e-38 1684957512
4.211252 -1.534163 -1.288727 1.880790849211783e-38 1684957512
4.136626 -1.714180 -1.287209 1.880790849211783e-38 1684957512
4.054442 -2.109678 -1.304238 1.880790849211783e-38 1684957512
3.983261 -2.297579 -1.302831 1.880790849211783e-38 1684957512
4.063337 -1.479063 -1.283125 1.880790849211783e-38 1684957512
3.988489 -1.652167 -1.281357 1.880790849211783e-38 1684957512
3.878921 -2.019024 -1.289808 1.880790849211783e-38 1684957512
3.807952 -2.197866 -1.288370 1.880790849211783e-38 1684957512
3.953027 -1.437720 -1.287063 1.880790849211783e-38 1684957512
3.855511 -1.596474 -1.277731 1.880790849211783e-38 1684957512
3.767330 -1.961599 -1.293743 1.880790849211783e-38 1684957512
3.713038 -2.144464 -1.298300 1.880790849211783e-38 1684957512
3.985363 -1.448277 -1.336874 1.880790849211783e-38 1684957512
3.808592 -1.576443 -1.301000 1.880790849211783e-38 1684957512
3.671892 -1.912556 -1.301193 1.880790849211783e-38 1684957512
3.559848 -2.057319 -1.285276 1.880790849211783e-38 1684957512
3.938596 -1.430086 -1.360209 1.880790849211783e-38 1684957512
3.674189 -1.520225 -1.292737 1.880790849211783e-38 1684957512
3.553020 -1.851269 -1.298213 1.880790849211783e-38 1684957512
3.438218 -1.988321 -1.280751 1.880790849211783e-38 1684957512
4.030021 -1.462054 -1.431924 1.880790849211783e-38 1684957512
3.512009 -1.452560 -1.271860 1.880790849211783e-38 1684957512
3.394258 -1.769154 -1.277820 1.880790849211783e-38 1684957512
3.363600 -1.946442 -1.291726 1.880790849211783e-38 1684957512
4.007607 -1.452694 -1.464097 1.880790849211783e-38 1684957512
3.481876 -1.439535 -1.297025 1.880790849211783e-38 1684957512
3.365336 -1.754682 -1.304455 1.880790849211783e-38 1684957512
3.274534 -1.896150 -1.295506 1.880790849211783e-38 1684957512
4.002258 -1.449522 -1.502451 1.880790849211783e-38 1684957512
3.491542 -1.442967 -1.337013 1.880790849211783e-38 1684957512
3.230212 -1.684813 -1.288320 1.880790849211783e-38 1684957512
3.151396 -1.826054 -1.283580 1.880790849211783e-38 1684957512
3.970435 -1.436768 -1.530725 1.880790849211783e-38 1684957512
3.473099 -1.434780 -1.366364 1.880790849211783e-38 1684957512
3.126851 -1.631470 -1.282402 1.880790849211783e-38 1684957512
3.073610 -1.782171 -1.288020 1.880790849211783e-38 1684957512
4.027110 -1.456022 -1.593612 1.880790849211783e-38 1684957512
3.517805 -1.452672 -1.421060 1.880790849211783e-38 1684957512
3.066712 -1.600654 -1.292594 1.880790849211783e-38 1684957512
2.973480 -1.725269 -1.281246 1.880790849211783e-38 1684957512
4.002244 -1.445778 -1.624807 1.880790849211783e-38 1684957512
3.559031 -1.469108 -1.475494 1.880790849211783e-38 1684957512
3.012826 -1.573084 -1.304357 1.880790849211783e-38 1684957512
2.905285 -1.686843 -1.286483 1.880790849211783e-38 1684957512
4.030012 -1.454540 -1.677660 1.880790849211783e-38 1684957512
3.534820 -1.458530 -1.503226 1.880790849211783e-38 1684957512
2.909247 -1.519543 -1.293038 1.880790849211783e-38 1684957512
2.806994 -1.630883 -1.276652 1.880790849211783e-38 1684957512
4.011324 -1.446523 -1.711534 1.880790849211783e-38 1684957512
3.523229 -1.453158 -1.536192 1.880790849211783e-38 1684957512
2.864067 -1.496481 -1.306196 1.880790849211783e-38 1684957512
2.772163 -1.611751 -1.294331 1.880790849211783e-38 1684957512
4.032833 -1.452994 -1.762867 1.880790849211783e-38 1684957512
3.565152 -1.469851 -1.593079 1.880790849211783e-38 1684957512
2.809884 -1.468701 -1.314333 1.880790849211783e-38 1684957512
2.678854 -1.558575 -1.283403 1.880790849211783e-38 1684957512
4.026036 -1.449254 -1.802266 1.880790849211783e-38 1684957512
3.519641 -1.450492 -1.611126 1.880790849211783e-38 1684957512
2.800951 -1.464562 -1.343144 1.880790849211783e-38 1684957512
2.658928 -1.548059 -1.306506 1.880790849211783e-38 1684957512
3.996719 -1.437411 -1.831498 1.880790849211783e-38 1684957512
3.532445 -1.455167 -1.655788 1.880790849211783e-38 1684957512
2.799108 -1.464134 -1.375482 1.880790849211783e-38 1684957512
2.564865 -1.494341 -1.292031 1.880790849211783e-38 1684957512
4.003524 -1.438554 -1.877347 1.880790849211783e-38 1684957512
3.528771 -1.453049 -1.693112 1.880790849211783e-38 1684957512
2.794175 -1.462094 -1.406484 1.880790849211783e-38 1684957512
2.459599 -1.434024 -1.269696 1.880790849211783e-38 1684957512
3.971894 -1.425889 -1.905219 1.880790849211783e-38 1684957512
3.556806 -1.463977 -1.746216 1.880790849211783e-38 1684957512
2.827163 -1.479906 -1.457182 1.880790849211783e-38 1684957512
2.515709 -1.467783 -1.330316 1.880790849211783e-38 1684957512
4.038520 -1.448476 -1.980922 1.880790849211783e-38 1684957512
3.543449 -1.457863 -1.779467 1.880790849211783e-38 1684957512
2.777918 -1.454674 -1.465575 1.880790849211783e-38 1684957512
2.466508 -1.440111 -1.335599 1.880790849211783e-38 1684957512
4.031768 -1.444718 -2.021619 1.880790849211783e-38 1684957512
3.531250 -1.452224 -1.813327 1.880790849211783e-38 1684957512
2.764190 -1.448031 -1.492225 1.880790849211783e-38 1684957512
2.482823 -1.450687 -1.376219 1.880790849211783e-38 1684957512
4.032893 -1.443770 -2.066548 1.880790849211783e-38 1684957512
3.537848 -1.454311 -1.857101 1.880790849211783e-38 1684957512
2.791789 -1.463047 -1.541653 1.880790849211783e-38 1684957512
2.469971 -1.444232 -1.400999 1.880790849211783e-38 1684957512
4.088560 -1.462323 -2.140412 1.880790849211783e-38 1684957512
3.507958 -1.441399 -1.881787 1.880790849211783e-38 1684957512
2.776398 -1.455541 -1.567795 1.880790849211783e-38 1684957512
2.474227 -1.447788 -1.435665 1.880790849211783e-38 1684957512
4.068978 -1.453935 -2.175652 1.880790849211783e-38 1684957512
3.542700 -1.455037 -1.941544 1.880790849211783e-38 1684957512
2.787963 -1.462171 -1.609425 1.880790849211783e-38 1684957512
2.442227 -1.430126 -1.449230 1.880790849211783e-38 1684957512
4.075198 -1.454763 -2.224922 1.880790849211783e-38 1684957512
3.552929 -1.458595 -1.988745 1.880790849211783e-38 1684957512
2.806276 -1.472353 -1.655654 1.880790849211783e-38 1684957512
2.495234 -1.462264 -1.513830 1.880790849211783e-38 1684957512
4.014708 -1.431783 -2.237546 0.000000000000000e+00 1851878480
3.522228 -1.445347 -2.013162 1.880790849211783e-38 1684957512
2.744916 -1.440728 -1.654658 1.880790849211783e-38 1684957512
2.493390 -1.462290 -1.546156 1.880790849211783e-38 1684957512
4.019847 -1.432218 -2.286519 0.000000000000000e+00 1634890835
3.505253 -1.437734 -2.045233 1.880790849211783e-38 1684957512
2.759530 -1.448977 -1.699203 1.880790849211783e-38 1684957512
2.427604 -1.424798 -1.538250 1.880790849211783e-38 1684957512
3.936458 -1.401125 -2.284643 0.000000000000000e+00 1634890835
3.538329 -1.450643 -2.107091 1.880790849211783e-38 1684957512
2.748354 -1.443688 -1.728263 1.880790849211783e-38 1684957512
2.454291 -1.441574 -1.588750 1.880790849211783e-38 1684957512
3.889155 -1.382911 -2.302609 0.000000000000000e+00 1634890835
3.532486 -1.447584 -2.146498 1.880790849211783e-38 1684957512
2.721560 -1.430195 -1.747363 1.880790849211783e-38 1684957512
2.448555 -1.439327 -1.618896 1.880790849211783e-38 1684957512
3.820776 -1.357233 -2.307162 0.000000000000000e+00 1634890835
3.514613 -1.439595 -2.178718 1.880790849211783e-38 1684957512
2.748242 -1.444812 -1.801168 1.880790849211783e-38 1684957512
2.491037 -1.465454 -1.681797 1.880790849211783e-38 1684957512
3.681859 -1.306559 -2.267090 0.000000000000000e+00 1634890835
3.529137 -1.444869 -2.231404 1.880790849211783e-38 1684957512
2.764588 -1.454008 -1.849159 1.880790849211783e-38 1684957512
2.444881 -1.439449 -1.685176 1.880790849211783e-38 1684957512
3.673308 -1.302190 -2.305962 0.000000000000000e+00 1634890835
3.503949 -1.433877 -2.259283 0.000000000000000e+00 1851878480
2.735681 -1.439408 -1.867108 1.880790849211783e-38 1684957512
2.487154 -1.465515 -1.749839 1.880790849211783e-38 1684957512
3.563544 -1.261969 -2.280298 0.000000000000000e+00 1634890835
3.488505 -1.426878 -2.293383 0.000000000000000e+00 1634890835
2.770972 -1.458595 -1.929370 1.880790849211783e-38 1684957512
2.476881 -1.460649 -1.778390 1.880790849211783e-38 1684957512
3.515586 -1.243681 -2.292699 0.000000000000000e+00 1634890835
3.446374 -1.408964 -2.309663 0.000000000000000e+00 1634890835
2.741505 -1.443701 -1.947042 1.880790849211783e-38 1684957512
2.456088 -1.449580 -1.799349 1.880790849211783e-38 1684957512
3.416064 -1.207196 -2.270097 0.000000000000000e+00 1634890835
3.364427 -1.374792 -2.298133 0.000000000000000e+00 1634890835
2.741858 -1.444513 -1.985920 1.880790849211783e-38 1684957512
2.425074 -1.432467 -1.812478 1.880790849211783e-38 1684957512
3.357100 -1.185090 -2.272922 0.000000000000000e+00 1634890835
3.290970 -1.344114 -2.290858 0.000000000000000e+00 1634890835
2.783933 -1.467322 -2.056069 1.880790849211783e-38 1684957512
2.428815 -1.435883 -1.851610 1.880790849211783e-38 1684957512
3.364985 -1.186585 -2.320819 0.000000000000000e+00 1634890835
3.245000 -1.324677 -2.301627 0.000000000000000e+00 1634890835
2.794341 -1.473461 -2.104049 1.880790849211783e-38 1684957512
2.465062 -1.458553 -1.916574 1.880790849211783e-38 1684957512
3.270048 -1.151846 -2.297150 0.000000000000000e+00 1634890835
3.184616 -1.299372 -2.301244 0.000000000000000e+00 1634890835
2.756917 -1.454379 -2.116101 1.880790849211783e-38 1684957512
2.485667 -1.472012 -1.970704 1.880790849211783e-38 1684957512
3.172921 -1.116395 -2.269939 0.000000000000000e+00 1634890835
3.096733 -1.262869 -2.279485 0.000000000000000e+00 1634890835
2.817660 -1.487097 -2.204345 1.880790849211783e-38 1684957512
2.434662 -1.443066 -1.968070 1.880790849211783e-38 1684957512
3.201800 -1.125292 -2.332459 0.000000000000000e+00 1634890835
3.073007 -1.252548 -2.303932 0.000000000000000e+00 1634890835
2.788865 -1.472577 -2.223527 1.880790849211783e-38 1684957512
2.464814 -1.462227 -2.031207 1.880790849211783e-38 1684957512
3.085596 -1.083220 -2.288614 0.000000000000000e+00 1634890835
3.004179 -1.223852 -2.293790 0.000000000000000e+00 1634890835
2.725423 -1.439746 -2.214224 1.880790849211783e-38 1684957512
0.871269 -0.517334 -0.731880 0.000000000000000e+00 1886740808
2.997396 -1.051046 -2.263303 0.000000000000000e+00 1634890835
2.974491 -1.211117 -2.312672 0.000000000000000e+00 1634890835
2.720185 -1.437657 -2.251704 0.000000000000000e+00 1851878480
0.843676 -0.501404 -0.722327 0.000000000000000e+00 1886740808
2.946235 -1.031904 -2.264568 0.000000000000000e+00 1634890835
2.901557 -1.180790 -2.296997 0.000000000000000e+00 1634890835
0.850418 -0.449672 -0.717175 0.000000000000000e+00 1886740808
0.835137 -0.496785 -0.728687 0.000000000000000e+00 1886740808
2.935281 -1.026856 -2.296381 0.000000000000000e+00 1634890835
2.849005 -1.158771 -2.296189 0.000000000000000e+00 1634890835
0.866792 -0.458551 -0.744639 0.000000000000000e+00 1886740808
0.823931 -0.490574 -0.732585 0.000000000000000e+00 1886740808
2.857013 -0.998280 -2.274795 0.000000000000000e+00 1634890835
2.823347 -1.147705 -2.316455 0.000000000000000e+00 1634890835
0.823241 -0.435726 -0.720372 0.000000000000000e+00 1886740808
0.805342 -0.479958 -0.729615 0.000000000000000e+00 1886740808
2.798450 -0.976634 -2.267491 0.000000000000000e+00 1634890835
2.715685 -1.103325 -2.268021 0.000000000000000e+00 1634890835
0.798567 -0.422876 -0.711712 0.000000000000000e+00 1886740808
0.762894 -0.455096 -0.704187 0.000000000000000e+00 1886740808
2.805203 -0.977786 -2.312891 0.000000000000000e+00 1634890835
0.877242 -0.356204 -0.745694 0.000000000000000e+00 1886740808
0.822379 -0.435705 -0.746440 0.000000000000000e+00 1886740808
0.776925 -0.463915 -0.730602 0.000000000000000e+00 1886740808
0.857064 -0.298368 -0.719009 0.000000000000000e+00 1886740808
0.840198 -0.340966 -0.726882 0.000000000000000e+00 1886740808
0.786357 -0.416832 -0.726845 0.000000000000000e+00 1886740808
0.766520 -0.458151 -0.734300 0.000000000000000e+00 1886740808
0.823579 -0.286349 -0.702953 0.000000000000000e+00 1886740808
0.868199 -0.352125 -0.764387 0.000000000000000e+00 1886740808
0.799935 -0.424249 -0.752919 0.000000000000000e+00 1886740808
0.746829 -0.446827 -0.728774 0.000000000000000e+00 1886740808
0.848715 -0.294710 -0.736977 0.000000000000000e+00 1886740808
0.836412 -0.339032 -0.749375 0.000000000000000e+00 1886740808
0.755221 -0.400745 -0.723793 0.000000000000000e+00 1886740808
0.787494 -0.471633 -0.782738 0.000000000000000e+00 1886740808
0.801989 -0.278122 -0.708447 0.000000000000000e+00 1886740808
0.785062 -0.318028 -0.715719 0.000000000000000e+00 1886740808
0.764200 -0.405726 -0.745712 0.000000000000000e+00 1886740808
0.758421 -0.454688 -0.767813 0.000000000000000e+00 1886740808
0.770594 -0.266883 -0.692448 0.000000000000000e+00 1886740808
0.778175 -0.315047 -0.721861 0.000000000000000e+00 1886740808
0.764144 -0.405916 -0.759177 0.000000000000000e+00 1886740808
0.749954 -0.450081 -0.773282 0.000000000000000e+00 1886740808
0.797608 -0.275868 -0.729043 0.000000000000000e+00 1886740808
0.774072 -0.313193 -0.730593 0.000000000000000e+00 1886740808
0.784769 -0.417101 -0.793772 0.000000000000000e+00 1886740808
0.761926 -0.457750 -0.800125 0.000000000000000e+00 1886740808
0.743033 -0.256643 -0.690804 0.000000000000000e+00 1886740808
0.762984 -0.308513 -0.732671 0.000000000000000e+00 1886740808
0.772736 -0.410935 -0.795713 0.000000000000000e+00 1886740808
0.766795 -0.461171 -0.820072 0.000000000000000e+00 1886740808
0.778480 -0.268514 -0.736140 0.000000000000000e+00 1886740808
0.765369 -0.309281 -0.747737 0.000000000000000e+00 1886740808
0.760965 -0.404904 -0.797716 0.000000000000000e+00 1886740808
2.097776 -1.263040 -2.284809 0.000000000000000e+00 1634890835
0.704297 -0.242585 -0.677363 0.000000000000000e+00 1886740808
0.775587 -0.313207 -0.770869 0.000000000000000e+00 1886740808
0.773542 -0.411834 -0.825499 0.000000000000000e+00 1886740808
2.051383 -1.236480 -2.275343 0.000000000000000e+00 1634890835
0.748831 -0.257556 -0.732469 0.000000000000000e+00 1886740808
0.754344 -0.304428 -0.762746 0.000000000000000e+00 1886740808
2.145714 -1.143047 -2.331020 0.000000000000000e+00 1634890835
2.022345 -1.220355 -2.284333 0.000000000000000e+00 1634890835
0.773416 -0.265625 -0.769393 0.000000000000000e+00 1886740808
0.779936 -0.314546 -0.802272 0.000000000000000e+00 1886740808
2.068624 -1.102637 -2.287662 0.000000000000000e+00 1634890835
0.833486 -0.503533 -0.958745 0.000000000000000e+00 1886740808
0.782311 -0.268284 -0.791475 0.000000000000000e+00 1886740808
0.775012 -0.312349 -0.810994 0.000000000000000e+00 1886740808
2.052275 -1.094585 -2.310358 0.000000000000000e+00 1634890835
0.770605 -0.466090 -0.902688 0.000000000000000e+00 1886740808
0.754493 -0.258354 -0.776299 0.000000000000000e+00 1886740808
0.715269 -0.288072 -0.761412 0.000000000000000e+00 1886740808
2.008279 -1.071779 -2.301447 0.000000000000000e+00 1634890835
0.749756 -0.454019 -0.894391 0.000000000000000e+00 1886740808
0.768349 -0.262697 -0.803979 0.000000000000000e+00 1886740808
2.152091 -0.866136 -2.330510 0.000000000000000e+00 1634890835
0.841758 -0.449512 -0.981974 0.000000000000000e+00 1886740808
0.779657 -0.472699 -0.947151 0.000000000000000e+00 1886740808
0.734370 -0.250688 -0.781469 0.000000000000000e+00 1886740808
2.076382 -0.835070 -2.287376 0.000000000000000e+00 1634890835
0.818103 -0.437159 -0.971540 0.000000000000000e+00 1886740808
0.772075 -0.468679 -0.955189 0.000000000000000e+00 1886740808
0.770338 -0.262550 -0.833663 0.000000000000000e+00 1886740808
2.088290 -0.839247 -2.340258 0.000000000000000e+00 1634890835
0.823190 -0.440163 -0.995176 0.000000000000000e+00 1886740808
1.820725 -1.106639 -2.294027 0.000000000000000e+00 1634890835
2.060364 -0.701087 -2.267603 0.000000000000000e+00 1634890835
2.008445 -0.806559 -2.289707 0.000000000000000e+00 1634890835
0.774589 -0.414451 -0.953296 0.000000000000000e+00 1886740808
1.753920 -1.067400 -2.250612 0.000000000000000e+00 1634890835
2.029977 -0.689610 -2.272129 0.000000000000000e+00 1634890835
1.983977 -0.796131 -2.300968 0.000000000000000e+00 1634890835
0.803321 -0.430114 -1.006501 0.000000000000000e+00 1886740808
0.741917 -0.452105 -0.969612 0.000000000000000e+00 1886740808
2.000769 -0.678546 -2.277533 0.000000000000000e+00 1634890835
1.967414 -0.788876 -2.321308 0.000000000000000e+00 1634890835
0.806310 -0.432011 -1.028514 0.000000000000000e+00 1886740808
1.702563 -1.038880 -2.266289 0.000000000000000e+00 1634890835
1.963224 -0.664673 -2.272859 0.000000000000000e+00 1634890835
0.808109 -0.323775 -0.970022 0.000000000000000e+00 1886740808
1.796628 -0.963290 -2.333279 0.000000000000000e+00 1634890835
1.726155 -1.054706 -2.340356 0.000000000000000e+00 1634890835
1.922685 -0.649811 -2.263897 0.000000000000000e+00 1634890835
0.787664 -0.315330 -0.961925 0.000000000000000e+00 1886740808
0.753638 -0.404364 -0.996532 0.000000000000000e+00 1886740808
1.630806 -0.997826 -2.252252 0.000000000000000e+00 1634890835
1.916239 -0.646479 -2.294866 0.000000000000000e+00 1634890835
0.803667 -0.321474 -0.998573 0.000000000000000e+00 1886740808
1.722048 -0.924636 -2.318539 0.000000000000000e+00 1634890835
1.652041 -1.012248 -2.324203 0.000000000000000e+00 1634890835
0.788218 -0.265436 -0.960128 0.000000000000000e+00 1886740808
0.804640 -0.321594 -1.017250 0.000000000000000e+00 1886740808
1.680881 -0.903206 -2.304478 0.000000000000000e+00 1634890835
1.630428 -1.000448 -2.336804 0.000000000000000e+00 1634890835
0.789459 -0.265360 -0.978148 0.000000000000000e+00 1886740808
0.778853 -0.311023 -1.001900 0.000000000000000e+00 1886740808
1.657967 -0.891572 -2.314755 0.000000000000000e+00 1634890835
1.587314 -0.975430 -2.317833 0.000000000000000e+00 1634890835
0.805192 -0.270135 -1.014815 0.000000000000000e+00 1886740808
0.766109 -0.305667 -1.002825 0.000000000000000e+00 1886740808
1.648273 -0.887049 -2.343591 0.000000000000000e+00 1634890835
1.556759 -0.958095 -2.316187 0.000000000000000e+00 1634890835
0.774090 -0.259197 -0.992461 0.000000000000000e+00 1886740808
1.720344 -0.685784 -2.291611 0.000000000000000e+00 1634890835
1.611294 -0.867837 -2.333371 0.000000000000000e+00 1634890835
1.524625 -0.939764 -2.311455 0.000000000000000e+00 1634890835
0.777434 -0.259800 -1.014015 0.000000000000000e+00 1886740808
1.705310 -0.679174 -2.311785 0.000000000000000e+00 1634890835
1.566172 -0.844220 -2.310148 0.000000000000000e+00 1634890835
1.483514 -0.915865 -2.292052 0.000000000000000e+00 1634890835
0.781632 -0.260673 -1.037217 0.000000000000000e+00 1886740808
0.796561 -0.316952 -1.099035 0.000000000000000e+00 1886740808
1.552330 -0.837455 -2.332463 0.000000000000000e+00 1634890835
1.449228 -0.896140 -2.282040 0.000000000000000e+00 1634890835
1.662834 -0.553401 -2.245075 0.000000000000000e+00 1634890835
1.642752 -0.653030 -2.306994 0.000000000000000e+00 1634890835
1.517035 -0.819109 -2.322189 0.000000000000000e+00 1634890835
1.430214 -0.885841 -2.295556 0.000000000000000e+00 1634890835
0.761451 -0.252877 -1.046094 0.000000000000000e+00 1886740808
1.581475 -0.628059 -2.260755 0.000000000000000e+00 1634890835
1.511308 -0.816730 -2.357060 0.000000000000000e+00 1634890835
1.394860 -0.865405 -2.282275 0.000000000000000e+00 1634890835
1.650967 -0.547091 -2.308064 0.000000000000000e+00 1634890835
1.592890 -0.631961 -2.318096 0.000000000000000e+00 1634890835
1.462114 -0.790848 -2.323601 0.000000000000000e+00 1634890835
1.378128 -0.856503 -2.298950 0.000000000000000e+00 1634890835
1.593904 -0.527005 -2.267719 0.000000000000000e+00 1634890835
1.542222 -0.611236 -2.285009 0.000000000000000e+00 1634890835
1.446161 -0.782934 -2.342126 0.000000000000000e+00 1634890835
1.342076 -0.835576 -2.282848 0.000000000000000e+00 1634890835
1.556664 -0.513516 -2.254127 0.000000000000000e+00 1634890835
1.533901 -0.607303 -2.314075 0.000000000000000e+00 1634890835
1.392013 -0.754324 -2.297757 0.000000000000000e+00 1634890835
1.311165 -0.817815 -2.274455 0.000000000000000e+00 1634890835
1.535343 -0.505294 -2.263013 0.000000000000000e+00 1634890835
1.491309 -0.589805 -2.291038 0.000000000000000e+00 1634890835
1.382631 -0.749960 -2.326436 0.000000000000000e+00 1634890835
1.310882 -0.819163 -2.319353 0.000000000000000e+00 1634890835
1.539937 -0.505587 -2.310614 0.000000000000000e+00 1634890835
1.461807 -0.577501 -2.287118 0.000000000000000e+00 1634890835
1.354035 -0.735172 -2.322731 0.000000000000000e+00 1634890835
1.290223 -0.807797 -2.328730 0.000000000000000e+00 1634890835
1.501635 -0.491793 -2.293921 0.000000000000000e+00 1634890835
1.452685 -0.573250 -2.315028 0.000000000000000e+00 1634890835
1.314799 -0.714590 -2.299730 0.000000000000000e+00 1634890835
1.263128 -0.792388 -2.326075 0.000000000000000e+00 1634890835
1.481473 -0.483960 -2.304348 0.000000000000000e+00 1634890835
1.412240 -0.556645 -2.292633 0.000000000000000e+00 1634890835
1.291255 -0.702523 -2.303275 0.000000000000000e+00 1634890835
1.219209 -0.766382 -2.291145 0.000000000000000e+00 1634890835
1.465278 -0.477421 -2.320959 0.000000000000000e+00 1634890835
1.372325 -0.540269 -2.269776 0.000000000000000e+00 1634890835
1.265181 -0.689071 -2.301834 0.000000000000000e+00 1634890835
1.192910 -0.751405 -2.288018 0.000000000000000e+00 1634890835
1.418519 -0.460947 -2.288400 0.000000000000000e+00 1634890835
1.376273 -0.541159 -2.319488 0.000000000000000e+00 1634890835
1.241179 -0.676739 -2.303664 0.000000000000000e+00 1634890835
1.180670 -0.745282 -2.311757 0.000000000000000e+00 1634890835
1.404053 -0.454989 -2.307220 0.000000000000000e+00 1634890835
1.349873 -0.530111 -2.318499 0.000000000000000e+00 1634890835
1.204413 -0.657435 -2.280882 0.000000000000000e+00 1634890835
1.173198 -0.742193 -2.345499 0.000000000000000e+00 1634890835
1.375414 -0.444443 -2.302555 0.000000000000000e+00 1634890835
1.310306 -0.513905 -2.293938 0.000000000000000e+00 1634890835
1.200583 -0.656104 -2.320310 0.000000000000000e+00 1634890835
1.145468 -0.726289 -2.338788 0.000000000000000e+00 1634890835
1.351524 -0.435446 -2.305351 0.000000000000000e+00 1634890835
1.300781 -0.509490 -2.321564 0.000000000000000e+00 1634890835
1.178718 -0.644926 -2.325300 0.000000000000000e+00 1634890835
1.106362 -0.703126 -2.307529 0.000000000000000e+00 1634890835
1.317572 -0.423228 -2.290309 0.000000000000000e+00 1634890835
1.283744 -0.502126 -2.336139 0.000000000000000e+00 1634890835
1.164072 -0.637696 -2.344535 0.000000000000000e+00 1634890835
1.099652 -0.700541 -2.343425 0.000000000000000e+00 1634890835
1.310981 -0.419803 -2.322710 0.000000000000000e+00 1634890835
1.241129 -0.484771 -2.303352 0.000000000000000e+00 1634890835
1.129236 -0.619397 -2.322560 0.000000000000000e+00 1634890835
1.040056 -0.664215 -2.265201 0.000000000000000e+00 1634890835
1.274257 -0.406735 -2.301501 0.000000000000000e+00 1634890835
1.229002 -0.479333 -2.326504 0.000000000000000e+00 1634890835
1.096818 -0.602404 -2.304228 0.000000000000000e+00 1634890835
1.032768 -0.661246 -2.299443 0.000000000000000e+00 1634890835
1.244351 -0.395876 -2.291571 0.000000000000000e+00 1634890835
1.174400 -0.457348 -2.268106 0.000000000000000e+00 1634890835
1.112287 -0.611726 -2.387395 0.000000000000000e+00 1634890835
1.015102 -0.651651 -2.311106 0.000000000000000e+00 1634890835
1.220460 -0.386946 -2.292105 0.000000000000000e+00 1634890835
1.155340 -0.449226 -2.276910 0.000000000000000e+00 1634890835
1.058092 -0.582733 -2.320924 0.000000000000000e+00 1634890835
0.992761 -0.639048 -2.311915 0.000000000000000e+00 1634890835
1.211257 -0.382670 -2.320367 0.000000000000000e+00 1634890835
1.127609 -0.437738 -2.268197 0.000000000000000e+00 1634890835
1.044727 -0.576202 -2.342556 0.000000000000000e+00 1634890835
0.974152 -0.628839 -2.321160 0.000000000000000e+00 1634890835
1.179853 -0.371384 -2.305957 0.000000000000000e+00 1634890835
1.138757 -0.441331 -2.338527 0.000000000000000e+00 1634890835
1.007203 -0.556336 -2.309299 0.000000000000000e+00 1634890835
0.957892 -0.620147 -2.336076 0.000000000000000e+00 1634890835
1.156208 -0.362562 -2.306001 0.000000000000000e+00 1634890835
1.103904 -0.427087 -2.314935 0.000000000000000e+00 1634890835
0.991427 -0.548468 -2.325046 0.000000000000000e+00 1634890835
0.920901 -0.598001 -2.299443 0.000000000000000e+00 1634890835
1.136181 -0.354883 -2.312994 0.000000000000000e+00 1634890835
1.073756 -0.414683 -2.299968 0.000000000000000e+00 1634890835
0.960308 -0.532103 -2.304242 0.000000000000000e+00 1634890835
0.906112 -0.590243 -2.317328 0.000000000000000e+00 1634890835
1.108708 -0.344891 -2.304384 0.000000000000000e+00 1634890835
1.039070 -0.400546 -2.273993 0.000000000000000e+00 1634890835
0.948199 -0.526266 -2.328683 0.000000000000000e+00 1634890835
0.868826 -0.567795 -2.276664 0.000000000000000e+00 1634890835
1.102885 -0.341629 -2.340947 0.000000000000000e+00 1634890835
1.046709 -0.402716 -2.341111 0.000000000000000e+00 1634890835
0.913324 -0.507783 -2.296586 0.000000000000000e+00 1634890835
0.848263 -0.556229 -2.278402 0.000000000000000e+00 1634890835
1.069751 -0.329910 -2.319457 0.000000000000000e+00 1634890835
0.999633 -0.383840 -2.285702 0.000000000000000e+00 1634890835
0.892565 -0.497128 -2.298825 0.000000000000000e+00 1634890835
0.823044 -0.541586 -2.266932 0.000000000000000e+00 1634890835
1.027858 -0.315542 -2.277211 0.000000000000000e+00 1634890835
1.004341 -0.384849 -2.348441 0.000000000000000e+00 1634890835
0.901079 -0.502803 -2.377980 0.000000000000000e+00 1634890835
0.442502 -0.292241 -1.250371 0.000000000000000e+00 1936876886
1.039676 -0.317652 -2.354319 0.000000000000000e+00 1634890835
0.958152 -0.366361 -2.291908 0.000000000000000e+00 1634890835
0.862565 -0.482244 -2.333440 0.000000000000000e+00 1634890835
0.441960 -0.292993 -1.281793 0.000000000000000e+00 1936876886
0.984353 -0.299260 -2.279042 0.000000000000000e+00 1634890835
0.922850 -0.352073 -2.258966 0.000000000000000e+00 1634890835
0.834175 -0.467310 -2.314250 0.000000000000000e+00 1634890835
0.431910 -0.287465 -1.286337 0.000000000000000e+00 1936876886
0.985324 -0.298006 -2.333235 0.000000000000000e+00 1634890835
0.918407 -0.349560 -2.301382 0.000000000000000e+00 1634890835
0.462576 -0.259682 -1.316693 0.000000000000000e+00 1936876886
0.341350 -0.228130 -1.044514 0.000000000000000e+00 1953264973
0.954751 -0.287202 -2.313126 0.000000000000000e+00 1634890835
0.901373 -0.342242 -2.313134 0.000000000000000e+00 1634890835
0.443090 -0.249288 -1.294650 0.000000000000000e+00 1936876886
0.316592 -0.212496 -0.995878 0.000000000000000e+00 1953264973
0.508748 -0.152175 -1.261536 0.000000000000000e+00 1936876886
0.869302 -0.329226 -2.285524 0.000000000000000e+00 1634890835
0.370119 -0.208710 -1.110663 0.000000000000000e+00 1953264973
0.285096 -0.192220 -0.922453 0.000000000000000e+00 1953264973
0.479988 -0.142724 -1.218658 0.000000000000000e+00 1936876886
0.861438 -0.325379 -2.321365 0.000000000000000e+00 1634890835
0.341976 -0.193301 -1.054517 0.000000000000000e+00 1953264973
0.271372 -0.183831 -0.903719 0.000000000000000e+00 1953264973
0.474621 -0.140256 -1.234327 0.000000000000000e+00 1936876886
0.845690 -0.318543 -2.336851 0.000000000000000e+00 1634890835
0.314994 -0.178496 -0.998680 0.000000000000000e+00 1953264973
0.257105 -0.175029 -0.881820 0.000000000000000e+00 1953264973
