# .PCD v0.7 - Point Cloud Data file format
VERSION 0.7
FIELDS x y z rgb label
SIZE 4 4 4 4 4
TYPE F F F F U
COUNT 1 1 1 1 1
WIDTH 534
HEIGHT 1
VIEWPOINT 0 0 0 1 0 0 0
POINTS 534
DATA ascii
36.645752 -20.425171 10.001551 0.000000000000000e+00 1954047316
35.313694 -13.129082 -2.243628 0.000000000000000e+00 1851878480
29.344025 -10.901379 -2.130929 0.000000000000000e+00 1851878480
28.722588 -12.010330 -2.019887 0.000000000000000e+00 1851878480
27.115461 -13.997149 -1.736923 0.000000000000000e+00 1851878480
25.927025 -14.729141 -1.555296 0.000000000000000e+00 1851878480
26.553951 -9.857363 -2.169767 0.000000000000000e+00 1851878480
26.064266 -10.894920 -2.077187 0.000000000000000e+00 1851878480
24.915192 -12.865341 -1.844956 0.000000000000000e+00 1851878480
24.302418 -13.814339 -1.709162 0.000000000000000e+00 1851878480
24.117741 -8.946189 -2.190233 0.000000000000000e+00 1851878480
24.270601 -10.141601 -2.161940 0.000000000000000e+00 1851878480
23.235062 -12.001493 -1.953041 0.000000000000000e+00 1851878480
22.883968 -13.015743 -1.846403 0.000000000000000e+00 1851878480
22.126394 -8.201271 -2.211034 0.000000000000000e+00 1851878480
22.308338 -9.318390 -2.196700 0.000000000000000e+00 1851878480
22.007322 -11.370872 -2.070380 0.000000000000000e+00 1851878480
21.823879 -12.420140 -1.987249 0.000000000000000e+00 1851878480
20.445221 -7.572360 -2.229606 0.000000000000000e+00 1851878480
20.561691 -8.585769 -2.218126 0.000000000000000e+00 1851878480
20.723358 -10.710785 -2.157595 0.000000000000000e+00 1851878480
20.394167 -11.613369 -2.068981 0.000000000000000e+00 1851878480
18.932978 -7.006908 -2.237720 0.000000000000000e+00 1851878480
19.012444 -7.936065 -2.230128 0.000000000000000e+00 1851878480
19.449121 -10.055339 -2.220500 0.000000000000000e+00 1851878480
19.175056 -10.925631 -2.144942 0.000000000000000e+00 1851878480
17.612455 -6.513201 -2.242868 0.000000000000000e+00 1851878480
17.624504 -7.354117 -2.233665 0.000000000000000e+00 1851878480
17.941200 -9.278625 -2.229102 0.000000000000000e+00 1851878480
17.927645 -10.220958 -2.192446 0.000000000000000e+00 1851878480
16.417501 -6.066643 -2.241251 0.000000000000000e+00 1851878480
16.502409 -6.883472 -2.247501 0.000000000000000e+00 1851878480
16.647449 -8.612232 -2.236444 0.000000000000000e+00 1851878480
16.707767 -9.531160 -2.217973 0.000000000000000e+00 1851878480
15.379906 -5.678863 -2.240912 0.000000000000000e+00 1851878480
15.404356 -6.423167 -2.243909 0.000000000000000e+00 1851878480
15.418980 -7.979204 -2.227440 0.000000000000000e+00 1851878480
15.511286 -8.853904 -2.221724 0.000000000000000e+00 1851878480
14.446891 -5.330238 -2.237980 0.000000000000000e+00 1851878480
14.513726 -6.049647 -2.251990 0.000000000000000e+00 1851878480
14.435961 -7.472847 -2.231869 0.000000000000000e+00 1851878480
14.483612 -8.272256 -2.226732 0.000000000000000e+00 1851878480
13.643888 -5.030082 -2.239486 0.000000000000000e+00 1851878480
13.643125 -5.684738 -2.246757 0.000000000000000e+00 1851878480
13.598951 -7.041785 -2.240768 0.000000000000000e+00 1851878480
13.636412 -7.793059 -2.240176 0.000000000000000e+00 1851878480
12.895119 -4.750351 -2.235857 0.000000000000000e+00 1851878480
12.895580 -5.371330 -2.246695 0.000000000000000e+00 1851878480
12.860056 -6.661274 -2.250166 0.000000000000000e+00 1851878480
12.835517 -7.339775 -2.244254 0.000000000000000e+00 1851878480
12.321094 -4.535360 -2.250583 0.000000000000000e+00 1851878480
12.213302 -5.085328 -2.244671 0.000000000000000e+00 1851878480
12.096004 -6.267495 -2.240197 0.000000000000000e+00 1851878480
12.090434 -6.917896 -2.242146 0.000000000000000e+00 1851878480
11.704426 -4.305009 -2.246766 0.000000000000000e+00 1851878480
11.589535 -4.823869 -2.241212 0.000000000000000e+00 1851878480
11.482267 -5.951378 -2.244331 0.000000000000000e+00 1851878480
11.442413 -6.551072 -2.243659 0.000000000000000e+00 1851878480
11.109468 -4.082980 -2.236143 0.000000000000000e+00 1851878480
11.063170 -4.603118 -2.245870 0.000000000000000e+00 1851878480
10.873578 -5.637678 -2.237271 0.000000000000000e+00 1851878480
10.840314 -6.210128 -2.241274 0.000000000000000e+00 1851878480
10.639520 -3.907195 -2.241048 0.000000000000000e+00 1851878480
10.520604 -4.375786 -2.237267 0.000000000000000e+00 1851878480
10.361888 -5.374095 -2.238999 0.000000000000000e+00 1851878480
10.339472 -5.926822 -2.248446 0.000000000000000e+00 1851878480
10.182127 -3.736283 -2.240228 0.000000000000000e+00 1851878480
10.096093 -4.197694 -2.244755 0.000000000000000e+00 1851878480
9.950047 -5.162159 -2.253134 0.000000000000000e+00 1851878480
9.828632 -5.637446 -2.243006 0.000000000000000e+00 1851878480
9.773127 -3.583368 -2.242224 0.000000000000000e+00 1851878480
9.670015 -4.019079 -2.243975 0.000000000000000e+00 1851878480
9.494290 -4.927293 -2.248694 0.000000000000000e+00 1851878480
9.378539 -5.382590 -2.241489 0.000000000000000e+00 1851878480
9.359636 -3.429039 -2.235752 0.000000000000000e+00 1851878480
9.331255 -3.876865 -2.256351 0.000000000000000e+00 1851878480
9.066353 -4.706726 -2.242018 0.000000000000000e+00 1851878480
8.929357 -5.127955 -2.230879 0.000000000000000e+00 1851878480
9.052794 -3.313980 -2.248259 0.000000000000000e+00 1851878480
5.097415 -2.117049 -1.282473 1.880790849211783e-38 1684957512
5.007736 -2.600569 -1.290869 1.880790849211783e-38 1684957512
4.950675 -2.844834 -1.290723 1.880790849211783e-38 1684957512
4.960656 -1.814512 -1.279171 1.880790849211783e-38 1684957512
4.938021 -2.050094 -1.290887 1.880790849211783e-38 1684957512
4.783600 -2.484982 -1.283460 1.880790849211783e-38 1684957512
4.720604 -2.714316 -1.282327 1.880790849211783e-38 1684957512
4.799797 -1.754264 -1.283533 1.880790849211783e-38 1684957512
4.784148 -1.985476 -1.297856 1.880790849211783e-38 1684957512
4.660900 -2.422035 -1.299830 1.880790849211783e-38 1684957512
4.545660 -2.615359 -1.284707 1.880790849211783e-38 1684957512
4.657946 -1.701046 -1.290267 1.880790849211783e-38 1684957512
4.565142 -1.893883 -1.283668 1.880790849211783e-38 1684957512
4.416337 -2.295700 -1.278543 1.880790849211783e-38 1684957512
4.368207 -2.514837 -1.282737 1.880790849211783e-38 1684957512
4.546433 -1.658975 -1.303158 1.880790849211783e-38 1684957512
4.420516 -1.833200 -1.286982 1.880790849211783e-38 1684957512
4.327731 -2.250384 -1.299083 1.880790849211783e-38 1684957512
4.187765 -2.412473 -1.276168 1.880790849211783e-38 1684957512
4.346426 -1.584703 -1.287866 1.880790849211783e-38 1684957512
4.298081 -1.781756 -1.294293 1.880790849211783e-38 1684957512
4.178017 -2.173255 -1.298953 1.880790849211783e-38 1684957512
4.020176 -2.317400 -1.269884 1.880790849211783e-38 1684957512
4.173400 -1.520373 -1.277144 1.880790849211783e-38 1684957512
4.155060 -1.721819 -1.292946 1.880790849211783e-38 1684957512
4.017769 -2.090595 -1.292441 1.880790849211783e-38 1684957512
3.931350 -2.267637 -1.285853 1.880790849211783e-38 1684957512
4.088760 -1.488317 -1.291153 1.880790849211783e-38 1684957512
4.025696 -1.667580 -1.293310 1.880790849211783e-38 1684957512
3.857373 -2.007808 -1.282643 1.880790849211783e-38 1684957512
3.833177 -2.212426 -1.296905 1.880790849211783e-38 1684957512
4.003946 -1.456240 -1.303641 1.880790849211783e-38 1684957512
3.866789 -1.601144 -1.281468 1.880790849211783e-38 1684957512
3.770169 -1.963077 -1.294718 1.880790849211783e-38 1684957512
3.648506 -2.107194 -1.275735 1.880790849211783e-38 1684957512
3.941399 -1.432300 -1.322127 1.880790849211783e-38 1684957512
3.734086 -1.545604 -1.275550 1.880790849211783e-38 1684957512
3.655198 -1.903860 -1.295277 1.880790849211783e-38 1684957512
3.521496 -2.035154 -1.271429 1.880790849211783e-38 1684957512
3.945999 -1.432774 -1.362765 1.880790849211783e-38 1684957512
3.700378 -1.531061 -1.301952 1.880790849211783e-38 1684957512
3.533193 -1.840938 -1.290968 1.880790849211783e-38 1684957512
3.421211 -1.978486 -1.274416 1.880790849211783e-38 1684957512
3.965542 -1.438662 -1.409014 1.880790849211783e-38 1684957512
3.543776 -1.465699 -1.283364 1.880790849211783e-38 1684957512
3.462076 -1.804501 -1.303351 1.880790849211783e-38 1684957512
3.381612 -1.956866 -1.298644 1.880790849211783e-38 1684957512
3.979642 -1.442557 -1.453880 1.880790849211783e-38 1684957512
3.534639 -1.461349 -1.316680 1.880790849211783e-38 1684957512
3.294180 -1.717582 -1.276874 1.880790849211783e-38 1684957512
3.239625 -1.875936 -1.281695 1.880790849211783e-38 1684957512
3.971148 -1.438255 -1.490772 1.880790849211783e-38 1684957512
3.477530 -1.437176 -1.331648 1.880790849211783e-38 1684957512
3.214903 -1.676828 -1.282214 1.880790849211783e-38 1684957512
3.169550 -1.836573 -1.290974 1.880790849211783e-38 1684957512
4.034517 -1.459957 -1.555430 1.880790849211783e-38 1684957512
3.533362 -1.459675 -1.390072 1.880790849211783e-38 1684957512
3.133598 -1.634990 -1.285169 1.880790849211783e-38 1684957512
3.123754 -1.811246 -1.309034 1.880790849211783e-38 1684957512
4.014835 -1.451584 -1.588755 1.880790849211783e-38 1684957512
3.532570 -1.458769 -1.427024 1.880790849211783e-38 1684957512
3.106467 -1.621404 -1.309350 1.880790849211783e-38 1684957512
3.120522 -1.810586 -1.344605 1.880790849211783e-38 1684957512
3.988105 -1.440670 -1.619066 1.880790849211783e-38 1684957512
3.532216 -1.458039 -1.464377 1.880790849211783e-38 1684957512
3.164163 -1.652102 -1.369877 1.880790849211783e-38 1684957512
3.115832 -1.809089 -1.379715 1.880790849211783e-38 1684957512
3.989791 -1.440023 -1.660916 1.880790849211783e-38 1684957512
3.512042 -1.449131 -1.493539 1.880790849211783e-38 1684957512
3.111744 -1.625310 -1.383040 1.880790849211783e-38 1684957512
3.134164 -1.820971 -1.425452 1.880790849211783e-38 1684957512
4.004856 -1.444191 -1.708774 1.880790849211783e-38 1684957512
3.517086 -1.450624 -1.533513 1.880790849211783e-38 1684957512
3.126176 -1.633433 -1.425734 1.880790849211783e-38 1684957512
3.103359 -1.804310 -1.448967 1.880790849211783e-38 1684957512
4.025726 -1.450433 -1.759760 1.880790849211783e-38 1684957512
3.471121 -1.431083 -1.551062 1.880790849211783e-38 1684957512
3.151270 -1.647140 -1.474018 1.880790849211783e-38 1684957512
3.153188 -1.834546 -1.510650 1.880790849211783e-38 1684957512
4.010265 -1.443577 -1.795206 1.880790849211783e-38 1684957512
3.518458 -1.450004 -1.610584 1.880790849211783e-38 1684957512
3.099722 -1.620783 -1.486414 1.880790849211783e-38 1684957512
3.124377 -1.819050 -1.535211 1.880790849211783e-38 1684957512
3.992021 -1.435722 -1.829345 1.880790849211783e-38 1684957512
3.532775 -1.455303 -1.655942 1.880790849211783e-38 1684957512
3.146573 -1.645884 -1.546227 1.880790849211783e-38 1684957512
3.141069 -1.830049 -1.582290 1.880790849211783e-38 1684957512
4.028874 -1.447663 -1.889235 1.880790849211783e-38 1684957512
3.543085 -1.458943 -1.699980 1.880790849211783e-38 1684957512
3.152941 -1.649823 -1.587073 1.880790849211783e-38 1684957512
3.092394 -1.802964 -1.596358 1.880790849211783e-38 1684957512
4.008079 -1.438880 -1.922576 1.880790849211783e-38 1684957512
3.563118 -1.466575 -1.749315 1.880790849211783e-38 1684957512
3.156041 -1.652061 -1.626692 1.880790849211783e-38 1684957512
3.108236 -1.813491 -1.643646 1.880790849211783e-38 1684957512
4.039761 -1.448921 -1.981531 1.880790849211783e-38 1684957512
3.539479 -1.456230 -1.777474 1.880790849211783e-38 1684957512
3.103361 -1.625094 -1.637272 1.880790849211783e-38 1684957512
3.103555 -1.812061 -1.680557 1.880790849211783e-38 1684957512
4.033756 -1.445430 -2.022615 1.880790849211783e-38 1684957512
3.502472 -1.440389 -1.798549 1.880790849211783e-38 1684957512
3.132058 -1.640740 -1.690816 1.880790849211783e-38 1684957512
3.107810 -1.815861 -1.722646 1.880790849211783e-38 1684957512
4.072430 -1.457924 -2.086808 1.880790849211783e-38 1684957512
3.542124 -1.456069 -1.859346 1.880790849211783e-38 1684957512
3.141047 -1.646076 -1.734516 1.880790849211783e-38 1684957512
3.130183 -1.830268 -1.775480 1.880790849211783e-38 1684957512
4.041596 -1.445525 -2.115826 1.880790849211783e-38 1684957512
3.556767 -1.461454 -1.907970 1.880790849211783e-38 1684957512
3.157015 -1.655081 -1.782724 1.880790849211783e-38 1684957512
3.120811 -1.826135 -1.810845 1.880790849211783e-38 1684957512
4.058999 -1.450369 -2.170316 1.880790849211783e-38 1684957512
3.511469 -1.442209 -1.924428 1.880790849211783e-38 1684957512
3.094229 -1.622795 -1.786225 1.880790849211783e-38 1684957512
3.119365 -1.826645 -1.851047 1.880790849211783e-38 1684957512
4.065957 -1.451464 -2.219876 1.880790849211783e-38 1684957512
3.516237 -1.443532 -1.968207 1.880790849211783e-38 1684957512
3.116403 -1.635065 -1.838623 1.880790849211783e-38 1684957512
3.103413 -1.818671 -1.882806 1.880790849211783e-38 1684957512
3.985832 -1.421485 -2.221452 0.000000000000000e+00 1851878480
3.485420 -1.430243 -1.992124 1.880790849211783e-38 1684957512
3.119114 -1.637134 -1.880228 1.880790849211783e-38 1684957512
3.145652 -1.844820 -1.950625 1.880790849211783e-38 1684957512
4.005298 -1.427034 -2.278243 0.000000000000000e+00 1634890835
3.494415 -1.433288 -2.038909 1.880790849211783e-38 1684957512
3.127928 -1.642416 -1.926048 1.880790849211783e-38 1684957512
3.114759 -1.828100 -1.973665 1.880790849211783e-38 1684957512
3.882193 -1.381810 -2.253149 0.000000000000000e+00 1634890835
3.558751 -1.459015 -2.119252 1.880790849211783e-38 1684957512
3.157251 -1.658478 -1.985393 1.880790849211783e-38 1684957512
3.132736 -1.840072 -2.027931 1.880790849211783e-38 1684957512
3.878616 -1.379164 -2.296369 0.000000000000000e+00 1634890835
3.576806 -1.465746 -2.173429 1.880790849211783e-38 1684957512
3.146725 -1.653622 -2.020338 1.880790849211783e-38 1684957512
3.095433 -1.819580 -2.046588 1.880790849211783e-38 1684957512
3.822519 -1.357853 -2.308215 0.000000000000000e+00 1634890835
3.511057 -1.438138 -2.176514 1.880790849211783e-38 1684957512
3.167233 -1.665084 -2.075770 1.880790849211783e-38 1684957512
3.098193 -1.822639 -2.091712 1.880790849211783e-38 1684957512
3.722307 -1.320913 -2.291996 0.000000000000000e+00 1634890835
3.573793 -1.463152 -2.259639 1.880790849211783e-38 1684957512
3.122234 -1.642109 -2.088379 1.880790849211783e-38 1684957512
3.148804 -1.853890 -2.170366 1.880790849211783e-38 1684957512
3.609599 -1.279605 -2.265968 0.000000000000000e+00 1634890835
3.479564 -1.423898 -2.243561 0.000000000000000e+00 1851878480
3.172956 -1.669485 -2.165549 1.880790849211783e-38 1684957512
3.122752 -1.840030 -2.197014 1.880790849211783e-38 1684957512
3.566410 -1.262984 -2.282132 0.000000000000000e+00 1634890835
3.497132 -1.430406 -2.299054 0.000000000000000e+00 1634890835
3.103114 -1.633429 -2.160634 1.880790849211783e-38 1684957512
3.116490 -1.837836 -2.237627 1.880790849211783e-38 1684957512
3.498225 -1.237539 -2.281377 0.000000000000000e+00 1634890835
3.418836 -1.397706 -2.291208 0.000000000000000e+00 1634890835
3.097174 -1.631000 -2.199641 1.880790849211783e-38 1684957512
3.065480 -1.809242 -2.245794 0.000000000000000e+00 1851878480
3.430682 -1.212362 -2.279811 0.000000000000000e+00 1634890835
3.404084 -1.390996 -2.325221 0.000000000000000e+00 1634890835
3.124343 -1.646020 -2.262953 0.000000000000000e+00 1851878480
3.018668 -1.783096 -2.256125 0.000000000000000e+00 1851878480
3.395801 -1.198752 -2.299124 0.000000000000000e+00 1634890835
3.248286 -1.326681 -2.261146 0.000000000000000e+00 1634890835
3.100866 -1.634368 -2.290140 0.000000000000000e+00 1851878480
2.979885 -1.761669 -2.271719 0.000000000000000e+00 1851878480
3.297500 -1.162788 -2.274274 0.000000000000000e+00 1634890835
3.241535 -1.323262 -2.299170 0.000000000000000e+00 1634890835
3.010841 -1.587621 -2.267067 0.000000000000000e+00 1851878480
2.931730 -1.734676 -2.279406 0.000000000000000e+00 1851878480
3.251127 -1.145181 -2.283859 0.000000000000000e+00 1634890835
3.150826 -1.285585 -2.276827 0.000000000000000e+00 1634890835
2.923551 -1.542284 -2.244002 0.000000000000000e+00 1851878480
2.878861 -1.704862 -2.282439 0.000000000000000e+00 1851878480
3.205184 -1.127746 -2.293019 0.000000000000000e+00 1634890835
3.124481 -1.274185 -2.299911 0.000000000000000e+00 1634890835
2.893174 -1.526951 -2.263422 0.000000000000000e+00 1851878480
2.804902 -1.662514 -2.267354 0.000000000000000e+00 1851878480
3.122178 -1.097308 -2.274456 0.000000000000000e+00 1634890835
3.038787 -1.238600 -2.278277 0.000000000000000e+00 1634890835
2.838143 -1.498597 -2.262815 0.000000000000000e+00 1851878480
2.699400 -1.601393 -2.224526 0.000000000000000e+00 1851878480
3.040299 -1.067318 -2.255017 0.000000000000000e+00 1634890835
3.054076 -1.244180 -2.331888 0.000000000000000e+00 1634890835
2.798203 -1.478194 -2.273354 0.000000000000000e+00 1851878480
0.821426 -0.487739 -0.690012 0.000000000000000e+00 1886740808
3.055833 -1.071538 -2.307429 0.000000000000000e+00 1634890835
2.958714 -1.204693 -2.300405 0.000000000000000e+00 1634890835
2.756887 -1.457055 -2.282085 0.000000000000000e+00 1851878480
0.854334 -0.507738 -0.731452 0.000000000000000e+00 1886740808
2.975553 -1.042173 -2.287102 0.000000000000000e+00 1634890835
2.921871 -1.189056 -2.313078 0.000000000000000e+00 1634890835
0.857153 -0.453234 -0.722855 0.000000000000000e+00 1886740808
0.826438 -0.491611 -0.721098 0.000000000000000e+00 1886740808
2.930465 -1.025171 -2.292613 0.000000000000000e+00 1634890835
2.835929 -1.153453 -2.285650 0.000000000000000e+00 1634890835
0.863971 -0.457059 -0.742216 0.000000000000000e+00 1886740808
0.790477 -0.470655 -0.702840 0.000000000000000e+00 1886740808
2.878174 -1.005674 -2.291643 0.000000000000000e+00 1634890835
2.797073 -1.137025 -2.294898 0.000000000000000e+00 1634890835
0.818875 -0.433415 -0.716552 0.000000000000000e+00 1886740808
0.812267 -0.484085 -0.735888 0.000000000000000e+00 1886740808
2.816641 -0.982982 -2.282230 0.000000000000000e+00 1634890835
2.721859 -1.105834 -2.273177 0.000000000000000e+00 1634890835
0.800261 -0.423773 -0.713222 0.000000000000000e+00 1886740808
0.786349 -0.469087 -0.725837 0.000000000000000e+00 1886740808
2.754857 -0.960237 -2.271381 0.000000000000000e+00 1634890835
0.835356 -0.339196 -0.710089 0.000000000000000e+00 1886740808
0.801269 -0.424521 -0.727280 0.000000000000000e+00 1886740808
0.771029 -0.460394 -0.725057 0.000000000000000e+00 1886740808
0.858617 -0.298908 -0.720312 0.000000000000000e+00 1886740808
0.841041 -0.341308 -0.727611 0.000000000000000e+00 1886740808
0.782623 -0.414853 -0.723393 0.000000000000000e+00 1886740808
0.766352 -0.458051 -0.734139 0.000000000000000e+00 1886740808
0.847484 -0.294660 -0.723356 0.000000000000000e+00 1886740808
0.831148 -0.337098 -0.731767 0.000000000000000e+00 1886740808
0.787270 -0.417532 -0.740998 0.000000000000000e+00 1886740808
0.752769 -0.450381 -0.734571 0.000000000000000e+00 1886740808
0.810420 -0.281413 -0.703725 0.000000000000000e+00 1886740808
0.785122 -0.318242 -0.703421 0.000000000000000e+00 1886740808
0.802550 -0.425860 -0.769152 0.000000000000000e+00 1886740808
0.784685 -0.469951 -0.779946 0.000000000000000e+00 1886740808
0.831639 -0.288405 -0.734639 0.000000000000000e+00 1886740808
0.793721 -0.321536 -0.723614 0.000000000000000e+00 1886740808
0.759674 -0.403323 -0.741295 0.000000000000000e+00 1886740808
0.778986 -0.467018 -0.788634 0.000000000000000e+00 1886740808
0.796574 -0.275880 -0.715794 0.000000000000000e+00 1886740808
0.787029 -0.318631 -0.730075 0.000000000000000e+00 1886740808
0.779225 -0.413927 -0.774159 0.000000000000000e+00 1886740808
0.758715 -0.455339 -0.782316 0.000000000000000e+00 1886740808
0.780225 -0.269856 -0.713154 0.000000000000000e+00 1886740808
0.760613 -0.307747 -0.717890 0.000000000000000e+00 1886740808
0.805194 -0.427957 -0.814431 0.000000000000000e+00 1886740808
0.736870 -0.442697 -0.773813 0.000000000000000e+00 1886740808
0.791544 -0.273398 -0.735905 0.000000000000000e+00 1886740808
0.781101 -0.315839 -0.750068 0.000000000000000e+00 1886740808
0.806269 -0.428768 -0.830243 0.000000000000000e+00 1886740808
0.806911 -0.485298 -0.862976 0.000000000000000e+00 1886740808
0.754618 -0.260283 -0.713576 0.000000000000000e+00 1886740808
0.773585 -0.312601 -0.755764 0.000000000000000e+00 1886740808
0.764065 -0.406554 -0.800966 0.000000000000000e+00 1886740808
2.124907 -1.279375 -2.314358 0.000000000000000e+00 1634890835
0.757177 -0.260799 -0.728220 0.000000000000000e+00 1886740808
0.798881 -0.322614 -0.794021 0.000000000000000e+00 1886740808
0.741762 -0.394914 -0.791584 0.000000000000000e+00 1886740808
2.062174 -1.242985 -2.287313 0.000000000000000e+00 1634890835
0.788588 -0.271230 -0.771357 0.000000000000000e+00 1886740808
0.739749 -0.298539 -0.747989 0.000000000000000e+00 1886740808
2.107589 -1.122737 -2.289602 0.000000000000000e+00 1634890835
2.042299 -1.232396 -2.306872 0.000000000000000e+00 1634890835
0.751802 -0.258202 -0.747892 0.000000000000000e+00 1886740808
0.784160 -0.316250 -0.806618 0.000000000000000e+00 1886740808
2.057173 -1.096534 -2.274999 0.000000000000000e+00 1634890835
0.806540 -0.487255 -0.927750 0.000000000000000e+00 1886740808
0.758411 -0.260087 -0.767295 0.000000000000000e+00 1886740808
0.765702 -0.308597 -0.801251 0.000000000000000e+00 1886740808
2.049447 -1.093076 -2.307174 0.000000000000000e+00 1634890835
0.790243 -0.477968 -0.925691 0.000000000000000e+00 1886740808
0.752330 -0.257614 -0.774073 0.000000000000000e+00 1886740808
0.726601 -0.292636 -0.773475 0.000000000000000e+00 1886740808
2.035960 -1.086552 -2.333169 0.000000000000000e+00 1634890835
0.768593 -0.465426 -0.916863 0.000000000000000e+00 1886740808
0.744438 -0.254522 -0.778960 0.000000000000000e+00 1886740808
2.118040 -0.852432 -2.293636 0.000000000000000e+00 1634890835
0.839031 -0.448056 -0.978793 0.000000000000000e+00 1886740808
0.782457 -0.474396 -0.950552 0.000000000000000e+00 1886740808
0.752637 -0.256924 -0.800909 0.000000000000000e+00 1886740808
2.113759 -0.850102 -2.328552 0.000000000000000e+00 1634890835
0.800203 -0.427594 -0.950283 0.000000000000000e+00 1886740808
0.783501 -0.475615 -0.969325 0.000000000000000e+00 1886740808
0.753318 -0.256749 -0.815244 0.000000000000000e+00 1886740808
2.042615 -0.820891 -2.289071 0.000000000000000e+00 1634890835
0.818254 -0.437524 -0.989209 0.000000000000000e+00 1886740808
1.830852 -1.112795 -2.306787 0.000000000000000e+00 1634890835
2.093876 -0.712490 -2.304485 0.000000000000000e+00 1634890835
2.032584 -0.816253 -2.317226 0.000000000000000e+00 1634890835
0.813349 -0.435190 -1.000998 0.000000000000000e+00 1886740808
1.789404 -1.088995 -2.296144 0.000000000000000e+00 1634890835
2.077874 -0.705881 -2.325740 0.000000000000000e+00 1634890835
1.971360 -0.791068 -2.286335 0.000000000000000e+00 1634890835
0.816763 -0.437312 -1.023343 0.000000000000000e+00 1886740808
0.747077 -0.455250 -0.976356 0.000000000000000e+00 1886740808
1.998113 -0.677645 -2.274509 0.000000000000000e+00 1634890835
1.923598 -0.771307 -2.269611 0.000000000000000e+00 1634890835
0.805592 -0.431627 -1.027598 0.000000000000000e+00 1886740808
1.713602 -1.045615 -2.280983 0.000000000000000e+00 1634890835
1.970781 -0.667231 -2.281606 0.000000000000000e+00 1634890835
0.810378 -0.324684 -0.972746 0.000000000000000e+00 1886740808
1.800751 -0.965500 -2.338634 0.000000000000000e+00 1634890835
1.706436 -1.042657 -2.313619 0.000000000000000e+00 1634890835
1.964465 -0.663932 -2.313091 0.000000000000000e+00 1634890835
0.824190 -0.329952 -1.006531 0.000000000000000e+00 1886740808
0.789661 -0.423692 -1.044164 0.000000000000000e+00 1886740808
1.683999 -1.030373 -2.325716 0.000000000000000e+00 1634890835
1.891686 -0.638196 -2.265462 0.000000000000000e+00 1634890835
0.786376 -0.314557 -0.977089 0.000000000000000e+00 1886740808
1.695394 -0.910325 -2.282654 0.000000000000000e+00 1634890835
1.612645 -0.988110 -2.268779 0.000000000000000e+00 1634890835
0.792004 -0.266711 -0.964740 0.000000000000000e+00 1886740808
0.759352 -0.303493 -0.959995 0.000000000000000e+00 1886740808
1.663610 -0.893926 -2.280801 0.000000000000000e+00 1634890835
1.587333 -0.974004 -2.275038 0.000000000000000e+00 1634890835
0.795749 -0.267475 -0.985941 0.000000000000000e+00 1886740808
0.813317 -0.324785 -1.046234 0.000000000000000e+00 1886740808
1.666148 -0.895971 -2.326178 0.000000000000000e+00 1634890835
1.566635 -0.962723 -2.287637 0.000000000000000e+00 1634890835
0.785256 -0.263447 -0.989689 0.000000000000000e+00 1886740808
0.780838 -0.311544 -1.022104 0.000000000000000e+00 1886740808
1.639796 -0.882487 -2.331539 0.000000000000000e+00 1634890835
1.534871 -0.944624 -2.283621 0.000000000000000e+00 1634890835
0.801134 -0.268252 -1.027134 0.000000000000000e+00 1886740808
1.717038 -0.684466 -2.287207 0.000000000000000e+00 1634890835
1.591527 -0.857190 -2.304746 0.000000000000000e+00 1634890835
1.516053 -0.934481 -2.298460 0.000000000000000e+00 1634890835
0.802596 -0.268209 -1.046835 0.000000000000000e+00 1886740808
1.666170 -0.663586 -2.258724 0.000000000000000e+00 1634890835
1.584571 -0.854138 -2.337288 0.000000000000000e+00 1634890835
1.484921 -0.916734 -2.294227 0.000000000000000e+00 1634890835
0.780065 -0.260150 -1.035137 0.000000000000000e+00 1886740808
0.744886 -0.296391 -1.027739 0.000000000000000e+00 1886740808
1.551079 -0.836779 -2.330582 0.000000000000000e+00 1634890835
1.459584 -0.902543 -2.298347 0.000000000000000e+00 1634890835
1.694355 -0.563891 -2.287633 0.000000000000000e+00 1634890835
1.661229 -0.660375 -2.332942 0.000000000000000e+00 1634890835
1.532052 -0.827218 -2.345177 0.000000000000000e+00 1634890835
1.457743 -0.902893 -2.339743 0.000000000000000e+00 1634890835
0.776871 -0.257998 -1.067279 0.000000000000000e+00 1886740808
1.635229 -0.649407 -2.337598 0.000000000000000e+00 1634890835
1.493049 -0.806863 -2.328584 0.000000000000000e+00 1634890835
1.402552 -0.870178 -2.294861 0.000000000000000e+00 1634890835
1.630429 -0.540285 -2.279351 0.000000000000000e+00 1634890835
1.559740 -0.618810 -2.269854 0.000000000000000e+00 1634890835
1.463377 -0.791531 -2.325608 0.000000000000000e+00 1634890835
1.373218 -0.853451 -2.290760 0.000000000000000e+00 1634890835
1.638437 -0.541729 -2.331077 0.000000000000000e+00 1634890835
1.567310 -0.621179 -2.322181 0.000000000000000e+00 1634890835
1.410626 -0.763696 -2.284576 0.000000000000000e+00 1634890835
1.347881 -0.839190 -2.292722 0.000000000000000e+00 1634890835
1.584117 -0.522572 -2.293881 0.000000000000000e+00 1634890835
1.507371 -0.596799 -2.274050 0.000000000000000e+00 1634890835
1.414861 -0.766705 -2.335472 0.000000000000000e+00 1634890835
1.332826 -0.831326 -2.312029 0.000000000000000e+00 1634890835
1.539705 -0.506730 -2.269443 0.000000000000000e+00 1634890835
1.487305 -0.588222 -2.284887 0.000000000000000e+00 1634890835
1.377224 -0.747027 -2.317338 0.000000000000000e+00 1634890835
1.275021 -0.796754 -2.255903 0.000000000000000e+00 1634890835
1.538440 -0.505095 -2.308367 0.000000000000000e+00 1634890835
1.468264 -0.580052 -2.297221 0.000000000000000e+00 1634890835
1.358308 -0.737492 -2.330061 0.000000000000000e+00 1634890835
1.281349 -0.802241 -2.312713 0.000000000000000e+00 1634890835
1.507250 -0.493631 -2.302498 0.000000000000000e+00 1634890835
1.448909 -0.571760 -2.309011 0.000000000000000e+00 1634890835
1.328124 -0.721832 -2.323037 0.000000000000000e+00 1634890835
1.243119 -0.779836 -2.289229 0.000000000000000e+00 1634890835
1.479086 -0.483180 -2.300635 0.000000000000000e+00 1634890835
1.399424 -0.551594 -2.271828 0.000000000000000e+00 1634890835
1.313028 -0.714369 -2.342113 0.000000000000000e+00 1634890835
1.224149 -0.769487 -2.300428 0.000000000000000e+00 1634890835
1.459098 -0.475408 -2.311170 0.000000000000000e+00 1634890835
1.370134 -0.539406 -2.266152 0.000000000000000e+00 1634890835
1.260960 -0.686773 -2.294156 0.000000000000000e+00 1634890835
1.193492 -0.751771 -2.289134 0.000000000000000e+00 1634890835
1.411371 -0.458624 -2.276869 0.000000000000000e+00 1634890835
1.392002 -0.547344 -2.345996 0.000000000000000e+00 1634890835
1.222506 -0.666558 -2.269006 0.000000000000000e+00 1634890835
1.164490 -0.735069 -2.280076 0.000000000000000e+00 1634890835
1.402968 -0.454638 -2.305438 0.000000000000000e+00 1634890835
1.355986 -0.532511 -2.328998 0.000000000000000e+00 1634890835
1.199075 -0.654521 -2.270774 0.000000000000000e+00 1634890835
1.128845 -0.714135 -2.256828 0.000000000000000e+00 1634890835
1.377887 -0.445243 -2.306696 0.000000000000000e+00 1634890835
1.312568 -0.514793 -2.297899 0.000000000000000e+00 1634890835
1.210922 -0.661754 -2.340292 0.000000000000000e+00 1634890835
1.117609 -0.708625 -2.281906 0.000000000000000e+00 1634890835
1.343626 -0.432901 -2.291880 0.000000000000000e+00 1634890835
1.273307 -0.498729 -2.272531 0.000000000000000e+00 1634890835
1.192924 -0.652699 -2.353324 0.000000000000000e+00 1634890835
1.105156 -0.702359 -2.305012 0.000000000000000e+00 1634890835
1.308319 -0.420256 -2.274224 0.000000000000000e+00 1634890835
1.278822 -0.500201 -2.327182 0.000000000000000e+00 1634890835
1.158894 -0.634859 -2.334106 0.000000000000000e+00 1634890835
1.092429 -0.695939 -2.328031 0.000000000000000e+00 1634890835
1.298933 -0.415945 -2.301365 0.000000000000000e+00 1634890835
1.245036 -0.486297 -2.310604 0.000000000000000e+00 1634890835
1.133878 -0.621943 -2.332107 0.000000000000000e+00 1634890835
1.054145 -0.673213 -2.295887 0.000000000000000e+00 1634890835
1.277073 -0.407634 -2.306587 0.000000000000000e+00 1634890835
1.214876 -0.473824 -2.299762 0.000000000000000e+00 1634890835
1.090192 -0.598764 -2.290307 0.000000000000000e+00 1634890835
1.047208 -0.670492 -2.331593 0.000000000000000e+00 1634890835
1.275972 -0.405935 -2.349804 0.000000000000000e+00 1634890835
1.200446 -0.467491 -2.318407 0.000000000000000e+00 1634890835
1.091514 -0.600302 -2.342809 0.000000000000000e+00 1634890835
1.021476 -0.655743 -2.325618 0.000000000000000e+00 1634890835
1.213372 -0.384699 -2.278793 0.000000000000000e+00 1634890835
1.164595 -0.452824 -2.295149 0.000000000000000e+00 1634890835
1.067927 -0.588149 -2.342497 0.000000000000000e+00 1634890835
0.982971 -0.632746 -2.289116 0.000000000000000e+00 1634890835
1.180018 -0.372800 -2.260524 0.000000000000000e+00 1634890835
1.150660 -0.446686 -2.314564 0.000000000000000e+00 1634890835
1.046205 -0.577017 -2.345870 0.000000000000000e+00 1634890835
0.938948 -0.606114 -2.237277 0.000000000000000e+00 1634890835
1.167922 -0.367629 -2.282639 0.000000000000000e+00 1634890835
1.121524 -0.434653 -2.303138 0.000000000000000e+00 1634890835
0.996636 -0.550499 -2.285072 0.000000000000000e+00 1634890835
0.945969 -0.612428 -2.306999 0.000000000000000e+00 1634890835
1.163630 -0.364890 -2.320806 0.000000000000000e+00 1634890835
1.114686 -0.431258 -2.337544 0.000000000000000e+00 1634890835
0.981740 -0.543108 -2.302328 0.000000000000000e+00 1634890835
0.920371 -0.597657 -2.298119 0.000000000000000e+00 1634890835
1.147042 -0.358275 -2.335104 0.000000000000000e+00 1634890835
1.072534 -0.414211 -2.297353 0.000000000000000e+00 1634890835
0.962902 -0.533540 -2.310465 0.000000000000000e+00 1634890835
0.909020 -0.592137 -2.324766 0.000000000000000e+00 1634890835
1.103198 -0.343177 -2.292931 0.000000000000000e+00 1634890835
1.048367 -0.404129 -2.294340 0.000000000000000e+00 1634890835
0.967144 -0.536780 -2.375210 0.000000000000000e+00 1634890835
0.879869 -0.575012 -2.305603 0.000000000000000e+00 1634890835
1.074019 -0.332688 -2.279678 0.000000000000000e+00 1634890835
1.022064 -0.393235 -2.285991 0.000000000000000e+00 1634890835
0.925517 -0.514562 -2.327245 0.000000000000000e+00 1634890835
0.854510 -0.560325 -2.295180 0.000000000000000e+00 1634890835
1.062855 -0.327783 -2.304505 0.000000000000000e+00 1634890835
0.984825 -0.378154 -2.251844 0.000000000000000e+00 1634890835
0.877768 -0.488887 -2.260716 0.000000000000000e+00 1634890835
0.851334 -0.560202 -2.344853 0.000000000000000e+00 1634890835
1.048589 -0.321906 -2.323140 0.000000000000000e+00 1634890835
0.987928 -0.378560 -2.310063 0.000000000000000e+00 1634890835
0.865259 -0.482815 -2.283450 0.000000000000000e+00 1634890835
0.478979 -0.316332 -1.353444 0.000000000000000e+00 1936876886
1.001477 -0.305981 -2.267818 0.000000000000000e+00 1634890835
0.968995 -0.370507 -2.317846 0.000000000000000e+00 1634890835
0.852306 -0.476508 -2.305686 0.000000000000000e+00 1634890835
0.442639 -0.293443 -1.283764 0.000000000000000e+00 1936876886
0.996214 -0.302865 -2.306502 0.000000000000000e+00 1634890835
0.951665 -0.363066 -2.329500 0.000000000000000e+00 1634890835
0.842883 -0.472189 -2.338408 0.000000000000000e+00 1634890835
0.428664 -0.285304 -1.276667 0.000000000000000e+00 1936876886
0.985841 -0.298162 -2.334460 0.000000000000000e+00 1634890835
0.923724 -0.351583 -2.314705 0.000000000000000e+00 1634890835
0.467625 -0.262516 -1.331064 0.000000000000000e+00 1936876886
0.343287 -0.229424 -1.050439 0.000000000000000e+00 1953264973
0.940746 -0.282989 -2.279194 0.000000000000000e+00 1634890835
0.900829 -0.342035 -2.311737 0.000000000000000e+00 1634890835
0.440940 -0.248078 -1.288366 0.000000000000000e+00 1936876886
0.316416 -0.212378 -0.995325 0.000000000000000e+00 1953264973
0.520679 -0.155743 -1.291121 0.000000000000000e+00 1936876886
0.865638 -0.327838 -2.275889 0.000000000000000e+00 1634890835
0.384060 -0.216571 -1.152499 0.000000000000000e+00 1953264973
0.271949 -0.183356 -0.879915 0.000000000000000e+00 1953264973
0.487688 -0.145014 -1.238210 0.000000000000000e+00 1936876886
0.868451 -0.328029 -2.340265 0.000000000000000e+00 1634890835
0.338779 -0.191494 -1.044658 0.000000000000000e+00 1953264973
0.258254 -0.174944 -0.860032 0.000000000000000e+00 1953264973
0.494562 -0.146148 -1.286184 0.000000000000000e+00 1936876886
0.852799 -0.321221 -2.356495 0.000000000000000e+00 1634890835
0.316377 -0.179280 -1.003066 0.000000000000000e+00 1953264973
0.251559 -0.171253 -0.862799 0.000000000000000e+00 1953264973
