# .PCD v0.7 - Point Cloud Data file format
VERSION 0.7
FIELDS x y z rgb label
SIZE 4 4 4 4 4
TYPE F F F F U
COUNT 1 1 1 1 1
WIDTH 529
HEIGHT 1
VIEWPOINT 0 0 0 1 0 0 0
POINTS 529
DATA ascii
32.882328 -16.777569 10.217272 0.000000000000000e+00 1954047316
32.896183 -16.790199 9.872194 0.000000000000000e+00 1954047316
27.323624 -10.143082 -2.232659 0.000000000000000e+00 1851878480
28.080124 -11.737554 -2.237841 0.000000000000000e+00 1851878480
30.640036 -15.821451 -2.268878 0.000000000000000e+00 1851878480
24.377254 -9.042453 -2.213801 0.000000000000000e+00 1851878480
24.562166 -10.263433 -2.187911 0.000000000000000e+00 1851878480
24.123028 -12.460148 -2.027680 0.000000000000000e+00 1851878480
23.776463 -13.523371 -1.918415 0.000000000000000e+00 1851878480
22.170444 -8.217599 -2.215436 0.000000000000000e+00 1851878480
22.337454 -9.330551 -2.199567 0.000000000000000e+00 1851878480
21.963755 -11.348362 -2.066281 0.000000000000000e+00 1851878480
21.706345 -12.353250 -1.976547 0.000000000000000e+00 1851878480
20.426167 -7.565303 -2.227528 0.000000000000000e+00 1851878480
20.390697 -8.514369 -2.199681 0.000000000000000e+00 1851878480
20.476728 -10.583315 -2.131918 0.000000000000000e+00 1851878480
19.935162 -11.351990 -2.022415 0.000000000000000e+00 1851878480
18.942623 -7.010478 -2.238860 0.000000000000000e+00 1851878480
18.899801 -7.889046 -2.216915 0.000000000000000e+00 1851878480
19.027584 -9.837400 -2.172373 0.000000000000000e+00 1851878480
18.785784 -10.703830 -2.101397 0.000000000000000e+00 1851878480
17.604544 -6.510275 -2.241861 0.000000000000000e+00 1851878480
17.601124 -7.344362 -2.230702 0.000000000000000e+00 1851878480
17.594553 -9.099350 -2.186033 0.000000000000000e+00 1851878480
17.706125 -10.094665 -2.165356 0.000000000000000e+00 1851878480
16.394148 -6.058013 -2.238064 0.000000000000000e+00 1851878480
16.458019 -6.864956 -2.241455 0.000000000000000e+00 1851878480
16.460688 -8.515615 -2.211354 0.000000000000000e+00 1851878480
16.493725 -9.409058 -2.189558 0.000000000000000e+00 1851878480
15.358229 -5.670858 -2.237753 0.000000000000000e+00 1851878480
15.387615 -6.416186 -2.241471 0.000000000000000e+00 1851878480
15.416844 -7.978099 -2.227132 0.000000000000000e+00 1851878480
15.442843 -8.814836 -2.211920 0.000000000000000e+00 1851878480
14.454311 -5.332976 -2.239129 0.000000000000000e+00 1851878480
14.445391 -6.021163 -2.241386 0.000000000000000e+00 1851878480
14.523215 -7.518014 -2.245358 0.000000000000000e+00 1851878480
14.460230 -8.258902 -2.223137 0.000000000000000e+00 1851878480
13.691511 -5.047639 -2.247303 0.000000000000000e+00 1851878480
13.601320 -5.667319 -2.239873 0.000000000000000e+00 1851878480
13.628629 -7.057153 -2.245658 0.000000000000000e+00 1851878480
13.609409 -7.777627 -2.235740 0.000000000000000e+00 1851878480
12.906333 -4.754482 -2.237802 0.000000000000000e+00 1851878480
12.868633 -5.360106 -2.242000 0.000000000000000e+00 1851878480
12.857469 -6.659933 -2.249713 0.000000000000000e+00 1851878480
12.791062 -7.314354 -2.236481 0.000000000000000e+00 1851878480
12.249459 -4.508991 -2.237498 0.000000000000000e+00 1851878480
12.182158 -5.072360 -2.238947 0.000000000000000e+00 1851878480
12.063280 -6.250539 -2.234136 0.000000000000000e+00 1851878480
12.136565 -6.944291 -2.250701 0.000000000000000e+00 1851878480
11.672968 -4.293438 -2.240727 0.000000000000000e+00 1851878480
11.605617 -4.830563 -2.244323 0.000000000000000e+00 1851878480
11.494503 -5.957719 -2.246722 0.000000000000000e+00 1851878480
11.443570 -6.551734 -2.243886 0.000000000000000e+00 1851878480
11.137006 -4.093100 -2.241686 0.000000000000000e+00 1851878480
11.062788 -4.602959 -2.245792 0.000000000000000e+00 1851878480
10.880724 -5.641383 -2.238741 0.000000000000000e+00 1851878480
10.818600 -6.197688 -2.236784 0.000000000000000e+00 1851878480
10.607141 -3.895304 -2.234228 0.000000000000000e+00 1851878480
10.565142 -4.394310 -2.246738 0.000000000000000e+00 1851878480
10.373601 -5.380170 -2.241530 0.000000000000000e+00 1851878480
10.288708 -5.897723 -2.237407 0.000000000000000e+00 1851878480
10.190986 -3.739534 -2.242177 0.000000000000000e+00 1851878480
10.091393 -4.195740 -2.243710 0.000000000000000e+00 1851878480
9.911296 -5.142055 -2.244359 0.000000000000000e+00 1851878480
9.845395 -5.647061 -2.246831 0.000000000000000e+00 1851878480
9.739873 -3.571176 -2.234595 0.000000000000000e+00 1851878480
9.669825 -4.019000 -2.243931 0.000000000000000e+00 1851878480
9.446359 -4.902418 -2.237342 0.000000000000000e+00 1851878480
9.368400 -5.376771 -2.239066 0.000000000000000e+00 1851878480
9.384644 -3.438201 -2.241726 0.000000000000000e+00 1851878480
9.248317 -3.842406 -2.236297 0.000000000000000e+00 1851878480
9.069978 -4.708608 -2.242914 0.000000000000000e+00 1851878480
8.972455 -5.152706 -2.241646 0.000000000000000e+00 1851878480
9.040122 -3.309341 -2.245112 0.000000000000000e+00 1851878480
8.910050 -3.700505 -2.241704 0.000000000000000e+00 1851878480
8.726557 -4.531790 -2.249488 0.000000000000000e+00 1851878480
8.655502 -4.973760 -2.256632 0.000000000000000e+00 1851878480
8.758687 -3.203758 -2.258544 0.000000000000000e+00 1851878480
8.623144 -3.580029 -2.254244 0.000000000000000e+00 1851878480
8.356386 -4.340971 -2.242054 0.000000000000000e+00 1851878480
8.293941 -4.768961 -2.253005 0.000000000000000e+00 1851878480
8.377796 -3.061976 -2.240340 0.000000000000000e+00 1851878480
8.296110 -3.442981 -2.250591 0.000000000000000e+00 1851878480
8.099486 -4.208896 -2.258782 0.000000000000000e+00 1851878480
7.891392 -4.540335 -2.230287 0.000000000000000e+00 1851878480
8.106802 -2.960541 -2.245613 0.000000000000000e+00 1851878480
7.981521 -3.311193 -2.244317 0.000000000000000e+00 1851878480
7.810020 -4.059803 -2.261025 0.000000000000000e+00 1851878480
7.650456 -4.404472 -2.246579 0.000000000000000e+00 1851878480
7.852407 -2.865312 -2.250760 0.000000000000000e+00 1851878480
7.693350 -3.190453 -2.239830 0.000000000000000e+00 1851878480
7.504790 -3.902430 -2.252762 0.000000000000000e+00 1851878480
7.345045 -4.231308 -2.238308 0.000000000000000e+00 1851878480
7.540790 -2.749366 -2.234371 0.000000000000000e+00 1851878480
7.451931 -3.089175 -2.244020 0.000000000000000e+00 1851878480
7.203775 -3.747147 -2.239667 0.000000000000000e+00 1851878480
7.089138 -4.086478 -2.239300 0.000000000000000e+00 1851878480
7.372264 -2.685723 -2.256060 0.000000000000000e+00 1851878480
7.200825 -2.983956 -2.240708 0.000000000000000e+00 1851878480
7.048938 -3.667826 -2.267511 0.000000000000000e+00 1851878480
6.847856 -3.949902 -2.239773 0.000000000000000e+00 1851878480
7.133326 -2.596546 -2.252570 0.000000000000000e+00 1851878480
6.968338 -2.886522 -2.238674 0.000000000000000e+00 1851878480
6.813941 -3.546737 -2.265752 0.000000000000000e+00 1851878480
6.626208 -3.824502 -2.241890 0.000000000000000e+00 1851878480
6.895656 -2.507957 -2.245150 0.000000000000000e+00 1851878480
6.753629 -2.796515 -2.238178 0.000000000000000e+00 1851878480
6.537122 -3.403793 -2.244920 0.000000000000000e+00 1851878480
6.399769 -3.696185 -2.237741 0.000000000000000e+00 1851878480
6.707065 -2.437340 -2.249858 0.000000000000000e+00 1851878480
6.580854 -2.723931 -2.247995 0.000000000000000e+00 1851878480
6.340734 -3.302659 -2.246939 0.000000000000000e+00 1851878480
6.221018 -3.595270 -2.246086 0.000000000000000e+00 1851878480
6.445505 -2.340333 -2.225979 0.000000000000000e+00 1851878480
6.416300 -2.654796 -2.257530 0.000000000000000e+00 1851878480
6.090153 -3.173219 -2.225238 0.000000000000000e+00 1851878480
6.030164 -3.487243 -2.246263 0.000000000000000e+00 1851878480
6.335268 -2.298376 -2.251011 0.000000000000000e+00 1851878480
6.233553 -2.578186 -2.257457 0.000000000000000e+00 1851878480
5.935816 -3.093863 -2.234628 0.000000000000000e+00 1851878480
5.875321 -3.399921 -2.256305 0.000000000000000e+00 1851878480
6.151068 -2.229664 -2.247166 0.000000000000000e+00 1851878480
5.999383 -2.480364 -2.234815 0.000000000000000e+00 1851878480
5.845489 -3.047831 -2.265800 0.000000000000000e+00 1851878480
5.697055 -3.298935 -2.253930 0.000000000000000e+00 1851878480
5.952539 -2.155868 -2.234589 0.000000000000000e+00 1851878480
5.823475 -2.406697 -2.229979 0.000000000000000e+00 1851878480
5.636279 -2.939769 -2.247942 0.000000000000000e+00 1851878480
5.521297 -3.199277 -2.248853 0.000000000000000e+00 1851878480
5.861466 -2.121069 -2.259776 0.000000000000000e+00 1851878480
5.720170 -2.363072 -2.250392 0.000000000000000e+00 1851878480
5.513347 -2.876651 -2.261166 0.000000000000000e+00 1851878480
5.393794 -3.127483 -2.260312 0.000000000000000e+00 1851878480
5.633793 -2.036926 -2.229411 0.000000000000000e+00 1851878480
5.558377 -2.295322 -2.245374 0.000000000000000e+00 1851878480
5.322406 -2.778002 -2.243351 0.000000000000000e+00 1851878480
5.183723 -3.007694 -2.233621 0.000000000000000e+00 1851878480
5.519688 -1.993942 -2.240849 0.000000000000000e+00 1851878480
5.462909 -2.254996 -2.264799 0.000000000000000e+00 1851878480
5.232306 -2.731939 -2.265248 0.000000000000000e+00 1851878480
5.062618 -2.939416 -2.241767 0.000000000000000e+00 1851878480
5.361443 -1.935090 -2.231923 0.000000000000000e+00 1851878480
5.234854 -2.159994 -2.226187 0.000000000000000e+00 1851878480
5.079108 -2.652894 -2.257451 0.000000000000000e+00 1851878480
4.920036 -2.858576 -2.237687 0.000000000000000e+00 1851878480
5.291556 -1.908187 -2.257778 0.000000000000000e+00 1851878480
5.191718 -2.141327 -2.263683 0.000000000000000e+00 1851878480
4.922586 -2.572062 -2.245011 0.000000000000000e+00 1851878480
4.823145 -2.804204 -2.251941 0.000000000000000e+00 1851878480
5.124800 -1.846420 -2.240196 0.000000000000000e+00 1851878480
5.060449 -2.086336 -2.261249 0.000000000000000e+00 1851878480
4.779183 -2.498036 -2.235480 0.000000000000000e+00 1851878480
4.663785 -2.713421 -2.234357 0.000000000000000e+00 1851878480
5.024110 -1.808531 -2.249057 0.000000000000000e+00 1851878480
4.903629 -2.020852 -2.244651 0.000000000000000e+00 1851878480
4.747810 -2.482535 -2.276724 0.000000000000000e+00 1851878480
4.573807 -2.662925 -2.247411 0.000000000000000e+00 1851878480
4.899357 -1.762043 -2.245132 0.000000000000000e+00 1851878480
4.824311 -1.987343 -2.261333 0.000000000000000e+00 1851878480
4.580464 -2.395912 -2.250841 0.000000000000000e+00 1851878480
4.466845 -2.602473 -2.250139 0.000000000000000e+00 1851878480
4.744341 -1.704746 -2.224734 0.000000000000000e+00 1851878480
4.727357 -1.946592 -2.268196 0.000000000000000e+00 1851878480
4.472237 -2.340165 -2.251158 0.000000000000000e+00 1851878480
4.362227 -2.543317 -2.251873 0.000000000000000e+00 1851878480
4.668297 -1.675894 -2.239266 0.000000000000000e+00 1851878480
4.613718 -1.899001 -2.265107 0.000000000000000e+00 1851878480
4.374845 -2.290055 -2.254890 0.000000000000000e+00 1851878480
4.273561 -2.493397 -2.259874 0.000000000000000e+00 1851878480
4.565578 -1.637513 -2.239448 0.000000000000000e+00 1851878480
4.492212 -1.848207 -2.255922 0.000000000000000e+00 1851878480
4.278227 -2.240319 -2.257109 0.000000000000000e+00 1851878480
4.095220 -2.391061 -2.217537 0.000000000000000e+00 1851878480
4.487956 -1.608185 -2.250361 0.000000000000000e+00 1851878480
4.402722 -1.810616 -2.260836 0.000000000000000e+00 1851878480
4.187450 -2.193611 -2.260560 0.000000000000000e+00 1851878480
4.047418 -2.364864 -2.243468 0.000000000000000e+00 1851878480
4.348124 -1.556622 -2.228080 0.000000000000000e+00 1851878480
4.264875 -1.753171 -2.238735 0.000000000000000e+00 1851878480
4.064818 -2.130182 -2.244632 0.000000000000000e+00 1851878480
3.943361 -2.305747 -2.236725 0.000000000000000e+00 1851878480
4.297622 -1.537096 -2.249859 0.000000000000000e+00 1851878480
4.111514 -1.689396 -2.205554 0.000000000000000e+00 1851878480
4.026680 -2.111008 -2.273812 0.000000000000000e+00 1851878480
3.910809 -2.288400 -2.269239 0.000000000000000e+00 1851878480
4.195121 -1.499008 -2.243100 0.000000000000000e+00 1851878480
4.081183 -1.676199 -2.236655 0.000000000000000e+00 1851878480
3.868252 -2.028738 -2.233050 0.000000000000000e+00 1851878480
3.789817 -2.219251 -2.248898 0.000000000000000e+00 1851878480
4.110207 -1.467261 -2.244035 0.000000000000000e+00 1851878480
4.055048 -1.664731 -2.269805 0.000000000000000e+00 1851878480
3.817915 -2.003123 -2.252503 0.000000000000000e+00 1851878480
3.693012 -2.164189 -2.240508 0.000000000000000e+00 1851878480
4.151793 -1.480673 -2.313948 0.000000000000000e+00 1634890835
3.945245 -1.618932 -2.254941 0.000000000000000e+00 1851878480
3.739145 -1.962571 -2.253989 0.000000000000000e+00 1851878480
3.681937 -2.159333 -2.283176 0.000000000000000e+00 1851878480
4.036345 -1.438096 -2.295903 0.000000000000000e+00 1634890835
3.854970 -1.581176 -2.249285 0.000000000000000e+00 1851878480
3.693145 -1.939201 -2.274085 0.000000000000000e+00 1851878480
3.570691 -2.095694 -2.262567 0.000000000000000e+00 1851878480
3.904311 -1.389683 -2.265986 0.000000000000000e+00 1634890835
3.743254 -1.534658 -2.229124 0.000000000000000e+00 1851878480
3.628384 -1.905961 -2.281658 0.000000000000000e+00 1851878480
3.479890 -2.043979 -2.252656 0.000000000000000e+00 1851878480
3.853849 -1.370358 -2.281706 0.000000000000000e+00 1634890835
3.688304 -1.511437 -2.241180 0.000000000000000e+00 1851878480
3.499603 -1.839061 -2.246901 0.000000000000000e+00 1851878480
3.373963 -1.983307 -2.230742 0.000000000000000e+00 1851878480
3.813393 -1.354611 -2.302704 0.000000000000000e+00 1634890835
3.641563 -1.491594 -2.257415 0.000000000000000e+00 1851878480
3.437537 -1.807189 -2.252925 0.000000000000000e+00 1851878480
3.342740 -1.966503 -2.256815 0.000000000000000e+00 1851878480
3.726514 -1.322406 -2.294587 0.000000000000000e+00 1634890835
3.558732 -1.456986 -2.250117 0.000000000000000e+00 1851878480
3.359319 -1.766801 -2.246959 0.000000000000000e+00 1851878480
3.271489 -1.926123 -2.254929 0.000000000000000e+00 1851878480
3.626983 -1.285767 -2.276881 0.000000000000000e+00 1634890835
3.568086 -1.460123 -2.300638 0.000000000000000e+00 1634890835
3.287650 -1.729832 -2.243828 0.000000000000000e+00 1851878480
3.230334 -1.903421 -2.272704 0.000000000000000e+00 1851878480
3.550045 -1.257189 -2.271659 0.000000000000000e+00 1634890835
3.479821 -1.423326 -2.287674 0.000000000000000e+00 1634890835
3.217695 -1.693743 -2.240414 0.000000000000000e+00 1851878480
3.123277 -1.841838 -2.242500 0.000000000000000e+00 1851878480
3.538100 -1.251645 -2.307381 0.000000000000000e+00 1634890835
3.447076 -1.409251 -2.310134 0.000000000000000e+00 1634890835
3.154296 -1.661081 -2.240210 0.000000000000000e+00 1851878480
3.066840 -1.810045 -2.246790 0.000000000000000e+00 1851878480
3.441961 -1.216348 -2.287306 0.000000000000000e+00 1634890835
3.356444 -1.371530 -2.292680 0.000000000000000e+00 1634890835
3.119636 -1.643540 -2.259544 0.000000000000000e+00 1851878480
3.015327 -1.781123 -2.253628 0.000000000000000e+00 1851878480
3.411745 -1.204380 -2.309919 0.000000000000000e+00 1634890835
3.330623 -1.360309 -2.318460 0.000000000000000e+00 1634890835
3.075428 -1.620960 -2.271353 0.000000000000000e+00 1851878480
2.965047 -1.752897 -2.260408 0.000000000000000e+00 1851878480
3.310490 -1.167368 -2.283233 0.000000000000000e+00 1634890835
3.233279 -1.319892 -2.293314 0.000000000000000e+00 1634890835
2.975004 -1.568724 -2.240082 0.000000000000000e+00 1851878480
2.895399 -1.713180 -2.251159 0.000000000000000e+00 1851878480
3.209784 -1.130618 -2.254816 0.000000000000000e+00 1634890835
3.235096 -1.319968 -2.337721 0.000000000000000e+00 1634890835
2.942214 -1.552131 -2.258328 0.000000000000000e+00 1851878480
2.813127 -1.665934 -2.230324 0.000000000000000e+00 1851878480
3.203144 -1.127029 -2.291560 0.000000000000000e+00 1634890835
3.118858 -1.271892 -2.295772 0.000000000000000e+00 1634890835
2.861453 -1.510210 -2.238605 0.000000000000000e+00 1851878480
2.820854 -1.671969 -2.280249 0.000000000000000e+00 1851878480
3.173826 -1.115460 -2.312080 0.000000000000000e+00 1634890835
3.070310 -1.251449 -2.301910 0.000000000000000e+00 1634890835
2.854998 -1.507497 -2.276254 0.000000000000000e+00 1851878480
2.737494 -1.623991 -2.255918 0.000000000000000e+00 1851878480
3.105299 -1.090137 -2.303228 0.000000000000000e+00 1634890835
2.995900 -1.220480 -2.287469 0.000000000000000e+00 1634890835
2.830220 -1.495107 -2.299365 0.000000000000000e+00 1851878480
0.881131 -0.523190 -0.740165 0.000000000000000e+00 1886740808
2.996390 -1.050694 -2.262544 0.000000000000000e+00 1634890835
2.896810 -1.179488 -2.252275 0.000000000000000e+00 1634890835
2.812208 -1.486293 -2.327878 0.000000000000000e+00 1634890835
0.840409 -0.499462 -0.719529 0.000000000000000e+00 1886740808
2.950149 -1.033275 -2.267576 0.000000000000000e+00 1634890835
2.908753 -1.183718 -2.302694 0.000000000000000e+00 1634890835
0.860239 -0.454866 -0.725457 0.000000000000000e+00 1886740808
0.839605 -0.499443 -0.732586 0.000000000000000e+00 1886740808
2.906233 -1.016694 -2.273655 0.000000000000000e+00 1634890835
2.852500 -1.160193 -2.299006 0.000000000000000e+00 1634890835
0.852989 -0.451249 -0.732781 0.000000000000000e+00 1886740808
0.810670 -0.482679 -0.720795 0.000000000000000e+00 1886740808
2.890026 -1.009815 -2.301080 0.000000000000000e+00 1634890835
2.809625 -1.142127 -2.305196 0.000000000000000e+00 1634890835
0.826834 -0.437628 -0.723517 0.000000000000000e+00 1886740808
0.770267 -0.459055 -0.697838 0.000000000000000e+00 1886740808
2.827813 -0.986881 -2.291283 0.000000000000000e+00 1634890835
2.766162 -1.123833 -2.310177 0.000000000000000e+00 1634890835
0.807421 -0.427565 -0.719604 0.000000000000000e+00 1886740808
0.789849 -0.471175 -0.729067 0.000000000000000e+00 1886740808
2.778642 -0.968528 -2.290992 0.000000000000000e+00 1634890835
0.821094 -0.333404 -0.697965 0.000000000000000e+00 1886740808
0.800028 -0.423863 -0.726153 0.000000000000000e+00 1886740808
0.777094 -0.464016 -0.730761 0.000000000000000e+00 1886740808
0.868624 -0.302392 -0.728706 0.000000000000000e+00 1886740808
0.912443 -0.370285 -0.789384 0.000000000000000e+00 1886740808
0.803196 -0.425758 -0.742410 0.000000000000000e+00 1886740808
0.750930 -0.448833 -0.719365 0.000000000000000e+00 1886740808
0.826647 -0.287415 -0.705571 0.000000000000000e+00 1886740808
0.792284 -0.321335 -0.697549 0.000000000000000e+00 1886740808
0.753450 -0.399596 -0.709167 0.000000000000000e+00 1886740808
0.746745 -0.446777 -0.728692 0.000000000000000e+00 1886740808
0.819352 -0.284514 -0.711481 0.000000000000000e+00 1886740808
0.793363 -0.321583 -0.710805 0.000000000000000e+00 1886740808
0.759638 -0.403089 -0.728025 0.000000000000000e+00 1886740808
0.740460 -0.443464 -0.735988 0.000000000000000e+00 1886740808
0.788397 -0.273409 -0.696440 0.000000000000000e+00 1886740808
0.763992 -0.309493 -0.696510 0.000000000000000e+00 1886740808
0.773904 -0.410878 -0.755181 0.000000000000000e+00 1886740808
0.780935 -0.468186 -0.790607 0.000000000000000e+00 1886740808
0.769888 -0.266638 -0.691814 0.000000000000000e+00 1886740808
0.784657 -0.317671 -0.727874 0.000000000000000e+00 1886740808
0.772534 -0.410373 -0.767512 0.000000000000000e+00 1886740808
0.737749 -0.442756 -0.760697 0.000000000000000e+00 1886740808
0.778709 -0.269331 -0.711768 0.000000000000000e+00 1886740808
0.760599 -0.307741 -0.717876 0.000000000000000e+00 1886740808
0.785380 -0.417426 -0.794390 0.000000000000000e+00 1886740808
0.761507 -0.457499 -0.799684 0.000000000000000e+00 1886740808
0.757327 -0.261580 -0.704094 0.000000000000000e+00 1886740808
0.747561 -0.302277 -0.717861 0.000000000000000e+00 1886740808
0.784713 -0.417304 -0.808046 0.000000000000000e+00 1886740808
0.769499 -0.462798 -0.822965 0.000000000000000e+00 1886740808
0.750181 -0.258753 -0.709381 0.000000000000000e+00 1886740808
0.774791 -0.313088 -0.756943 0.000000000000000e+00 1886740808
0.813412 -0.432811 -0.852696 0.000000000000000e+00 1886740808
2.117988 -1.275209 -2.306822 0.000000000000000e+00 1634890835
0.786267 -0.270818 -0.756198 0.000000000000000e+00 1886740808
0.788700 -0.318503 -0.783902 0.000000000000000e+00 1886740808
0.759428 -0.404320 -0.810437 0.000000000000000e+00 1886740808
2.048117 -1.234511 -2.271720 0.000000000000000e+00 1634890835
0.739969 -0.254508 -0.723801 0.000000000000000e+00 1886740808
0.761993 -0.307516 -0.770481 0.000000000000000e+00 1886740808
2.167196 -1.154490 -2.354356 0.000000000000000e+00 1634890835
2.044238 -1.233567 -2.309062 0.000000000000000e+00 1634890835
0.722624 -0.248181 -0.718865 0.000000000000000e+00 1886740808
0.750392 -0.302631 -0.771882 0.000000000000000e+00 1886740808
2.090797 -1.114456 -2.312183 0.000000000000000e+00 1634890835
0.795449 -0.480554 -0.914992 0.000000000000000e+00 1886740808
0.726400 -0.249110 -0.734909 0.000000000000000e+00 1886740808
0.781474 -0.314953 -0.817756 0.000000000000000e+00 1886740808
2.046393 -1.091448 -2.303736 0.000000000000000e+00 1634890835
0.809684 -0.489726 -0.948464 0.000000000000000e+00 1886740808
0.755075 -0.258554 -0.776898 0.000000000000000e+00 1886740808
0.757061 -0.304903 -0.805901 0.000000000000000e+00 1886740808
2.020348 -1.078221 -2.315278 0.000000000000000e+00 1634890835
0.795506 -0.481723 -0.948967 0.000000000000000e+00 1886740808
0.740960 -0.253332 -0.775320 0.000000000000000e+00 1886740808
2.111984 -0.849995 -2.287078 0.000000000000000e+00 1634890835
0.818830 -0.437268 -0.955227 0.000000000000000e+00 1886740808
0.779915 -0.472855 -0.947464 0.000000000000000e+00 1886740808
0.724566 -0.247342 -0.771037 0.000000000000000e+00 1886740808
2.109560 -0.848413 -2.323926 0.000000000000000e+00 1634890835
0.820710 -0.438552 -0.974636 0.000000000000000e+00 1886740808
0.765842 -0.464896 -0.947478 0.000000000000000e+00 1886740808
0.702132 -0.239303 -0.759850 0.000000000000000e+00 1886740808
2.061595 -0.828518 -2.310342 0.000000000000000e+00 1634890835
0.766482 -0.409842 -0.926621 0.000000000000000e+00 1886740808
1.816319 -1.103962 -2.288476 0.000000000000000e+00 1634890835
2.046327 -0.696310 -2.252154 0.000000000000000e+00 1634890835
2.011283 -0.807699 -2.292942 0.000000000000000e+00 1634890835
0.803028 -0.429668 -0.988296 0.000000000000000e+00 1886740808
1.819811 -1.107501 -2.335163 0.000000000000000e+00 1634890835
2.026604 -0.688464 -2.268353 0.000000000000000e+00 1634890835
2.031038 -0.815016 -2.355549 0.000000000000000e+00 1634890835
0.805754 -0.431417 -1.009549 0.000000000000000e+00 1886740808
0.789485 -0.481092 -1.031779 0.000000000000000e+00 1886740808
2.026023 -0.687110 -2.306280 0.000000000000000e+00 1634890835
1.926520 -0.772479 -2.273059 0.000000000000000e+00 1634890835
0.799656 -0.428447 -1.020027 0.000000000000000e+00 1886740808
1.710677 -1.043831 -2.277089 0.000000000000000e+00 1634890835
1.968305 -0.666393 -2.278740 0.000000000000000e+00 1634890835
0.788050 -0.315738 -0.945945 0.000000000000000e+00 1886740808
1.770554 -0.949310 -2.299418 0.000000000000000e+00 1634890835
1.675233 -1.023591 -2.271314 0.000000000000000e+00 1634890835
1.936808 -0.654584 -2.280525 0.000000000000000e+00 1634890835
0.797091 -0.319104 -0.973437 0.000000000000000e+00 1886740808
0.800613 -0.429568 -1.058645 0.000000000000000e+00 1886740808
1.642572 -1.005026 -2.268502 0.000000000000000e+00 1634890835
1.887860 -0.636905 -2.260880 0.000000000000000e+00 1634890835
0.760924 -0.304376 -0.945464 0.000000000000000e+00 1886740808
1.723078 -0.925189 -2.319926 0.000000000000000e+00 1634890835
1.633572 -1.000932 -2.298219 0.000000000000000e+00 1634890835
0.798746 -0.268982 -0.972952 0.000000000000000e+00 1886740808
0.756708 -0.302437 -0.956652 0.000000000000000e+00 1886740808
1.704344 -0.915814 -2.336647 0.000000000000000e+00 1634890835
1.583583 -0.971704 -2.269664 0.000000000000000e+00 1634890835
0.788239 -0.264950 -0.976637 0.000000000000000e+00 1886740808
0.789218 -0.315162 -1.015234 0.000000000000000e+00 1886740808
1.664710 -0.895198 -2.324170 0.000000000000000e+00 1634890835
1.566381 -0.962567 -2.287267 0.000000000000000e+00 1634890835
0.802866 -0.269355 -1.011884 0.000000000000000e+00 1886740808
0.808093 -0.322419 -1.057782 0.000000000000000e+00 1886740808
1.626654 -0.875414 -2.312852 0.000000000000000e+00 1634890835
1.560660 -0.960496 -2.321990 0.000000000000000e+00 1634890835
0.793608 -0.265732 -1.017485 0.000000000000000e+00 1886740808
1.710160 -0.681725 -2.278045 0.000000000000000e+00 1634890835
1.628026 -0.876849 -2.357601 0.000000000000000e+00 1634890835
1.502108 -0.925885 -2.277317 0.000000000000000e+00 1634890835
0.757359 -0.253092 -0.987831 0.000000000000000e+00 1886740808
1.691567 -0.673700 -2.293153 0.000000000000000e+00 1634890835
1.549949 -0.835475 -2.286219 0.000000000000000e+00 1634890835
1.485331 -0.916987 -2.294860 0.000000000000000e+00 1634890835
0.789974 -0.263455 -1.048285 0.000000000000000e+00 1886740808
0.777134 -0.309222 -1.072232 0.000000000000000e+00 1886740808
1.563044 -0.843234 -2.348560 0.000000000000000e+00 1634890835
1.478220 -0.914067 -2.327693 0.000000000000000e+00 1634890835
1.701259 -0.566189 -2.296955 0.000000000000000e+00 1634890835
1.636389 -0.650500 -2.298058 0.000000000000000e+00 1634890835
1.467864 -0.792560 -2.246921 0.000000000000000e+00 1634890835
1.419998 -0.879514 -2.279160 0.000000000000000e+00 1634890835
0.786546 -0.261211 -1.080571 0.000000000000000e+00 1886740808
1.633559 -0.648744 -2.335210 0.000000000000000e+00 1634890835
1.497202 -0.809107 -2.335059 0.000000000000000e+00 1634890835
1.398745 -0.867815 -2.288631 0.000000000000000e+00 1634890835
1.684514 -0.558208 -2.354963 0.000000000000000e+00 1634890835
1.589866 -0.630762 -2.313695 0.000000000000000e+00 1634890835
1.448397 -0.783429 -2.301801 0.000000000000000e+00 1634890835
1.340576 -0.833164 -2.236307 0.000000000000000e+00 1634890835
1.592858 -0.526659 -2.266231 0.000000000000000e+00 1634890835
1.553990 -0.615900 -2.302444 0.000000000000000e+00 1634890835
1.433320 -0.775982 -2.321330 0.000000000000000e+00 1634890835
1.357195 -0.844988 -2.308564 0.000000000000000e+00 1634890835
1.545457 -0.509819 -2.237900 0.000000000000000e+00 1634890835
1.498724 -0.593375 -2.261005 0.000000000000000e+00 1634890835
1.430869 -0.775380 -2.361895 0.000000000000000e+00 1634890835
1.336882 -0.833856 -2.319065 0.000000000000000e+00 1634890835
1.529490 -0.503368 -2.254385 0.000000000000000e+00 1634890835
1.492811 -0.590399 -2.293345 0.000000000000000e+00 1634890835
1.367561 -0.741786 -2.301078 0.000000000000000e+00 1634890835
1.264323 -0.790069 -2.236976 0.000000000000000e+00 1634890835
1.526454 -0.501160 -2.290383 0.000000000000000e+00 1634890835
1.462091 -0.577614 -2.287563 0.000000000000000e+00 1634890835
1.343969 -0.729707 -2.305464 0.000000000000000e+00 1634890835
1.259574 -0.788608 -2.273411 0.000000000000000e+00 1634890835
1.491390 -0.488437 -2.278271 0.000000000000000e+00 1634890835
1.451786 -0.572895 -2.313594 0.000000000000000e+00 1634890835
1.333380 -0.724689 -2.332231 0.000000000000000e+00 1634890835
1.258390 -0.789416 -2.317351 0.000000000000000e+00 1634890835
1.442086 -0.471093 -2.243085 0.000000000000000e+00 1634890835
1.414451 -0.557517 -2.296223 0.000000000000000e+00 1634890835
1.310105 -0.712779 -2.336899 0.000000000000000e+00 1634890835
1.221570 -0.767866 -2.295582 0.000000000000000e+00 1634890835
1.460060 -0.475721 -2.312695 0.000000000000000e+00 1634890835
1.411416 -0.555658 -2.334430 0.000000000000000e+00 1634890835
1.282912 -0.698729 -2.334094 0.000000000000000e+00 1634890835
1.198372 -0.754845 -2.298493 0.000000000000000e+00 1634890835
1.435824 -0.466570 -2.316318 0.000000000000000e+00 1634890835
1.361944 -0.535525 -2.295339 0.000000000000000e+00 1634890835
1.228280 -0.669706 -2.279724 0.000000000000000e+00 1634890835
1.174838 -0.741601 -2.300337 0.000000000000000e+00 1634890835
1.406222 -0.455692 -2.310784 0.000000000000000e+00 1634890835
1.377925 -0.541127 -2.366680 0.000000000000000e+00 1634890835
1.195207 -0.652410 -2.263449 0.000000000000000e+00 1634890835
1.161097 -0.734538 -2.321307 0.000000000000000e+00 1634890835
1.379526 -0.445772 -2.309438 0.000000000000000e+00 1634890835
1.328609 -0.521084 -2.325982 0.000000000000000e+00 1634890835
1.204868 -0.658445 -2.328592 0.000000000000000e+00 1634890835
1.137207 -0.721051 -2.321921 0.000000000000000e+00 1634890835
1.318321 -0.424748 -2.248715 0.000000000000000e+00 1634890835
1.260913 -0.493875 -2.250411 0.000000000000000e+00 1634890835
1.162848 -0.636243 -2.293993 0.000000000000000e+00 1634890835
1.107955 -0.704138 -2.310849 0.000000000000000e+00 1634890835
1.291414 -0.414826 -2.244839 0.000000000000000e+00 1634890835
1.283711 -0.502113 -2.336078 0.000000000000000e+00 1634890835
1.144841 -0.627161 -2.305802 0.000000000000000e+00 1634890835
1.068827 -0.680904 -2.277735 0.000000000000000e+00 1634890835
1.296156 -0.415056 -2.296444 0.000000000000000e+00 1634890835
1.233758 -0.481892 -2.289674 0.000000000000000e+00 1634890835
1.139283 -0.624908 -2.343224 0.000000000000000e+00 1634890835
1.047925 -0.669241 -2.282340 0.000000000000000e+00 1634890835
1.260145 -0.402230 -2.276012 0.000000000000000e+00 1634890835
1.215258 -0.473973 -2.300487 0.000000000000000e+00 1634890835
1.103734 -0.606202 -2.318757 0.000000000000000e+00 1634890835
1.035108 -0.662744 -2.304651 0.000000000000000e+00 1634890835
1.246427 -0.396536 -2.295394 0.000000000000000e+00 1634890835
1.173245 -0.456898 -2.265876 0.000000000000000e+00 1634890835
1.087036 -0.597839 -2.333198 0.000000000000000e+00 1634890835
1.004681 -0.644961 -2.287380 0.000000000000000e+00 1634890835
1.216053 -0.385549 -2.283829 0.000000000000000e+00 1634890835
1.170749 -0.455217 -2.307276 0.000000000000000e+00 1634890835
1.045826 -0.575978 -2.294020 0.000000000000000e+00 1634890835
0.978737 -0.630020 -2.279256 0.000000000000000e+00 1634890835
1.173856 -0.370854 -2.248719 0.000000000000000e+00 1634890835
1.137098 -0.441422 -2.287284 0.000000000000000e+00 1634890835
1.026127 -0.565943 -2.300849 0.000000000000000e+00 1634890835
0.964620 -0.622686 -2.298447 0.000000000000000e+00 1634890835
1.174749 -0.369778 -2.295981 0.000000000000000e+00 1634890835
1.110318 -0.430310 -2.280125 0.000000000000000e+00 1634890835
1.010619 -0.558222 -2.317131 0.000000000000000e+00 1634890835
0.948678 -0.614182 -2.313603 0.000000000000000e+00 1634890835
1.146069 -0.359383 -2.285779 0.000000000000000e+00 1634890835
1.117791 -0.432460 -2.344056 0.000000000000000e+00 1634890835
0.976272 -0.540084 -2.289506 0.000000000000000e+00 1634890835
0.913645 -0.593290 -2.281327 0.000000000000000e+00 1634890835
1.122899 -0.350734 -2.285953 0.000000000000000e+00 1634890835
1.060765 -0.409666 -2.272143 0.000000000000000e+00 1634890835
0.972390 -0.538797 -2.333231 0.000000000000000e+00 1634890835
0.877901 -0.571866 -2.245182 0.000000000000000e+00 1634890835
1.122204 -0.349089 -2.332434 0.000000000000000e+00 1634890835
1.056471 -0.407253 -2.312075 0.000000000000000e+00 1634890835
0.937584 -0.520374 -2.302613 0.000000000000000e+00 1634890835
0.868415 -0.567526 -2.275588 0.000000000000000e+00 1634890835
1.078117 -0.333957 -2.288377 0.000000000000000e+00 1634890835
1.031687 -0.396937 -2.307513 0.000000000000000e+00 1634890835
0.916898 -0.509770 -2.305571 0.000000000000000e+00 1634890835
0.857388 -0.562212 -2.302911 0.000000000000000e+00 1634890835
1.058004 -0.326287 -2.293987 0.000000000000000e+00 1634890835
0.993734 -0.381574 -2.272213 0.000000000000000e+00 1634890835
0.907831 -0.505631 -2.338145 0.000000000000000e+00 1634890835
0.839217 -0.552228 -2.311478 0.000000000000000e+00 1634890835
1.016911 -0.312181 -2.252957 0.000000000000000e+00 1634890835
0.982635 -0.376532 -2.297686 0.000000000000000e+00 1634890835
0.872332 -0.486762 -2.302116 0.000000000000000e+00 1634890835
0.468161 -0.309187 -1.322874 0.000000000000000e+00 1936876886
1.031600 -0.315184 -2.336030 0.000000000000000e+00 1634890835
0.949645 -0.363109 -2.271560 0.000000000000000e+00 1634890835
0.835848 -0.467307 -2.261164 0.000000000000000e+00 1634890835
0.424884 -0.281673 -1.232270 0.000000000000000e+00 1936876886
0.994698 -0.302405 -2.302994 0.000000000000000e+00 1634890835
0.955300 -0.364453 -2.338397 0.000000000000000e+00 1634890835
0.853149 -0.477940 -2.366889 0.000000000000000e+00 1634890835
0.416682 -0.277329 -1.240982 0.000000000000000e+00 1936876886
0.956935 -0.289420 -2.266010 0.000000000000000e+00 1634890835
0.926481 -0.352633 -2.321615 0.000000000000000e+00 1634890835
0.470646 -0.264212 -1.339663 0.000000000000000e+00 1936876886
0.348331 -0.232795 -1.065875 0.000000000000000e+00 1953264973
0.937176 -0.281915 -2.270545 0.000000000000000e+00 1634890835
0.908431 -0.344921 -2.331246 0.000000000000000e+00 1634890835
0.439193 -0.247095 -1.283263 0.000000000000000e+00 1936876886
0.308112 -0.206804 -0.969203 0.000000000000000e+00 1953264973
0.515661 -0.154242 -1.278678 0.000000000000000e+00 1936876886
0.865887 -0.327932 -2.276545 0.000000000000000e+00 1634890835
0.374031 -0.210916 -1.122404 0.000000000000000e+00 1953264973
0.283985 -0.191471 -0.918859 0.000000000000000e+00 1953264973
0.497208 -0.147844 -1.262378 0.000000000000000e+00 1936876886
0.852148 -0.321871 -2.296332 0.000000000000000e+00 1634890835
0.337248 -0.190629 -1.039939 0.000000000000000e+00 1953264973
0.260643 -0.176563 -0.867989 0.000000000000000e+00 1953264973
0.459622 -0.135823 -1.195319 0.000000000000000e+00 1936876886
0.811773 -0.305768 -2.243131 0.000000000000000e+00 1634890835
0.305117 -0.172900 -0.967367 0.000000000000000e+00 1953264973
0.242593 -0.165149 -0.832047 0.000000000000000e+00 1953264973
