# .PCD v0.7 - Point Cloud Data file format
VERSION 0.7
FIELDS x y z rgb label
SIZE 4 4 4 4 4
TYPE F F F F U
COUNT 1 1 1 1 1
WIDTH 529
HEIGHT 1
VIEWPOINT 0 0 0 1 0 0 0
POINTS 529
DATA ascii
33.029919 -16.858458 9.912328 0.000000000000000e+00 1954047316
30.967453 -11.504486 -2.248821 0.000000000000000e+00 1851878480
27.306160 -10.136599 -2.231232 0.000000000000000e+00 1851878480
28.010630 -11.708506 -2.232302 0.000000000000000e+00 1851878480
30.629885 -15.816211 -2.268127 0.000000000000000e+00 1851878480
24.347761 -9.031512 -2.211122 0.000000000000000e+00 1851878480
24.493994 -10.234947 -2.181839 0.000000000000000e+00 1851878480
24.145952 -12.471989 -2.029607 0.000000000000000e+00 1851878480
23.762791 -13.515594 -1.917312 0.000000000000000e+00 1851878480
22.176617 -8.219887 -2.216053 0.000000000000000e+00 1851878480
22.356562 -9.338533 -2.201449 0.000000000000000e+00 1851878480
21.955999 -11.344355 -2.065551 0.000000000000000e+00 1851878480
21.692648 -12.345455 -1.975300 0.000000000000000e+00 1851878480
20.398073 -7.554898 -2.224464 0.000000000000000e+00 1851878480
20.484249 -8.553432 -2.209772 0.000000000000000e+00 1851878480
20.514347 -10.602758 -2.135835 0.000000000000000e+00 1851878480
20.000414 -11.389149 -2.029035 0.000000000000000e+00 1851878480
18.937897 -7.008729 -2.238301 0.000000000000000e+00 1851878480
18.947783 -7.909074 -2.222543 0.000000000000000e+00 1851878480
19.011139 -9.828897 -2.170495 0.000000000000000e+00 1851878480
18.836473 -10.732712 -2.107067 0.000000000000000e+00 1851878480
17.559578 -6.493647 -2.236135 0.000000000000000e+00 1851878480
17.596409 -7.342394 -2.230104 0.000000000000000e+00 1851878480
17.614517 -9.109674 -2.188514 0.000000000000000e+00 1851878480
17.689102 -10.084959 -2.163274 0.000000000000000e+00 1851878480
16.413284 -6.065084 -2.240676 0.000000000000000e+00 1851878480
16.463030 -6.867046 -2.242138 0.000000000000000e+00 1851878480
16.474163 -8.522586 -2.213165 0.000000000000000e+00 1851878480
16.415567 -9.364472 -2.179183 0.000000000000000e+00 1851878480
15.384763 -5.680656 -2.241619 0.000000000000000e+00 1851878480
15.382705 -6.414138 -2.240756 0.000000000000000e+00 1851878480
15.442256 -7.991249 -2.230803 0.000000000000000e+00 1851878480
15.450971 -8.819474 -2.213085 0.000000000000000e+00 1851878480
14.428541 -5.323468 -2.235137 0.000000000000000e+00 1851878480
14.467467 -6.030365 -2.244812 0.000000000000000e+00 1851878480
14.468189 -7.489530 -2.236851 0.000000000000000e+00 1851878480
14.418581 -8.235114 -2.216734 0.000000000000000e+00 1851878480
13.683360 -5.044634 -2.245965 0.000000000000000e+00 1851878480
13.631619 -5.679945 -2.244863 0.000000000000000e+00 1851878480
13.604103 -7.044453 -2.241616 0.000000000000000e+00 1851878480
13.630243 -7.789534 -2.239162 0.000000000000000e+00 1851878480
12.960903 -4.774585 -2.247264 0.000000000000000e+00 1851878480
12.860930 -5.356898 -2.240658 0.000000000000000e+00 1851878480
12.833176 -6.647350 -2.245463 0.000000000000000e+00 1851878480
12.840625 -7.342696 -2.245147 0.000000000000000e+00 1851878480
12.237655 -4.504646 -2.235342 0.000000000000000e+00 1851878480
12.281211 -5.113604 -2.257152 0.000000000000000e+00 1851878480
12.113420 -6.276519 -2.243422 0.000000000000000e+00 1851878480
12.094014 -6.919944 -2.242810 0.000000000000000e+00 1851878480
11.652303 -4.285837 -2.236760 0.000000000000000e+00 1851878480
11.588595 -4.823479 -2.241031 0.000000000000000e+00 1851878480
11.508801 -5.965131 -2.249517 0.000000000000000e+00 1851878480
11.457464 -6.559689 -2.246610 0.000000000000000e+00 1851878480
11.121910 -4.087552 -2.238647 0.000000000000000e+00 1851878480
11.049523 -4.597440 -2.243100 0.000000000000000e+00 1851878480
10.915689 -5.659512 -2.245935 0.000000000000000e+00 1851878480
10.899315 -6.243928 -2.253472 0.000000000000000e+00 1851878480
10.668706 -3.917913 -2.247196 0.000000000000000e+00 1851878480
10.529683 -4.379562 -2.239197 0.000000000000000e+00 1851878480
10.361851 -5.374076 -2.238991 0.000000000000000e+00 1851878480
10.321225 -5.916363 -2.244478 0.000000000000000e+00 1851878480
10.203454 -3.744109 -2.244920 0.000000000000000e+00 1851878480
10.107368 -4.202383 -2.247262 0.000000000000000e+00 1851878480
9.928473 -5.150967 -2.248248 0.000000000000000e+00 1851878480
9.801759 -5.622032 -2.236873 0.000000000000000e+00 1851878480
9.791479 -3.590097 -2.246435 0.000000000000000e+00 1851878480
9.629556 -4.002264 -2.234586 0.000000000000000e+00 1851878480
9.509394 -4.935132 -2.252271 0.000000000000000e+00 1851878480
9.399595 -5.394675 -2.246522 0.000000000000000e+00 1851878480
9.397240 -3.442815 -2.244735 0.000000000000000e+00 1851878480
9.237607 -3.837956 -2.233707 0.000000000000000e+00 1851878480
9.057344 -4.702049 -2.239790 0.000000000000000e+00 1851878480
9.016368 -5.177924 -2.252617 0.000000000000000e+00 1851878480
9.028693 -3.305158 -2.242274 0.000000000000000e+00 1851878480
8.960290 -3.721370 -2.254344 0.000000000000000e+00 1851878480
8.685533 -4.510486 -2.238913 0.000000000000000e+00 1851878480
8.545762 -4.910700 -2.228021 0.000000000000000e+00 1851878480
8.699153 -3.181981 -2.243193 0.000000000000000e+00 1851878480
8.579686 -3.561987 -2.242883 0.000000000000000e+00 1851878480
8.362169 -4.343975 -2.243605 0.000000000000000e+00 1851878480
8.285720 -4.764234 -2.250772 0.000000000000000e+00 1851878480
8.343451 -3.049424 -2.231156 0.000000000000000e+00 1851878480
8.337115 -3.459998 -2.261715 0.000000000000000e+00 1851878480
8.051369 -4.183891 -2.245362 0.000000000000000e+00 1851878480
7.913961 -4.553321 -2.236665 0.000000000000000e+00 1851878480
8.091860 -2.955085 -2.241473 0.000000000000000e+00 1851878480
7.976782 -3.309228 -2.242984 0.000000000000000e+00 1851878480
7.766439 -4.037149 -2.248408 0.000000000000000e+00 1851878480
7.647582 -4.402818 -2.245735 0.000000000000000e+00 1851878480
7.833458 -2.858397 -2.245328 0.000000000000000e+00 1851878480
7.708974 -3.196932 -2.244379 0.000000000000000e+00 1851878480
7.480733 -3.889920 -2.245540 0.000000000000000e+00 1851878480
7.367342 -4.244153 -2.245103 0.000000000000000e+00 1851878480
7.559189 -2.756074 -2.239824 0.000000000000000e+00 1851878480
7.439353 -3.083961 -2.240233 0.000000000000000e+00 1851878480
7.270580 -3.781896 -2.260437 0.000000000000000e+00 1851878480
7.095018 -4.089868 -2.241158 0.000000000000000e+00 1851878480
7.360757 -2.681531 -2.252539 0.000000000000000e+00 1851878480
7.181633 -2.976003 -2.234736 0.000000000000000e+00 1851878480
6.960241 -3.621674 -2.238979 0.000000000000000e+00 1851878480
6.853120 -3.952939 -2.241495 0.000000000000000e+00 1851878480
7.096198 -2.583031 -2.240845 0.000000000000000e+00 1851878480
7.019155 -2.907572 -2.255000 0.000000000000000e+00 1851878480
6.753408 -3.515229 -2.245624 0.000000000000000e+00 1851878480
6.659184 -3.843535 -2.253047 0.000000000000000e+00 1851878480
6.897477 -2.508620 -2.245743 0.000000000000000e+00 1851878480
6.774992 -2.805361 -2.245258 0.000000000000000e+00 1851878480
6.513257 -3.391366 -2.236724 0.000000000000000e+00 1851878480
6.446048 -3.722913 -2.253923 0.000000000000000e+00 1851878480
6.651176 -2.417030 -2.231111 0.000000000000000e+00 1851878480
6.590518 -2.727931 -2.251296 0.000000000000000e+00 1851878480
6.379695 -3.322952 -2.260745 0.000000000000000e+00 1851878480
6.200018 -3.583134 -2.238505 0.000000000000000e+00 1851878480
6.513677 -2.365086 -2.249523 0.000000000000000e+00 1851878480
6.404788 -2.650033 -2.253479 0.000000000000000e+00 1851878480
6.158646 -3.208907 -2.250264 0.000000000000000e+00 1851878480
6.018563 -3.480534 -2.241941 0.000000000000000e+00 1851878480
6.302740 -2.286576 -2.239454 0.000000000000000e+00 1851878480
6.175498 -2.554174 -2.236432 0.000000000000000e+00 1851878480
5.966265 -3.109734 -2.246092 0.000000000000000e+00 1851878480
5.855743 -3.388592 -2.248786 0.000000000000000e+00 1851878480
6.081386 -2.204406 -2.221709 0.000000000000000e+00 1851878480
6.046890 -2.500005 -2.252512 0.000000000000000e+00 1851878480
5.792933 -3.020428 -2.245428 0.000000000000000e+00 1851878480
5.689869 -3.294774 -2.251086 0.000000000000000e+00 1851878480
5.954457 -2.156562 -2.235308 0.000000000000000e+00 1851878480
5.862748 -2.422927 -2.245018 0.000000000000000e+00 1851878480
5.628916 -2.935928 -2.245005 0.000000000000000e+00 1851878480
5.483817 -3.177559 -2.233587 0.000000000000000e+00 1851878480
5.876853 -2.126637 -2.265708 0.000000000000000e+00 1851878480
5.730911 -2.367509 -2.254617 0.000000000000000e+00 1851878480
5.501104 -2.870264 -2.256145 0.000000000000000e+00 1851878480
5.353852 -3.104323 -2.243574 0.000000000000000e+00 1851878480
5.683061 -2.054739 -2.248907 0.000000000000000e+00 1851878480
5.575463 -2.302378 -2.252276 0.000000000000000e+00 1851878480
5.288041 -2.760065 -2.228866 0.000000000000000e+00 1851878480
5.213795 -3.025142 -2.246578 0.000000000000000e+00 1851878480
5.552448 -2.005776 -2.254149 0.000000000000000e+00 1851878480
5.443810 -2.247113 -2.256881 0.000000000000000e+00 1851878480
5.204234 -2.717282 -2.253095 0.000000000000000e+00 1851878480
5.082079 -2.950715 -2.250385 0.000000000000000e+00 1851878480
5.327516 -1.922845 -2.217800 0.000000000000000e+00 1851878480
5.284438 -2.180453 -2.247272 0.000000000000000e+00 1851878480
5.055888 -2.640767 -2.247130 0.000000000000000e+00 1851878480
4.922643 -2.860090 -2.238872 0.000000000000000e+00 1851878480
5.231823 -1.886647 -2.232291 0.000000000000000e+00 1851878480
5.179632 -2.136343 -2.258413 0.000000000000000e+00 1851878480
4.933437 -2.577731 -2.249959 0.000000000000000e+00 1851878480
4.800727 -2.791170 -2.241474 0.000000000000000e+00 1851878480
5.147671 -1.854660 -2.250194 0.000000000000000e+00 1851878480
5.014238 -2.067284 -2.240600 0.000000000000000e+00 1851878480
4.798034 -2.507888 -2.244297 0.000000000000000e+00 1851878480
4.659915 -2.711169 -2.232503 0.000000000000000e+00 1851878480
5.015682 -1.805497 -2.245283 0.000000000000000e+00 1851878480
4.898228 -2.018626 -2.242178 0.000000000000000e+00 1851878480
4.720086 -2.468039 -2.263429 0.000000000000000e+00 1851878480
4.573915 -2.662987 -2.247464 0.000000000000000e+00 1851878480
4.894082 -1.760146 -2.242714 0.000000000000000e+00 1851878480
4.839218 -1.993484 -2.268320 0.000000000000000e+00 1851878480
4.554269 -2.382210 -2.237969 0.000000000000000e+00 1851878480
4.480834 -2.610624 -2.257186 0.000000000000000e+00 1851878480
4.817146 -1.730907 -2.258874 0.000000000000000e+00 1851878480
4.706608 -1.938049 -2.258241 0.000000000000000e+00 1851878480
4.516704 -2.363432 -2.273541 0.000000000000000e+00 1851878480
4.399723 -2.565178 -2.271229 0.000000000000000e+00 1851878480
4.707639 -1.690018 -2.258137 0.000000000000000e+00 1851878480
4.588737 -1.888719 -2.252843 0.000000000000000e+00 1851878480
4.415392 -2.311280 -2.275789 0.000000000000000e+00 1851878480
4.236408 -2.471720 -2.240227 0.000000000000000e+00 1851878480
4.579713 -1.642583 -2.246382 0.000000000000000e+00 1851878480
4.436138 -1.825137 -2.227762 0.000000000000000e+00 1851878480
4.280998 -2.241770 -2.258570 0.000000000000000e+00 1851878480
4.190482 -2.446681 -2.269121 0.000000000000000e+00 1851878480
4.472725 -1.602727 -2.242724 0.000000000000000e+00 1851878480
4.345989 -1.787285 -2.231703 0.000000000000000e+00 1851878480
4.165627 -2.182179 -2.248779 0.000000000000000e+00 1851878480
4.071174 -2.378744 -2.256635 0.000000000000000e+00 1851878480
4.397984 -1.574472 -2.253629 0.000000000000000e+00 1851878480
4.264082 -1.752845 -2.238319 0.000000000000000e+00 1851878480
4.087541 -2.142090 -2.257179 0.000000000000000e+00 1851878480
3.926118 -2.295664 -2.226944 0.000000000000000e+00 1851878480
4.257603 -1.522783 -2.228908 0.000000000000000e+00 1851878480
4.162185 -1.710216 -2.232736 0.000000000000000e+00 1851878480
4.016075 -2.105448 -2.267823 0.000000000000000e+00 1851878480
3.868379 -2.263572 -2.244619 0.000000000000000e+00 1851878480
4.165154 -1.488300 -2.227077 0.000000000000000e+00 1851878480
4.101736 -1.684640 -2.247918 0.000000000000000e+00 1851878480
3.963504 -2.078694 -2.288037 0.000000000000000e+00 1851878480
3.818887 -2.236274 -2.266148 0.000000000000000e+00 1851878480
4.114630 -1.468839 -2.246450 0.000000000000000e+00 1851878480
4.010894 -1.646604 -2.245091 0.000000000000000e+00 1851878480
3.848916 -2.019388 -2.270792 0.000000000000000e+00 1851878480
3.754695 -2.200337 -2.277931 0.000000000000000e+00 1851878480
4.121489 -1.469865 -2.297059 0.000000000000000e+00 1634890835
3.934442 -1.614499 -2.248766 0.000000000000000e+00 1851878480
3.730997 -1.958294 -2.249077 0.000000000000000e+00 1851878480
3.655146 -2.143621 -2.266563 0.000000000000000e+00 1851878480
3.995591 -1.423576 -2.272722 0.000000000000000e+00 1634890835
3.856420 -1.581770 -2.250130 0.000000000000000e+00 1851878480
3.677460 -1.930965 -2.264427 0.000000000000000e+00 1851878480
3.565657 -2.092739 -2.259377 0.000000000000000e+00 1851878480
3.927054 -1.397778 -2.279186 0.000000000000000e+00 1634890835
3.772226 -1.546536 -2.246378 0.000000000000000e+00 1851878480
3.585073 -1.883209 -2.254422 0.000000000000000e+00 1851878480
3.458223 -2.031252 -2.238630 0.000000000000000e+00 1851878480
3.862183 -1.373321 -2.286640 0.000000000000000e+00 1634890835
3.706749 -1.518995 -2.252388 0.000000000000000e+00 1851878480
3.534749 -1.857531 -2.269466 0.000000000000000e+00 1851878480
3.410672 -2.004886 -2.255013 0.000000000000000e+00 1851878480
3.800975 -1.350200 -2.295206 0.000000000000000e+00 1634890835
3.578352 -1.465702 -2.218230 0.000000000000000e+00 1851878480
3.443091 -1.810109 -2.256565 0.000000000000000e+00 1851878480
3.294173 -1.937932 -2.224026 0.000000000000000e+00 1851878480
3.737555 -1.326324 -2.301385 0.000000000000000e+00 1634890835
3.559693 -1.457379 -2.250724 0.000000000000000e+00 1851878480
3.373027 -1.774011 -2.256128 0.000000000000000e+00 1851878480
3.306253 -1.946590 -2.278891 0.000000000000000e+00 1851878480
3.613064 -1.280833 -2.268143 0.000000000000000e+00 1634890835
3.581149 -1.465469 -2.309061 0.000000000000000e+00 1634890835
3.315384 -1.744425 -2.262756 0.000000000000000e+00 1851878480
3.201392 -1.886368 -2.252342 0.000000000000000e+00 1851878480
3.578190 -1.267156 -2.289669 0.000000000000000e+00 1634890835
3.475306 -1.421479 -2.284705 0.000000000000000e+00 1634890835
3.252820 -1.712232 -2.264870 0.000000000000000e+00 1851878480
3.159375 -1.863126 -2.268419 0.000000000000000e+00 1851878480
3.517270 -1.244277 -2.293797 0.000000000000000e+00 1634890835
3.414809 -1.396059 -2.288509 0.000000000000000e+00 1634890835
3.188431 -1.679057 -2.264453 0.000000000000000e+00 1851878480
3.098473 -1.828714 -2.269965 0.000000000000000e+00 1851878480
3.435006 -1.213890 -2.282685 0.000000000000000e+00 1634890835
3.328537 -1.360126 -2.273618 0.000000000000000e+00 1634890835
3.111717 -1.639368 -2.253808 0.000000000000000e+00 1851878480
2.996715 -1.770128 -2.239717 0.000000000000000e+00 1851878480
3.372489 -1.190522 -2.283341 0.000000000000000e+00 1634890835
3.276210 -1.338085 -2.280583 0.000000000000000e+00 1634890835
3.055996 -1.610718 -2.257001 0.000000000000000e+00 1851878480
2.952297 -1.745359 -2.250687 0.000000000000000e+00 1851878480
3.325959 -1.172823 -2.293902 0.000000000000000e+00 1634890835
3.227095 -1.317368 -2.288928 0.000000000000000e+00 1634890835
3.024135 -1.594631 -2.277077 0.000000000000000e+00 1851878480
2.877361 -1.702507 -2.237134 0.000000000000000e+00 1851878480
3.274676 -1.153476 -2.300401 0.000000000000000e+00 1634890835
3.195377 -1.303762 -2.309019 0.000000000000000e+00 1634890835
2.938205 -1.550015 -2.255250 0.000000000000000e+00 1851878480
2.809431 -1.663745 -2.227393 0.000000000000000e+00 1851878480
3.193774 -1.123732 -2.284857 0.000000000000000e+00 1634890835
3.116503 -1.270931 -2.294037 0.000000000000000e+00 1634890835
2.904936 -1.533159 -2.272624 0.000000000000000e+00 1851878480
2.777102 -1.646036 -2.244882 0.000000000000000e+00 1851878480
3.116762 -1.095405 -2.270510 0.000000000000000e+00 1634890835
3.066114 -1.249739 -2.298765 0.000000000000000e+00 1634890835
2.823101 -1.490654 -2.250823 0.000000000000000e+00 1851878480
2.686085 -1.593494 -2.213553 0.000000000000000e+00 1851878480
3.090984 -1.085112 -2.292611 0.000000000000000e+00 1634890835
3.039229 -1.238131 -2.320552 0.000000000000000e+00 1634890835
2.761009 -1.458545 -2.243135 0.000000000000000e+00 1851878480
0.875782 -0.520014 -0.735671 0.000000000000000e+00 1886740808
3.011494 -1.055990 -2.273949 0.000000000000000e+00 1634890835
2.999157 -1.221161 -2.331851 0.000000000000000e+00 1634890835
2.797221 -1.478372 -2.315472 0.000000000000000e+00 1634890835
0.828998 -0.492680 -0.709760 0.000000000000000e+00 1886740808
2.951311 -1.033682 -2.268470 0.000000000000000e+00 1634890835
2.904378 -1.181937 -2.299230 0.000000000000000e+00 1634890835
0.879312 -0.464951 -0.741542 0.000000000000000e+00 1886740808
0.832437 -0.495179 -0.726332 0.000000000000000e+00 1886740808
2.895360 -1.012890 -2.265148 0.000000000000000e+00 1634890835
2.863114 -1.164510 -2.307561 0.000000000000000e+00 1634890835
0.824333 -0.436090 -0.708163 0.000000000000000e+00 1886740808
0.809475 -0.481967 -0.719732 0.000000000000000e+00 1886740808
2.889270 -1.009551 -2.300478 0.000000000000000e+00 1634890835
2.794205 -1.135859 -2.292545 0.000000000000000e+00 1634890835
0.860317 -0.455349 -0.752815 0.000000000000000e+00 1886740808
0.808271 -0.481704 -0.732268 0.000000000000000e+00 1886740808
2.807034 -0.979629 -2.274446 0.000000000000000e+00 1634890835
2.770380 -1.125547 -2.313700 0.000000000000000e+00 1634890835
0.805307 -0.426445 -0.717719 0.000000000000000e+00 1886740808
0.807123 -0.481480 -0.745013 0.000000000000000e+00 1886740808
2.790583 -0.972690 -2.300837 0.000000000000000e+00 1634890835
0.849773 -0.345050 -0.722344 0.000000000000000e+00 1886740808
0.837809 -0.443880 -0.760446 0.000000000000000e+00 1886740808
0.761254 -0.454557 -0.715866 0.000000000000000e+00 1886740808
0.837909 -0.291699 -0.702939 0.000000000000000e+00 1886740808
0.820802 -0.333095 -0.710102 0.000000000000000e+00 1886740808
0.780441 -0.413696 -0.721377 0.000000000000000e+00 1886740808
0.777146 -0.464502 -0.744479 0.000000000000000e+00 1886740808
0.821501 -0.285626 -0.701179 0.000000000000000e+00 1886740808
0.815664 -0.330818 -0.718134 0.000000000000000e+00 1886740808
0.807101 -0.428049 -0.759664 0.000000000000000e+00 1886740808
0.758130 -0.453588 -0.739801 0.000000000000000e+00 1886740808
0.819934 -0.284716 -0.711986 0.000000000000000e+00 1886740808
0.764535 -0.309897 -0.684976 0.000000000000000e+00 1886740808
0.763092 -0.404922 -0.731335 0.000000000000000e+00 1886740808
0.761776 -0.456231 -0.757176 0.000000000000000e+00 1886740808
0.768990 -0.266679 -0.679297 0.000000000000000e+00 1886740808
0.837213 -0.339155 -0.763263 0.000000000000000e+00 1886740808
0.793081 -0.421059 -0.773894 0.000000000000000e+00 1886740808
0.766288 -0.459405 -0.775778 0.000000000000000e+00 1886740808
0.733502 -0.254037 -0.659118 0.000000000000000e+00 1886740808
0.801817 -0.324618 -0.743792 0.000000000000000e+00 1886740808
0.749089 -0.397919 -0.744219 0.000000000000000e+00 1886740808
0.768213 -0.461039 -0.792109 0.000000000000000e+00 1886740808
0.798285 -0.276102 -0.729662 0.000000000000000e+00 1886740808
0.786018 -0.318026 -0.741867 0.000000000000000e+00 1886740808
0.781850 -0.415549 -0.790819 0.000000000000000e+00 1886740808
0.733408 -0.440617 -0.770177 0.000000000000000e+00 1886740808
0.804396 -0.277837 -0.747854 0.000000000000000e+00 1886740808
0.740535 -0.299436 -0.711114 0.000000000000000e+00 1886740808
0.804074 -0.427600 -0.827982 0.000000000000000e+00 1886740808
0.750289 -0.451244 -0.802420 0.000000000000000e+00 1886740808
0.762732 -0.263082 -0.721249 0.000000000000000e+00 1886740808
0.794790 -0.321170 -0.776481 0.000000000000000e+00 1886740808
0.740321 -0.393920 -0.776075 0.000000000000000e+00 1886740808
2.064186 -1.242816 -2.248224 0.000000000000000e+00 1634890835
0.756652 -0.260618 -0.727715 0.000000000000000e+00 1886740808
0.780289 -0.315106 -0.775542 0.000000000000000e+00 1886740808
0.738923 -0.393403 -0.788555 0.000000000000000e+00 1886740808
2.054715 -1.238488 -2.279038 0.000000000000000e+00 1634890835
0.743698 -0.255790 -0.727448 0.000000000000000e+00 1886740808
0.766474 -0.309324 -0.775012 0.000000000000000e+00 1886740808
2.140268 -1.140146 -2.325103 0.000000000000000e+00 1634890835
2.068524 -1.248222 -2.336494 0.000000000000000e+00 1634890835
0.719763 -0.247198 -0.716019 0.000000000000000e+00 1886740808
0.787383 -0.317550 -0.809933 0.000000000000000e+00 1886740808
2.080257 -1.108838 -2.300527 0.000000000000000e+00 1634890835
0.824318 -0.497995 -0.948200 0.000000000000000e+00 1886740808
0.758589 -0.260148 -0.767475 0.000000000000000e+00 1886740808
0.769511 -0.310132 -0.805237 0.000000000000000e+00 1886740808
2.063884 -1.100776 -2.323426 0.000000000000000e+00 1634890835
0.788086 -0.476663 -0.923164 0.000000000000000e+00 1886740808
0.751999 -0.257501 -0.773733 0.000000000000000e+00 1886740808
0.779767 -0.314048 -0.830071 0.000000000000000e+00 1886740808
2.014189 -1.074933 -2.308219 0.000000000000000e+00 1634890835
0.821654 -0.497557 -0.980160 0.000000000000000e+00 1886740808
0.774161 -0.264684 -0.810061 0.000000000000000e+00 1886740808
2.130091 -0.857282 -2.306687 0.000000000000000e+00 1634890835
0.825582 -0.440874 -0.963103 0.000000000000000e+00 1886740808
0.764120 -0.463279 -0.928276 0.000000000000000e+00 1886740808
0.743506 -0.253807 -0.791192 0.000000000000000e+00 1886740808
2.124382 -0.854374 -2.340255 0.000000000000000e+00 1634890835
0.791696 -0.423049 -0.940181 0.000000000000000e+00 1886740808
0.801543 -0.486568 -0.991646 0.000000000000000e+00 1886740808
0.784829 -0.267488 -0.849344 0.000000000000000e+00 1886740808
2.067920 -0.831060 -2.317430 0.000000000000000e+00 1634890835
0.767836 -0.410565 -0.928257 0.000000000000000e+00 1886740808
1.806809 -1.098181 -2.276494 0.000000000000000e+00 1634890835
2.074148 -0.705777 -2.282773 0.000000000000000e+00 1634890835
1.997802 -0.802285 -2.277573 0.000000000000000e+00 1634890835
0.785237 -0.420148 -0.966401 0.000000000000000e+00 1886740808
1.794353 -1.092007 -2.302495 0.000000000000000e+00 1634890835
2.045915 -0.695024 -2.289968 0.000000000000000e+00 1634890835
1.974410 -0.792292 -2.289872 0.000000000000000e+00 1634890835
0.818720 -0.438359 -1.025795 0.000000000000000e+00 1886740808
0.757814 -0.461792 -0.990387 0.000000000000000e+00 1886740808
2.013013 -0.682698 -2.291471 0.000000000000000e+00 1634890835
1.961533 -0.786518 -2.314370 0.000000000000000e+00 1634890835
0.764495 -0.409608 -0.975176 0.000000000000000e+00 1886740808
1.722505 -1.051048 -2.292833 0.000000000000000e+00 1634890835
1.976188 -0.669062 -2.287867 0.000000000000000e+00 1634890835
0.778616 -0.311958 -0.934620 0.000000000000000e+00 1886740808
1.759928 -0.943613 -2.285617 0.000000000000000e+00 1634890835
1.701816 -1.039834 -2.307355 0.000000000000000e+00 1634890835
1.939313 -0.655431 -2.283475 0.000000000000000e+00 1634890835
0.855736 -0.342581 -1.045056 0.000000000000000e+00 1886740808
0.787589 -0.422580 -1.041424 0.000000000000000e+00 1886740808
1.675599 -1.025234 -2.314115 0.000000000000000e+00 1634890835
1.906702 -0.643261 -2.283445 0.000000000000000e+00 1634890835
0.807454 -0.322988 -1.003279 0.000000000000000e+00 1886740808
1.736694 -0.932501 -2.338259 0.000000000000000e+00 1634890835
1.650033 -1.011018 -2.321378 0.000000000000000e+00 1634890835
0.810213 -0.272843 -0.986919 0.000000000000000e+00 1886740808
0.796999 -0.318540 -1.007590 0.000000000000000e+00 1886740808
1.693677 -0.910082 -2.322022 0.000000000000000e+00 1634890835
1.579170 -0.968996 -2.263339 0.000000000000000e+00 1634890835
0.777724 -0.261416 -0.963609 0.000000000000000e+00 1886740808
0.790326 -0.315604 -1.016659 0.000000000000000e+00 1886740808
1.659345 -0.892313 -2.316679 0.000000000000000e+00 1634890835
1.580948 -0.971519 -2.308537 0.000000000000000e+00 1634890835
0.782119 -0.262394 -0.985736 0.000000000000000e+00 1886740808
0.785865 -0.313550 -1.028686 0.000000000000000e+00 1886740808
1.622798 -0.873340 -2.307370 0.000000000000000e+00 1634890835
1.551829 -0.955061 -2.308851 0.000000000000000e+00 1634890835
0.774413 -0.259305 -0.992876 0.000000000000000e+00 1886740808
1.717308 -0.684574 -2.287566 0.000000000000000e+00 1634890835
1.598590 -0.860994 -2.314973 0.000000000000000e+00 1634890835
1.502650 -0.926219 -2.278140 0.000000000000000e+00 1634890835
0.776194 -0.259386 -1.012398 0.000000000000000e+00 1886740808
1.715666 -0.683298 -2.325823 0.000000000000000e+00 1634890835
1.571648 -0.847172 -2.318226 0.000000000000000e+00 1634890835
1.476731 -0.911677 -2.281573 0.000000000000000e+00 1634890835
0.761998 -0.254125 -1.011162 0.000000000000000e+00 1886740808
0.754174 -0.300086 -1.040552 0.000000000000000e+00 1886740808
1.564419 -0.843976 -2.350627 0.000000000000000e+00 1634890835
1.464982 -0.905881 -2.306847 0.000000000000000e+00 1634890835
1.689584 -0.562303 -2.281191 0.000000000000000e+00 1634890835
1.652935 -0.657078 -2.321295 0.000000000000000e+00 1634890835
1.503553 -0.811830 -2.301552 0.000000000000000e+00 1634890835
1.426269 -0.883398 -2.289225 0.000000000000000e+00 1634890835
0.783418 -0.260172 -1.076272 0.000000000000000e+00 1886740808
1.658916 -0.658814 -2.371459 0.000000000000000e+00 1634890835
1.469051 -0.793894 -2.291156 0.000000000000000e+00 1634890835
1.411519 -0.875741 -2.309532 0.000000000000000e+00 1634890835
1.654542 -0.548275 -2.313061 0.000000000000000e+00 1634890835
1.573158 -0.624133 -2.289381 0.000000000000000e+00 1634890835
1.466325 -0.793126 -2.330293 0.000000000000000e+00 1634890835
1.384526 -0.860479 -2.309624 0.000000000000000e+00 1634890835
1.633488 -0.540093 -2.324036 0.000000000000000e+00 1634890835
1.561823 -0.619005 -2.314052 0.000000000000000e+00 1634890835
1.472334 -0.797104 -2.384515 0.000000000000000e+00 1634890835
1.335816 -0.831678 -2.272200 0.000000000000000e+00 1634890835
1.546332 -0.510107 -2.239166 0.000000000000000e+00 1634890835
1.535994 -0.608131 -2.317232 0.000000000000000e+00 1634890835
1.391361 -0.753971 -2.296680 0.000000000000000e+00 1634890835
1.344178 -0.838407 -2.331722 0.000000000000000e+00 1634890835
1.574492 -0.518178 -2.320716 0.000000000000000e+00 1634890835
1.510104 -0.597239 -2.319912 0.000000000000000e+00 1634890835
1.410570 -0.765114 -2.373446 0.000000000000000e+00 1634890835
1.319397 -0.824484 -2.334418 0.000000000000000e+00 1634890835
1.514968 -0.497389 -2.273149 0.000000000000000e+00 1634890835
1.510012 -0.596545 -2.362539 0.000000000000000e+00 1634890835
1.334677 -0.724662 -2.289525 0.000000000000000e+00 1634890835
1.262383 -0.790367 -2.278481 0.000000000000000e+00 1634890835
1.519353 -0.497595 -2.320987 0.000000000000000e+00 1634890835
1.446153 -0.570673 -2.304618 0.000000000000000e+00 1634890835
1.331755 -0.723806 -2.329388 0.000000000000000e+00 1634890835
1.245392 -0.781262 -2.293414 0.000000000000000e+00 1634890835
1.480911 -0.483776 -2.303476 0.000000000000000e+00 1634890835
1.420961 -0.560083 -2.306792 0.000000000000000e+00 1634890835
1.260902 -0.686009 -2.249132 0.000000000000000e+00 1634890835
1.215405 -0.763990 -2.283996 0.000000000000000e+00 1634890835
1.446321 -0.471245 -2.290932 0.000000000000000e+00 1634890835
1.371294 -0.539863 -2.268070 0.000000000000000e+00 1634890835
1.277664 -0.695870 -2.324545 0.000000000000000e+00 1634890835
1.188179 -0.748425 -2.278944 0.000000000000000e+00 1634890835
1.416329 -0.460235 -2.284868 0.000000000000000e+00 1634890835
1.340516 -0.527099 -2.259225 0.000000000000000e+00 1634890835
1.240974 -0.676628 -2.303284 0.000000000000000e+00 1634890835
1.171629 -0.739575 -2.294054 0.000000000000000e+00 1634890835
1.414257 -0.458296 -2.323988 0.000000000000000e+00 1634890835
1.337806 -0.525372 -2.297772 0.000000000000000e+00 1634890835
1.221223 -0.666611 -2.312718 0.000000000000000e+00 1634890835
1.137558 -0.719646 -2.274246 0.000000000000000e+00 1634890835
1.378908 -0.445572 -2.308404 0.000000000000000e+00 1634890835
1.301458 -0.510435 -2.278449 0.000000000000000e+00 1634890835
1.207356 -0.659805 -2.333401 0.000000000000000e+00 1634890835
1.125782 -0.713807 -2.298592 0.000000000000000e+00 1634890835
1.333344 -0.429588 -2.274341 0.000000000000000e+00 1634890835
1.296308 -0.507738 -2.313582 0.000000000000000e+00 1634890835
1.170878 -0.640637 -2.309835 0.000000000000000e+00 1634890835
1.103785 -0.701488 -2.302153 0.000000000000000e+00 1634890835
1.317394 -0.423171 -2.290000 0.000000000000000e+00 1634890835
1.239102 -0.484664 -2.254899 0.000000000000000e+00 1634890835
1.149631 -0.629785 -2.315450 0.000000000000000e+00 1634890835
1.078223 -0.686889 -2.297757 0.000000000000000e+00 1634890835
1.296610 -0.415201 -2.297249 0.000000000000000e+00 1634890835
1.249787 -0.488153 -2.319421 0.000000000000000e+00 1634890835
1.123795 -0.616413 -2.311370 0.000000000000000e+00 1634890835
1.034005 -0.660351 -2.252023 0.000000000000000e+00 1634890835
1.266668 -0.404312 -2.287794 0.000000000000000e+00 1634890835
1.220182 -0.475893 -2.309807 0.000000000000000e+00 1634890835
1.095177 -0.601503 -2.300781 0.000000000000000e+00 1634890835
1.014071 -0.649275 -2.257814 0.000000000000000e+00 1634890835
1.251826 -0.398254 -2.305338 0.000000000000000e+00 1634890835
1.198794 -0.466848 -2.315217 0.000000000000000e+00 1634890835
1.088464 -0.598624 -2.336262 0.000000000000000e+00 1634890835
1.014349 -0.651168 -2.309391 0.000000000000000e+00 1634890835
1.198444 -0.379966 -2.250758 0.000000000000000e+00 1634890835
1.161818 -0.451744 -2.289675 0.000000000000000e+00 1634890835
1.067209 -0.587754 -2.340922 0.000000000000000e+00 1634890835
0.982182 -0.632238 -2.287278 0.000000000000000e+00 1634890835
1.176253 -0.371611 -2.253310 0.000000000000000e+00 1634890835
1.153964 -0.447969 -2.321211 0.000000000000000e+00 1634890835
1.055157 -0.581954 -2.365944 0.000000000000000e+00 1634890835
0.976056 -0.630068 -2.325696 0.000000000000000e+00 1634890835
1.159676 -0.365033 -2.266522 0.000000000000000e+00 1634890835
1.116746 -0.432801 -2.293325 0.000000000000000e+00 1634890835
0.998940 -0.551772 -2.290354 0.000000000000000e+00 1634890835
0.957843 -0.620115 -2.335955 0.000000000000000e+00 1634890835
1.139191 -0.357226 -2.272061 0.000000000000000e+00 1634890835
1.089905 -0.421671 -2.285578 0.000000000000000e+00 1634890835
0.975326 -0.539560 -2.287286 0.000000000000000e+00 1634890835
0.934366 -0.606745 -2.333065 0.000000000000000e+00 1634890835
1.127334 -0.352119 -2.294981 0.000000000000000e+00 1634890835
1.093860 -0.422447 -2.343033 0.000000000000000e+00 1634890835
0.968472 -0.536627 -2.323832 0.000000000000000e+00 1634890835
0.912492 -0.594399 -2.333647 0.000000000000000e+00 1634890835
1.105978 -0.344042 -2.298710 0.000000000000000e+00 1634890835
1.059118 -0.408274 -2.317868 0.000000000000000e+00 1634890835
0.954728 -0.529889 -2.344718 0.000000000000000e+00 1634890835
0.870962 -0.569191 -2.282262 0.000000000000000e+00 1634890835
1.080708 -0.334760 -2.293874 0.000000000000000e+00 1634890835
1.041745 -0.400807 -2.330008 0.000000000000000e+00 1634890835
0.937840 -0.521413 -2.358231 0.000000000000000e+00 1634890835
0.859398 -0.563530 -2.308309 0.000000000000000e+00 1634890835
1.066309 -0.328849 -2.311994 0.000000000000000e+00 1634890835
1.012504 -0.388782 -2.315132 0.000000000000000e+00 1634890835
0.912134 -0.508028 -2.349227 0.000000000000000e+00 1634890835
0.851556 -0.560348 -2.345464 0.000000000000000e+00 1634890835
1.031758 -0.316739 -2.285851 0.000000000000000e+00 1634890835
0.985765 -0.377731 -2.305005 0.000000000000000e+00 1634890835
0.862350 -0.481192 -2.275773 0.000000000000000e+00 1634890835
0.465975 -0.307744 -1.316699 0.000000000000000e+00 1936876886
1.030374 -0.314810 -2.333255 0.000000000000000e+00 1634890835
0.950497 -0.363434 -2.273597 0.000000000000000e+00 1634890835
0.866047 -0.484191 -2.342860 0.000000000000000e+00 1634890835
0.438829 -0.290917 -1.272713 0.000000000000000e+00 1936876886
0.986341 -0.299864 -2.283645 0.000000000000000e+00 1634890835
0.930737 -0.355082 -2.278272 0.000000000000000e+00 1634890835
0.832107 -0.466152 -2.308511 0.000000000000000e+00 1634890835
0.425336 -0.283089 -1.266755 0.000000000000000e+00 1936876886
0.982519 -0.297158 -2.326594 0.000000000000000e+00 1634890835
0.916701 -0.348910 -2.297107 0.000000000000000e+00 1634890835
0.474617 -0.266442 -1.350968 0.000000000000000e+00 1936876886
0.352125 -0.235331 -1.077485 0.000000000000000e+00 1953264973
0.941793 -0.283304 -2.281732 0.000000000000000e+00 1634890835
0.907599 -0.344605 -2.329110 0.000000000000000e+00 1634890835
0.441739 -0.248528 -1.290702 0.000000000000000e+00 1936876886
0.321917 -0.216071 -1.012630 0.000000000000000e+00 1953264973
0.488949 -0.146252 -1.212441 0.000000000000000e+00 1936876886
0.885041 -0.335186 -2.326903 0.000000000000000e+00 1634890835
0.376516 -0.212317 -1.129861 0.000000000000000e+00 1953264973
0.290369 -0.195775 -0.939515 0.000000000000000e+00 1953264973
0.479191 -0.142487 -1.216636 0.000000000000000e+00 1936876886
0.855344 -0.323078 -2.304944 0.000000000000000e+00 1634890835
0.325223 -0.183831 -1.002857 0.000000000000000e+00 1953264973
0.266842 -0.180762 -0.888634 0.000000000000000e+00 1953264973
0.467856 -0.138257 -1.216732 0.000000000000000e+00 1936876886
0.841396 -0.316926 -2.324988 0.000000000000000e+00 1634890835
0.325571 -0.184490 -1.032214 0.000000000000000e+00 1953264973
0.240075 -0.163435 -0.823411 0.000000000000000e+00 1953264973
