# .PCD v0.7 - Point Cloud Data file format
VERSION 0.7
FIELDS x y z rgb label
SIZE 4 4 4 4 4
TYPE F F F F U
COUNT 1 1 1 1 1
WIDTH 533
HEIGHT 1
VIEWPOINT 0 0 0 1 0 0 0
POINTS 533
DATA ascii
35.378895 -13.153322 -2.247770 0.000000000000000e+00 1851878480
29.356979 -10.906191 -2.131869 0.000000000000000e+00 1851878480
28.924412 -12.094724 -2.034081 0.000000000000000e+00 1851878480
27.303967 -14.094456 -1.748997 0.000000000000000e+00 1851878480
26.199343 -14.883844 -1.571632 0.000000000000000e+00 1851878480
26.628633 -9.885086 -2.175870 0.000000000000000e+00 1851878480
26.213306 -10.957220 -2.089065 0.000000000000000e+00 1851878480
24.959942 -12.888449 -1.848270 0.000000000000000e+00 1851878480
24.341928 -13.836798 -1.711941 0.000000000000000e+00 1851878480
24.122971 -8.948129 -2.190708 0.000000000000000e+00 1851878480
24.244705 -10.130781 -2.159633 0.000000000000000e+00 1851878480
23.211256 -11.989195 -1.951040 0.000000000000000e+00 1851878480
22.853548 -12.998442 -1.843949 0.000000000000000e+00 1851878480
22.117111 -8.197830 -2.210107 0.000000000000000e+00 1851878480
22.271608 -9.303048 -2.193084 0.000000000000000e+00 1851878480
21.859198 -11.294338 -2.056445 0.000000000000000e+00 1851878480
21.617018 -12.302415 -1.968413 0.000000000000000e+00 1851878480
20.465897 -7.580018 -2.231861 0.000000000000000e+00 1851878480
20.493362 -8.557239 -2.210756 0.000000000000000e+00 1851878480
20.639755 -10.667575 -2.148891 0.000000000000000e+00 1851878480
20.402971 -11.618382 -2.069874 0.000000000000000e+00 1851878480
18.956720 -7.015695 -2.240526 0.000000000000000e+00 1851878480
19.005304 -7.933084 -2.229290 0.000000000000000e+00 1851878480
19.434351 -10.047701 -2.218813 0.000000000000000e+00 1851878480
19.180145 -10.928531 -2.145511 0.000000000000000e+00 1851878480
17.592640 -6.505873 -2.240345 0.000000000000000e+00 1851878480
17.635286 -7.358617 -2.235031 0.000000000000000e+00 1851878480
17.854185 -9.233623 -2.218291 0.000000000000000e+00 1851878480
18.018499 -10.272757 -2.203558 0.000000000000000e+00 1851878480
16.345110 -6.039892 -2.231369 0.000000000000000e+00 1851878480
16.502453 -6.883490 -2.247507 0.000000000000000e+00 1851878480
16.585213 -8.580035 -2.228083 0.000000000000000e+00 1851878480
16.781178 -9.573039 -2.227718 0.000000000000000e+00 1851878480
15.399049 -5.685931 -2.243701 0.000000000000000e+00 1851878480
15.424734 -6.431664 -2.246877 0.000000000000000e+00 1851878480
15.471693 -8.006483 -2.235055 0.000000000000000e+00 1851878480
15.492251 -8.843038 -2.218997 0.000000000000000e+00 1851878480
14.507811 -5.352715 -2.247417 0.000000000000000e+00 1851878480
14.408365 -6.005730 -2.235641 0.000000000000000e+00 1851878480
14.415623 -7.462319 -2.228724 0.000000000000000e+00 1851878480
14.502459 -8.283020 -2.229630 0.000000000000000e+00 1851878480
13.639312 -5.028395 -2.238734 0.000000000000000e+00 1851878480
13.597735 -5.665826 -2.239283 0.000000000000000e+00 1851878480
13.601953 -7.043339 -2.241262 0.000000000000000e+00 1851878480
13.565846 -7.752732 -2.228584 0.000000000000000e+00 1851878480
12.954295 -4.772151 -2.246118 0.000000000000000e+00 1851878480
12.878439 -5.364191 -2.243708 0.000000000000000e+00 1851878480
12.853487 -6.657871 -2.249016 0.000000000000000e+00 1851878480
12.783573 -7.310072 -2.235172 0.000000000000000e+00 1851878480
12.317258 -4.533948 -2.249882 0.000000000000000e+00 1851878480
12.187542 -5.074602 -2.239936 0.000000000000000e+00 1851878480
12.139915 -6.290247 -2.248329 0.000000000000000e+00 1851878480
12.075504 -6.909353 -2.239377 0.000000000000000e+00 1851878480
11.653531 -4.286289 -2.236996 0.000000000000000e+00 1851878480
11.652336 -4.850008 -2.253357 0.000000000000000e+00 1851878480
11.512517 -5.967056 -2.250243 0.000000000000000e+00 1851878480
11.398819 -6.526113 -2.235111 0.000000000000000e+00 1851878480
11.177496 -4.107981 -2.249836 0.000000000000000e+00 1851878480
11.045094 -4.595597 -2.242200 0.000000000000000e+00 1851878480
10.938022 -5.671091 -2.250531 0.000000000000000e+00 1851878480
10.841269 -6.210675 -2.241471 0.000000000000000e+00 1851878480
10.648217 -3.910389 -2.242881 0.000000000000000e+00 1851878480
10.515256 -4.373561 -2.236129 0.000000000000000e+00 1851878480
10.413532 -5.400879 -2.250158 0.000000000000000e+00 1851878480
10.320044 -5.915686 -2.244221 0.000000000000000e+00 1851878480
10.240175 -3.757584 -2.252999 0.000000000000000e+00 1851878480
10.134092 -4.213494 -2.253204 0.000000000000000e+00 1851878480
9.934072 -5.153872 -2.249516 0.000000000000000e+00 1851878480
9.815802 -5.630087 -2.240078 0.000000000000000e+00 1851878480
9.759357 -3.578320 -2.239065 0.000000000000000e+00 1851878480
9.698621 -4.030968 -2.250613 0.000000000000000e+00 1851878480
9.474668 -4.917109 -2.244047 0.000000000000000e+00 1851878480
9.412472 -5.402065 -2.249599 0.000000000000000e+00 1851878480
9.370920 -3.433173 -2.238448 0.000000000000000e+00 1851878480
9.298742 -3.863357 -2.248490 0.000000000000000e+00 1851878480
9.103144 -4.725825 -2.251116 0.000000000000000e+00 1851878480
8.946708 -5.137920 -2.235214 0.000000000000000e+00 1851878480
9.027292 -3.304645 -2.241925 0.000000000000000e+00 1851878480
8.893977 -3.693830 -2.237660 0.000000000000000e+00 1851878480
8.727202 -4.532126 -2.249655 0.000000000000000e+00 1851878480
8.616303 -4.951236 -2.246413 0.000000000000000e+00 1851878480
8.667881 -3.170542 -2.235129 0.000000000000000e+00 1851878480
8.562909 -3.555022 -2.238497 0.000000000000000e+00 1851878480
8.374911 -4.350595 -2.247024 0.000000000000000e+00 1851878480
8.258806 -4.748759 -2.243461 0.000000000000000e+00 1851878480
8.378472 -3.062224 -2.240521 0.000000000000000e+00 1851878480
8.294141 -3.442164 -2.250057 0.000000000000000e+00 1851878480
4.574726 -2.377255 -1.275798 1.880790849211783e-38 1684957512
4.583588 -2.637181 -1.295426 1.880790849211783e-38 1684957512
4.622497 -1.688100 -1.280448 1.880790849211783e-38 1684957512
4.574369 -1.897711 -1.286263 1.880790849211783e-38 1684957512
4.456956 -2.316814 -1.290303 1.880790849211783e-38 1684957512
4.333115 -2.494634 -1.272432 1.880790849211783e-38 1684957512
4.428232 -1.615844 -1.269278 1.880790849211783e-38 1684957512
4.441777 -1.842016 -1.293172 1.880790849211783e-38 1684957512
4.319676 -2.246196 -1.296665 1.880790849211783e-38 1684957512
4.222640 -2.432564 -1.286795 1.880790849211783e-38 1684957512
4.325125 -1.576937 -1.281555 1.880790849211783e-38 1684957512
4.303658 -1.784068 -1.295972 1.880790849211783e-38 1684957512
4.183505 -2.176110 -1.300659 1.880790849211783e-38 1684957512
4.075727 -2.349421 -1.287431 1.880790849211783e-38 1684957512
4.146788 -1.510679 -1.269000 1.880790849211783e-38 1684957512
4.142439 -1.716589 -1.289019 1.880790849211783e-38 1684957512
4.038860 -2.101570 -1.299225 1.880790849211783e-38 1684957512
3.933734 -2.269012 -1.286632 1.880790849211783e-38 1684957512
4.021064 -1.463676 -1.269776 1.880790849211783e-38 1684957512
3.964717 -1.642320 -1.273720 1.880790849211783e-38 1684957512
3.837122 -1.997267 -1.275909 1.880790849211783e-38 1684957512
3.806090 -2.196791 -1.287740 1.880790849211783e-38 1684957512
3.972432 -1.444778 -1.293380 1.880790849211783e-38 1684957512
3.901706 -1.615602 -1.293040 1.880790849211783e-38 1684957512
3.758747 -1.957130 -1.290795 1.880790849211783e-38 1684957512
3.686350 -2.129050 -1.288968 1.880790849211783e-38 1684957512
3.958224 -1.438414 -1.327770 1.880790849211783e-38 1684957512
3.768536 -1.559863 -1.287317 1.880790849211783e-38 1684957512
3.644783 -1.898436 -1.291586 1.880790849211783e-38 1684957512
3.555938 -2.055059 -1.283864 1.880790849211783e-38 1684957512
4.010326 -1.456131 -1.384981 1.880790849211783e-38 1684957512
3.632725 -1.503069 -1.278149 1.880790849211783e-38 1684957512
3.527550 -1.837998 -1.288907 1.880790849211783e-38 1684957512
3.443947 -1.991634 -1.282885 1.880790849211783e-38 1684957512
3.994024 -1.448995 -1.419133 1.880790849211783e-38 1684957512
3.555995 -1.470753 -1.287789 1.880790849211783e-38 1684957512
3.398827 -1.771535 -1.279540 1.880790849211783e-38 1684957512
3.369993 -1.950142 -1.294182 1.880790849211783e-38 1684957512
3.954506 -1.433446 -1.444697 1.880790849211783e-38 1684957512
3.514426 -1.452992 -1.309150 1.880790849211783e-38 1684957512
3.340397 -1.741679 -1.294788 1.880790849211783e-38 1684957512
3.264839 -1.890536 -1.291670 1.880790849211783e-38 1684957512
4.008471 -1.451772 -1.504783 1.880790849211783e-38 1684957512
3.557263 -1.470128 -1.362180 1.880790849211783e-38 1684957512
3.272060 -1.706640 -1.305010 1.880790849211783e-38 1684957512
3.141423 -1.820276 -1.279518 1.880790849211783e-38 1684957512
3.979672 -1.440110 -1.534286 1.880790849211783e-38 1684957512
3.521031 -1.454581 -1.385221 1.880790849211783e-38 1684957512
3.157189 -1.647299 -1.294845 1.880790849211783e-38 1684957512
3.033978 -1.759191 -1.271412 1.880790849211783e-38 1684957512
3.997029 -1.445146 -1.581709 1.880790849211783e-38 1684957512
3.491043 -1.441620 -1.410249 1.880790849211783e-38 1684957512
3.071600 -1.603206 -1.294654 1.880790849211783e-38 1684957512
2.962846 -1.719099 -1.276664 1.880790849211783e-38 1684957512
3.945882 -1.425418 -1.601925 1.880790849211783e-38 1684957512
3.501920 -1.445533 -1.451817 1.880790849211783e-38 1684957512
2.994056 -1.563284 -1.296231 1.880790849211783e-38 1684957512
2.974632 -1.727106 -1.317190 1.880790849211783e-38 1684957512
4.015363 -1.449253 -1.671562 1.880790849211783e-38 1684957512
3.496926 -1.442894 -1.487111 1.880790849211783e-38 1684957512
2.948706 -1.540154 -1.310576 1.880790849211783e-38 1684957512
2.835355 -1.647361 -1.289551 1.880790849211783e-38 1684957512
3.996983 -1.441352 -1.705415 1.880790849211783e-38 1684957512
3.514879 -1.449714 -1.532551 1.880790849211783e-38 1684957512
2.875142 -1.502267 -1.311247 1.880790849211783e-38 1684957512
2.771395 -1.611304 -1.293972 1.880790849211783e-38 1684957512
4.019008 -1.448013 -1.756823 1.880790849211783e-38 1684957512
3.514166 -1.448830 -1.570296 1.880790849211783e-38 1684957512
2.821763 -1.474909 -1.319889 1.880790849211783e-38 1684957512
2.722738 -1.584107 -1.304428 1.880790849211783e-38 1684957512
3.997878 -1.439117 -1.789661 1.880790849211783e-38 1684957512
3.503857 -1.443987 -1.603901 1.880790849211783e-38 1684957512
2.805954 -1.467178 -1.345543 1.880790849211783e-38 1684957512
2.635016 -1.534138 -1.294756 1.880790849211783e-38 1684957512
4.002717 -1.439568 -1.834246 1.880790849211783e-38 1684957512
3.544961 -1.460323 -1.661654 1.880790849211783e-38 1684957512
2.782454 -1.455423 -1.367298 1.880790849211783e-38 1684957512
2.637472 -1.536644 -1.328606 1.880790849211783e-38 1684957512
4.012802 -1.441888 -1.881698 1.880790849211783e-38 1684957512
3.528090 -1.452768 -1.692785 1.880790849211783e-38 1684957512
2.807784 -1.469214 -1.413334 1.880790849211783e-38 1684957512
2.584830 -1.507038 -1.334343 1.880790849211783e-38 1684957512
4.001974 -1.436688 -1.919647 1.880790849211783e-38 1684957512
3.553852 -1.462761 -1.744766 1.880790849211783e-38 1684957512
2.788194 -1.459507 -1.437096 1.880790849211783e-38 1684957512
2.623203 -1.530500 -1.387159 1.880790849211783e-38 1684957512
4.023198 -1.442980 -1.973407 1.880790849211783e-38 1684957512
3.493247 -1.437208 -1.754257 1.880790849211783e-38 1684957512
2.791126 -1.461590 -1.472543 1.880790849211783e-38 1684957512
2.579490 -1.506077 -1.396779 1.880790849211783e-38 1684957512
4.025024 -1.442301 -2.018237 1.880790849211783e-38 1684957512
3.546755 -1.458600 -1.821289 1.880790849211783e-38 1684957512
2.792364 -1.462790 -1.507435 1.880790849211783e-38 1684957512
2.615254 -1.528066 -1.449625 1.880790849211783e-38 1684957512
4.037061 -1.445262 -2.068684 1.880790849211783e-38 1684957512
3.528683 -1.450544 -1.852291 1.880790849211783e-38 1684957512
2.736197 -1.433913 -1.510954 1.880790849211783e-38 1684957512
2.627878 -1.536562 -1.490566 1.880790849211783e-38 1684957512
4.048503 -1.447996 -2.119442 1.880790849211783e-38 1684957512
3.509754 -1.442137 -1.882751 1.880790849211783e-38 1684957512
2.737658 -1.435232 -1.545919 1.880790849211783e-38 1684957512
2.633336 -1.540890 -1.527988 1.880790849211783e-38 1684957512
4.031538 -1.440557 -2.155634 1.880790849211783e-38 1684957512
3.525923 -1.448146 -1.932350 1.880790849211783e-38 1684957512
2.744550 -1.439403 -1.584364 1.880790849211783e-38 1684957512
2.677342 -1.567805 -1.588749 1.880790849211783e-38 1684957512
4.019389 -1.434841 -2.194452 1.880790849211783e-38 1684957512
3.551121 -1.457852 -1.987733 1.880790849211783e-38 1684957512
2.818072 -1.478542 -1.662613 1.880790849211783e-38 1684957512
2.592727 -1.519397 -1.572978 1.880790849211783e-38 1684957512
4.045311 -1.442698 -2.254602 0.000000000000000e+00 1851878480
3.493834 -1.433695 -1.996933 1.880790849211783e-38 1684957512
2.789787 -1.464280 -1.681708 1.880790849211783e-38 1684957512
2.651350 -1.554929 -1.644107 1.880790849211783e-38 1684957512
3.986479 -1.420329 -2.267539 0.000000000000000e+00 1634890835
3.545814 -1.454371 -2.068899 1.880790849211783e-38 1684957512
2.790066 -1.465011 -1.718006 1.880790849211783e-38 1684957512
2.658329 -1.560215 -1.684449 1.880790849211783e-38 1684957512
3.891690 -1.385191 -2.258661 0.000000000000000e+00 1634890835
3.564343 -1.461308 -2.122582 1.880790849211783e-38 1684957512
2.804059 -1.472949 -1.763293 1.880790849211783e-38 1684957512
2.634433 -1.547384 -1.705362 1.880790849211783e-38 1684957512
3.894555 -1.384832 -2.305806 0.000000000000000e+00 1634890835
3.520648 -1.442732 -2.139304 1.880790849211783e-38 1684957512
2.746474 -1.443288 -1.763359 1.880790849211783e-38 1684957512
2.639227 -1.551410 -1.744962 1.880790849211783e-38 1684957512
3.762533 -1.336544 -2.271993 0.000000000000000e+00 1634890835
3.532659 -1.446986 -2.189905 1.880790849211783e-38 1684957512
2.793322 -1.468511 -1.830713 1.880790849211783e-38 1684957512
2.612956 -1.537178 -1.764109 1.880790849211783e-38 1684957512
3.688947 -1.309075 -2.271455 0.000000000000000e+00 1634890835
3.581430 -1.466278 -2.264468 1.880790849211783e-38 1684957512
2.780509 -1.462382 -1.859809 1.880790849211783e-38 1684957512
2.694692 -1.586527 -1.857362 1.880790849211783e-38 1684957512
3.661122 -1.297870 -2.298312 0.000000000000000e+00 1634890835
3.471807 -1.420724 -2.238559 0.000000000000000e+00 1851878480
2.767561 -1.456182 -1.888866 1.880790849211783e-38 1684957512
2.653292 -1.563409 -1.866725 1.880790849211783e-38 1684957512
3.553278 -1.258334 -2.273728 0.000000000000000e+00 1634890835
3.509348 -1.435403 -2.307085 0.000000000000000e+00 1634890835
2.738701 -1.441608 -1.906900 1.880790849211783e-38 1684957512
2.660958 -1.569202 -1.910557 1.880790849211783e-38 1684957512
3.506179 -1.240353 -2.286564 0.000000000000000e+00 1634890835
3.422177 -1.399072 -2.293447 0.000000000000000e+00 1634890835
2.808901 -1.479193 -1.994907 1.880790849211783e-38 1684957512
2.616681 -1.544362 -1.917000 1.880790849211783e-38 1684957512
3.465458 -1.224651 -2.302922 0.000000000000000e+00 1634890835
3.343664 -1.366307 -2.283951 0.000000000000000e+00 1634890835
2.774400 -1.461657 -2.009491 1.880790849211783e-38 1684957512
2.607649 -1.540311 -1.948933 1.880790849211783e-38 1684957512
3.333564 -1.176781 -2.256987 0.000000000000000e+00 1634890835
3.284466 -1.341458 -2.286331 0.000000000000000e+00 1634890835
2.787040 -1.468960 -2.058364 1.880790849211783e-38 1684957512
2.623936 -1.551237 -2.000361 1.880790849211783e-38 1684957512
3.317605 -1.169878 -2.288141 0.000000000000000e+00 1634890835
3.255341 -1.328898 -2.308962 0.000000000000000e+00 1634890835
2.727542 -1.438237 -2.053752 1.880790849211783e-38 1684957512
2.638619 -1.561245 -2.051513 1.880790849211783e-38 1684957512
3.243049 -1.142335 -2.278184 0.000000000000000e+00 1634890835
3.193879 -1.303151 -2.307937 0.000000000000000e+00 1634890835
2.784334 -1.468842 -2.137145 1.880790849211783e-38 1684957512
2.675132 -1.584213 -2.120918 1.880790849211783e-38 1684957512
3.175973 -1.117469 -2.272122 0.000000000000000e+00 1634890835
3.105179 -1.266314 -2.285702 0.000000000000000e+00 1634890835
2.750380 -1.451587 -2.151709 1.880790849211783e-38 1684957512
2.658025 -1.575457 -2.148626 1.880790849211783e-38 1684957512
3.168564 -1.113611 -2.308247 0.000000000000000e+00 1634890835
3.065322 -1.249416 -2.298171 0.000000000000000e+00 1634890835
2.790284 -1.473326 -2.224658 1.880790849211783e-38 1684957512
2.664090 -1.580445 -2.195427 1.880790849211783e-38 1684957512
3.107400 -1.090874 -2.304786 0.000000000000000e+00 1634890835
3.005242 -1.224286 -2.294602 0.000000000000000e+00 1634890835
2.750463 -1.452974 -2.234567 1.880790849211783e-38 1684957512
0.859192 -0.510163 -0.721736 0.000000000000000e+00 1886740808
3.049207 -1.069214 -2.302426 0.000000000000000e+00 1634890835
2.921110 -1.189382 -2.271169 0.000000000000000e+00 1634890835
2.736473 -1.446265 -2.265186 0.000000000000000e+00 1851878480
0.860256 -0.511257 -0.736522 0.000000000000000e+00 1886740808
2.985613 -1.045697 -2.294835 0.000000000000000e+00 1634890835
2.901487 -1.180761 -2.296942 0.000000000000000e+00 1634890835
0.881489 -0.466102 -0.743378 0.000000000000000e+00 1886740808
0.792813 -0.471608 -0.691758 0.000000000000000e+00 1886740808
2.918888 -1.021120 -2.283555 0.000000000000000e+00 1634890835
2.848163 -1.158429 -2.295510 0.000000000000000e+00 1634890835
0.843842 -0.446411 -0.724923 0.000000000000000e+00 1886740808
0.828178 -0.493103 -0.736362 0.000000000000000e+00 1886740808
2.874319 -1.004327 -2.288574 0.000000000000000e+00 1634890835
2.796910 -1.136958 -2.294765 0.000000000000000e+00 1634890835
0.849479 -0.449613 -0.743332 0.000000000000000e+00 1886740808
0.823171 -0.490584 -0.745767 0.000000000000000e+00 1886740808
2.819031 -0.983816 -2.284167 0.000000000000000e+00 1634890835
2.746932 -1.116020 -2.294117 0.000000000000000e+00 1634890835
0.804917 -0.426239 -0.717371 0.000000000000000e+00 1886740808
0.777029 -0.463528 -0.717234 0.000000000000000e+00 1886740808
2.809970 -0.979448 -2.316822 0.000000000000000e+00 1634890835
0.824466 -0.334774 -0.700832 0.000000000000000e+00 1886740808
0.844712 -0.447537 -0.766711 0.000000000000000e+00 1886740808
0.766838 -0.457891 -0.721117 0.000000000000000e+00 1886740808
0.879352 -0.306127 -0.737706 0.000000000000000e+00 1886740808
0.815122 -0.330790 -0.705188 0.000000000000000e+00 1886740808
0.837431 -0.443906 -0.774054 0.000000000000000e+00 1886740808
0.745053 -0.445320 -0.713735 0.000000000000000e+00 1886740808
0.822026 -0.285809 -0.701627 0.000000000000000e+00 1886740808
0.810122 -0.328570 -0.713255 0.000000000000000e+00 1886740808
0.724347 -0.384161 -0.681774 0.000000000000000e+00 1886740808
0.704530 -0.421520 -0.687498 0.000000000000000e+00 1886740808
0.860066 -0.298652 -0.746834 0.000000000000000e+00 1886740808
0.834960 -0.338444 -0.748073 0.000000000000000e+00 1886740808
0.770669 -0.408942 -0.738598 0.000000000000000e+00 1886740808
0.777434 -0.465608 -0.772739 0.000000000000000e+00 1886740808
0.804458 -0.278979 -0.710628 0.000000000000000e+00 1886740808
0.805760 -0.326413 -0.734589 0.000000000000000e+00 1886740808
0.772234 -0.409992 -0.753551 0.000000000000000e+00 1886740808
0.779850 -0.467536 -0.789509 0.000000000000000e+00 1886740808
0.861586 -0.298396 -0.774213 0.000000000000000e+00 1886740808
0.790860 -0.320182 -0.733628 0.000000000000000e+00 1886740808
0.746534 -0.396562 -0.741681 0.000000000000000e+00 1886740808
0.747643 -0.448694 -0.770899 0.000000000000000e+00 1886740808
0.813952 -0.281521 -0.743982 0.000000000000000e+00 1886740808
0.791822 -0.320374 -0.747345 0.000000000000000e+00 1886740808
0.791293 -0.420569 -0.800371 0.000000000000000e+00 1886740808
0.770463 -0.462879 -0.809089 0.000000000000000e+00 1886740808
0.787167 -0.271886 -0.731836 0.000000000000000e+00 1886740808
0.759160 -0.306967 -0.728999 0.000000000000000e+00 1886740808
0.796995 -0.423836 -0.820693 0.000000000000000e+00 1886740808
0.747721 -0.449700 -0.799673 0.000000000000000e+00 1886740808
0.791619 -0.273046 -0.748565 0.000000000000000e+00 1886740808
0.753561 -0.304509 -0.736202 0.000000000000000e+00 1886740808
0.808901 -0.430411 -0.847967 0.000000000000000e+00 1886740808
2.103799 -1.266666 -2.291368 0.000000000000000e+00 1634890835
0.784395 -0.270173 -0.754397 0.000000000000000e+00 1886740808
0.766151 -0.309397 -0.761490 0.000000000000000e+00 1886740808
0.767157 -0.408435 -0.818685 0.000000000000000e+00 1886740808
2.047889 -1.234374 -2.271468 0.000000000000000e+00 1634890835
0.743073 -0.255575 -0.726837 0.000000000000000e+00 1886740808
0.797527 -0.321856 -0.806410 0.000000000000000e+00 1886740808
2.110407 -1.124238 -2.292664 0.000000000000000e+00 1634890835
2.019982 -1.218930 -2.281664 0.000000000000000e+00 1634890835
0.743249 -0.255265 -0.739384 0.000000000000000e+00 1886740808
0.723246 -0.291683 -0.743959 0.000000000000000e+00 1886740808
2.092028 -1.115112 -2.313545 0.000000000000000e+00 1634890835
0.807358 -0.487749 -0.928691 0.000000000000000e+00 1886740808
0.770494 -0.264231 -0.779520 0.000000000000000e+00 1886740808
0.763137 -0.307563 -0.798567 0.000000000000000e+00 1886740808
2.048257 -1.092442 -2.305834 0.000000000000000e+00 1634890835
0.798141 -0.482745 -0.934943 0.000000000000000e+00 1886740808
0.761370 -0.260709 -0.783374 0.000000000000000e+00 1886740808
0.752328 -0.302997 -0.800862 0.000000000000000e+00 1886740808
2.021456 -1.078812 -2.316548 0.000000000000000e+00 1634890835
0.797244 -0.482776 -0.951040 0.000000000000000e+00 1886740808
0.751725 -0.257013 -0.786584 0.000000000000000e+00 1886740808
2.107187 -0.848064 -2.281883 0.000000000000000e+00 1634890835
0.818052 -0.436853 -0.954319 0.000000000000000e+00 1886740808
0.821759 -0.498224 -0.998297 0.000000000000000e+00 1886740808
0.740494 -0.252779 -0.787987 0.000000000000000e+00 1886740808
2.053401 -0.825828 -2.262061 0.000000000000000e+00 1634890835
0.793223 -0.423864 -0.941993 0.000000000000000e+00 1886740808
0.786891 -0.477673 -0.973518 0.000000000000000e+00 1886740808
0.748494 -0.255105 -0.810023 0.000000000000000e+00 1886740808
2.051020 -0.824268 -2.298491 0.000000000000000e+00 1634890835
0.812345 -0.434364 -0.982065 0.000000000000000e+00 1886740808
1.825002 -1.109239 -2.299415 0.000000000000000e+00 1634890835
2.083987 -0.709125 -2.293600 0.000000000000000e+00 1634890835
2.022970 -0.812393 -2.306267 0.000000000000000e+00 1634890835
0.799313 -0.427680 -0.983724 0.000000000000000e+00 1886740808
1.795637 -1.092789 -2.304142 0.000000000000000e+00 1634890835
2.043160 -0.694088 -2.286885 0.000000000000000e+00 1634890835
2.014511 -0.808384 -2.336380 0.000000000000000e+00 1634890835
0.798871 -0.427732 -1.000926 0.000000000000000e+00 1886740808
0.771730 -0.470272 -1.008574 0.000000000000000e+00 1886740808
1.975426 -0.669951 -2.248684 0.000000000000000e+00 1634890835
1.948543 -0.781309 -2.299043 0.000000000000000e+00 1634890835
0.811345 -0.434709 -1.034936 0.000000000000000e+00 1886740808
1.751880 -1.068972 -2.331935 0.000000000000000e+00 1634890835
1.942998 -0.657825 -2.249442 0.000000000000000e+00 1634890835
0.774722 -0.310398 -0.929946 0.000000000000000e+00 1886740808
1.789591 -0.959517 -2.324141 0.000000000000000e+00 1634890835
1.688689 -1.031813 -2.289557 0.000000000000000e+00 1634890835
1.926759 -0.651188 -2.268694 0.000000000000000e+00 1634890835
0.807295 -0.323189 -0.985898 0.000000000000000e+00 1886740808
0.803184 -0.430948 -1.062045 0.000000000000000e+00 1886740808
1.645178 -1.006620 -2.272101 0.000000000000000e+00 1634890835
1.888889 -0.637252 -2.262112 0.000000000000000e+00 1634890835
0.780045 -0.312025 -0.969222 0.000000000000000e+00 1886740808
1.706562 -0.916322 -2.297690 0.000000000000000e+00 1634890835
1.650023 -1.011012 -2.321364 0.000000000000000e+00 1634890835
0.780260 -0.262756 -0.950434 0.000000000000000e+00 1886740808
0.765855 -0.306092 -0.968216 0.000000000000000e+00 1886740808
1.661798 -0.892952 -2.278316 0.000000000000000e+00 1634890835
1.617377 -0.992440 -2.318098 0.000000000000000e+00 1634890835
0.787709 -0.264772 -0.975979 0.000000000000000e+00 1886740808
0.766434 -0.306063 -0.985924 0.000000000000000e+00 1886740808
1.653935 -0.889404 -2.309127 0.000000000000000e+00 1634890835
1.555185 -0.955686 -2.270917 0.000000000000000e+00 1634890835
0.778793 -0.261278 -0.981543 0.000000000000000e+00 1886740808
0.768094 -0.306459 -1.005423 0.000000000000000e+00 1886740808
1.621331 -0.872550 -2.305284 0.000000000000000e+00 1634890835
1.564011 -0.962558 -2.326977 0.000000000000000e+00 1634890835
0.802651 -0.268760 -1.029079 0.000000000000000e+00 1886740808
1.726476 -0.688229 -2.299779 0.000000000000000e+00 1634890835
1.584543 -0.853428 -2.294631 0.000000000000000e+00 1634890835
1.506718 -0.928727 -2.284306 0.000000000000000e+00 1634890835
0.763122 -0.255018 -0.995348 0.000000000000000e+00 1886740808
1.703835 -0.678587 -2.309785 0.000000000000000e+00 1634890835
1.565147 -0.843667 -2.308636 0.000000000000000e+00 1634890835
1.472754 -0.909222 -2.275427 0.000000000000000e+00 1634890835
0.792887 -0.264426 -1.052151 0.000000000000000e+00 1886740808
0.761486 -0.302996 -1.050642 0.000000000000000e+00 1886740808
1.527370 -0.823989 -2.294958 0.000000000000000e+00 1634890835
1.445840 -0.894045 -2.276706 0.000000000000000e+00 1634890835
1.684770 -0.560701 -2.274692 0.000000000000000e+00 1634890835
1.621756 -0.644683 -2.277508 0.000000000000000e+00 1634890835
1.547222 -0.835408 -2.368397 0.000000000000000e+00 1634890835
1.438500 -0.890974 -2.308856 0.000000000000000e+00 1634890835
0.763201 -0.253458 -1.048499 0.000000000000000e+00 1886740808
1.618709 -0.642846 -2.313982 0.000000000000000e+00 1634890835
1.498052 -0.809566 -2.336385 0.000000000000000e+00 1634890835
1.411375 -0.875651 -2.309296 0.000000000000000e+00 1634890835
1.620707 -0.537063 -2.265760 0.000000000000000e+00 1634890835
1.597581 -0.633822 -2.324922 0.000000000000000e+00 1634890835
1.447801 -0.783106 -2.300854 0.000000000000000e+00 1634890835
1.374308 -0.854129 -2.292578 0.000000000000000e+00 1634890835
1.595486 -0.527528 -2.269970 0.000000000000000e+00 1634890835
1.554241 -0.616000 -2.302818 0.000000000000000e+00 1634890835
1.398404 -0.757079 -2.264781 0.000000000000000e+00 1634890835
1.353589 -0.842743 -2.302431 0.000000000000000e+00 1634890835
1.577583 -0.520417 -2.284419 0.000000000000000e+00 1634890835
1.537516 -0.608734 -2.319527 0.000000000000000e+00 1634890835
1.393391 -0.755071 -2.300031 0.000000000000000e+00 1634890835
1.361976 -0.849508 -2.362596 0.000000000000000e+00 1634890835
1.566984 -0.515707 -2.309649 0.000000000000000e+00 1634890835
1.508933 -0.596776 -2.318114 0.000000000000000e+00 1634890835
1.394657 -0.756483 -2.346670 0.000000000000000e+00 1634890835
1.302354 -0.813834 -2.304265 0.000000000000000e+00 1634890835
1.524096 -0.500386 -2.286844 0.000000000000000e+00 1634890835
1.462263 -0.577682 -2.287832 0.000000000000000e+00 1634890835
1.349615 -0.732773 -2.315151 0.000000000000000e+00 1634890835
1.278450 -0.800426 -2.307481 0.000000000000000e+00 1634890835
1.522629 -0.498668 -2.325992 0.000000000000000e+00 1634890835
1.434272 -0.565984 -2.285684 0.000000000000000e+00 1634890835
1.335674 -0.725936 -2.336243 0.000000000000000e+00 1634890835
1.266908 -0.794759 -2.333036 0.000000000000000e+00 1634890835
1.477372 -0.482620 -2.297970 0.000000000000000e+00 1634890835
1.404072 -0.553425 -2.279373 0.000000000000000e+00 1634890835
1.306968 -0.711072 -2.331303 0.000000000000000e+00 1634890835
1.239105 -0.778888 -2.328533 0.000000000000000e+00 1634890835
1.407413 -0.458567 -2.229303 0.000000000000000e+00 1634890835
1.370596 -0.539588 -2.266915 0.000000000000000e+00 1634890835
1.269145 -0.691230 -2.309046 0.000000000000000e+00 1634890835
1.211520 -0.763127 -2.323713 0.000000000000000e+00 1634890835
1.404239 -0.456307 -2.265364 0.000000000000000e+00 1634890835
1.362366 -0.535691 -2.296049 0.000000000000000e+00 1634890835
1.243972 -0.678262 -2.308847 0.000000000000000e+00 1634890835
1.184132 -0.747467 -2.318535 0.000000000000000e+00 1634890835
1.418700 -0.459736 -2.331289 0.000000000000000e+00 1634890835
1.353292 -0.531453 -2.324370 0.000000000000000e+00 1634890835
1.205533 -0.658046 -2.283003 0.000000000000000e+00 1634890835
1.143683 -0.723521 -2.286492 0.000000000000000e+00 1634890835
1.380898 -0.446216 -2.311735 0.000000000000000e+00 1634890835
1.307794 -0.512920 -2.289542 0.000000000000000e+00 1634890835
1.216678 -0.664900 -2.351418 0.000000000000000e+00 1634890835
1.138155 -0.721652 -2.323856 0.000000000000000e+00 1634890835
1.347208 -0.434055 -2.297990 0.000000000000000e+00 1634890835
1.304128 -0.510801 -2.327538 0.000000000000000e+00 1634890835
1.165013 -0.637428 -2.298265 0.000000000000000e+00 1634890835
1.092812 -0.694515 -2.279268 0.000000000000000e+00 1634890835
1.328201 -0.426642 -2.308785 0.000000000000000e+00 1634890835
1.274226 -0.498403 -2.318818 0.000000000000000e+00 1634890835
1.148082 -0.628936 -2.312329 0.000000000000000e+00 1634890835
1.081478 -0.688963 -2.304694 0.000000000000000e+00 1634890835
1.308624 -0.419049 -2.318535 0.000000000000000e+00 1634890835
1.220689 -0.476787 -2.265420 0.000000000000000e+00 1634890835
1.125250 -0.617211 -2.314363 0.000000000000000e+00 1634890835
1.072376 -0.684856 -2.335595 0.000000000000000e+00 1634890835
1.265379 -0.403901 -2.285466 0.000000000000000e+00 1634890835
1.206003 -0.470363 -2.282966 0.000000000000000e+00 1634890835
1.118810 -0.614482 -2.350428 0.000000000000000e+00 1634890835
1.025543 -0.656620 -2.283354 0.000000000000000e+00 1634890835
1.244269 -0.395850 -2.291421 0.000000000000000e+00 1634890835
1.165357 -0.453826 -2.250640 0.000000000000000e+00 1634890835
1.076469 -0.592027 -2.310516 0.000000000000000e+00 1634890835
1.033334 -0.663355 -2.352613 0.000000000000000e+00 1634890835
1.201967 -0.381083 -2.257374 0.000000000000000e+00 1634890835
1.189474 -0.462498 -2.344179 0.000000000000000e+00 1634890835
1.054777 -0.580907 -2.313654 0.000000000000000e+00 1634890835
0.981821 -0.632005 -2.286438 0.000000000000000e+00 1634890835
1.207881 -0.381603 -2.313901 0.000000000000000e+00 1634890835
1.160214 -0.450395 -2.333782 0.000000000000000e+00 1634890835
1.043701 -0.575636 -2.340256 0.000000000000000e+00 1634890835
0.934002 -0.602921 -2.225492 0.000000000000000e+00 1634890835
1.186400 -0.373445 -2.318754 0.000000000000000e+00 1634890835
1.136453 -0.440439 -2.333796 0.000000000000000e+00 1634890835
1.003473 -0.554275 -2.300746 0.000000000000000e+00 1634890835
0.964248 -0.624262 -2.351576 0.000000000000000e+00 1634890835
1.153673 -0.361767 -2.300946 0.000000000000000e+00 1634890835
1.105467 -0.427692 -2.318213 0.000000000000000e+00 1634890835
0.986132 -0.545538 -2.312628 0.000000000000000e+00 1634890835
0.927009 -0.601968 -2.314697 0.000000000000000e+00 1634890835
1.141987 -0.356696 -2.324812 0.000000000000000e+00 1634890835
1.076575 -0.415771 -2.306008 0.000000000000000e+00 1634890835
0.943375 -0.522720 -2.263610 0.000000000000000e+00 1634890835
0.904292 -0.589057 -2.312675 0.000000000000000e+00 1634890835
1.106594 -0.344233 -2.299991 0.000000000000000e+00 1634890835
1.040740 -0.401189 -2.277647 0.000000000000000e+00 1634890835
0.952170 -0.528470 -2.338434 0.000000000000000e+00 1634890835
0.863831 -0.564530 -2.263575 0.000000000000000e+00 1634890835
1.083175 -0.335524 -2.299112 0.000000000000000e+00 1634890835
1.042705 -0.401176 -2.332157 0.000000000000000e+00 1634890835
0.927006 -0.515390 -2.330989 0.000000000000000e+00 1634890835
0.855155 -0.560748 -2.296914 0.000000000000000e+00 1634890835
1.034432 -0.319018 -2.242878 0.000000000000000e+00 1634890835
1.017725 -0.390787 -2.327071 0.000000000000000e+00 1634890835
0.898731 -0.500562 -2.314706 0.000000000000000e+00 1634890835
0.836050 -0.550144 -2.302755 0.000000000000000e+00 1634890835
1.043582 -0.320369 -2.312048 0.000000000000000e+00 1634890835
0.977066 -0.374398 -2.284665 0.000000000000000e+00 1634890835
0.873910 -0.487642 -2.306280 0.000000000000000e+00 1634890835
0.447584 -0.295597 -1.264730 0.000000000000000e+00 1936876886
1.022825 -0.312503 -2.316160 0.000000000000000e+00 1634890835
0.953688 -0.364654 -2.281231 0.000000000000000e+00 1634890835
0.845687 -0.472808 -2.287782 0.000000000000000e+00 1634890835
0.441002 -0.292358 -1.279016 0.000000000000000e+00 1936876886
1.010811 -0.307303 -2.340300 0.000000000000000e+00 1634890835
0.934853 -0.356653 -2.288348 0.000000000000000e+00 1634890835
0.842373 -0.471903 -2.336993 0.000000000000000e+00 1634890835
0.422751 -0.281369 -1.259058 0.000000000000000e+00 1936876886
0.963332 -0.291355 -2.281159 0.000000000000000e+00 1634890835
0.924620 -0.351924 -2.316952 0.000000000000000e+00 1634890835
0.444547 -0.249561 -1.265375 0.000000000000000e+00 1936876886
0.331983 -0.221869 -1.015851 0.000000000000000e+00 1953264973
0.944710 -0.284181 -2.288797 0.000000000000000e+00 1634890835
0.900420 -0.341880 -2.310687 0.000000000000000e+00 1634890835
0.436977 -0.245849 -1.276788 0.000000000000000e+00 1936876886
0.320037 -0.214808 -1.006715 0.000000000000000e+00 1953264973
0.497018 -0.148666 -1.232448 0.000000000000000e+00 1936876886
0.883409 -0.334568 -2.322613 0.000000000000000e+00 1634890835
0.369553 -0.208390 -1.108965 0.000000000000000e+00 1953264973
0.284769 -0.191999 -0.921395 0.000000000000000e+00 1953264973
0.492278 -0.146378 -1.249861 0.000000000000000e+00 1936876886
0.851701 -0.321702 -2.295127 0.000000000000000e+00 1634890835
0.340857 -0.192669 -1.051066 0.000000000000000e+00 1953264973
0.262431 -0.177774 -0.873943 0.000000000000000e+00 1953264973
0.474943 -0.140351 -1.235162 0.000000000000000e+00 1936876886
0.837553 -0.315478 -2.314368 0.000000000000000e+00 1634890835
0.321547 -0.182210 -1.019457 0.000000000000000e+00 1953264973
0.245501 -0.167129 -0.842019 0.000000000000000e+00 1953264973
