# .PCD v0.7 - Point Cloud Data file format
VERSION 0.7
FIELDS x y z rgb label
SIZE 4 4 4 4 4
TYPE F F F F U
COUNT 1 1 1 1 1
WIDTH 527
HEIGHT 1
VIEWPOINT 0 0 0 1 0 0 0
POINTS 527
DATA ascii
30.911762 -11.483797 -2.244776 0.000000000000000e+00 1851878480
27.144535 -10.076600 -2.218024 0.000000000000000e+00 1851878480
27.438116 -11.469193 -2.186676 0.000000000000000e+00 1851878480
30.307653 -15.649821 -2.244265 0.000000000000000e+00 1851878480
24.330547 -9.025127 -2.209558 0.000000000000000e+00 1851878480
24.440386 -10.212546 -2.177064 0.000000000000000e+00 1851878480
23.915581 -12.352997 -2.010243 0.000000000000000e+00 1851878480
23.547657 -13.393231 -1.899953 0.000000000000000e+00 1851878480
22.169937 -8.217412 -2.215386 0.000000000000000e+00 1851878480
22.292660 -9.311841 -2.195156 0.000000000000000e+00 1851878480
21.914961 -11.323151 -2.061691 0.000000000000000e+00 1851878480
21.474636 -12.221384 -1.955449 0.000000000000000e+00 1851878480
20.379488 -7.548014 -2.222438 0.000000000000000e+00 1851878480
20.394737 -8.516056 -2.200116 0.000000000000000e+00 1851878480
20.341843 -10.513599 -2.117874 0.000000000000000e+00 1851878480
19.938364 -11.353814 -2.022740 0.000000000000000e+00 1851878480
18.914436 -7.000047 -2.235529 0.000000000000000e+00 1851878480
18.876263 -7.879220 -2.214154 0.000000000000000e+00 1851878480
18.973171 -9.809268 -2.166160 0.000000000000000e+00 1851878480
18.773344 -10.696740 -2.100005 0.000000000000000e+00 1851878480
17.577652 -6.500330 -2.238436 0.000000000000000e+00 1851878480
17.572090 -7.332247 -2.227022 0.000000000000000e+00 1851878480
17.588371 -9.096152 -2.185265 0.000000000000000e+00 1851878480
17.715307 -10.099900 -2.166479 0.000000000000000e+00 1851878480
16.396877 -6.059021 -2.238436 0.000000000000000e+00 1851878480
16.435850 -6.855709 -2.238436 0.000000000000000e+00 1851878480
16.452747 -8.511507 -2.210288 0.000000000000000e+00 1851878480
16.525143 -9.426980 -2.193729 0.000000000000000e+00 1851878480
15.362917 -5.672589 -2.238437 0.000000000000000e+00 1851878480
15.366786 -6.407500 -2.238436 0.000000000000000e+00 1851878480
15.370376 -7.954052 -2.220419 0.000000000000000e+00 1851878480
15.409184 -8.795622 -2.207100 0.000000000000000e+00 1851878480
14.449841 -5.331327 -2.238437 0.000000000000000e+00 1851878480
14.426381 -6.013239 -2.238437 0.000000000000000e+00 1851878480
14.435193 -7.472449 -2.231750 0.000000000000000e+00 1851878480
14.477684 -8.268870 -2.225821 0.000000000000000e+00 1851878480
13.637495 -5.027726 -2.238437 0.000000000000000e+00 1851878480
13.592597 -5.663685 -2.238436 0.000000000000000e+00 1851878480
13.577872 -7.030870 -2.237295 0.000000000000000e+00 1851878480
13.591331 -7.767297 -2.232770 0.000000000000000e+00 1851878480
12.909994 -4.755831 -2.238436 0.000000000000000e+00 1851878480
12.848183 -5.351588 -2.238437 0.000000000000000e+00 1851878480
12.793023 -6.626552 -2.238437 0.000000000000000e+00 1851878480
12.785782 -7.311335 -2.235558 0.000000000000000e+00 1851878480
12.254601 -4.510883 -2.238437 0.000000000000000e+00 1851878480
12.179383 -5.071205 -2.238437 0.000000000000000e+00 1851878480
12.086498 -6.262569 -2.238436 0.000000000000000e+00 1851878480
12.068104 -6.905119 -2.238006 0.000000000000000e+00 1851878480
11.661036 -4.289050 -2.238437 0.000000000000000e+00 1851878480
11.575180 -4.817894 -2.238437 0.000000000000000e+00 1851878480
11.452110 -5.935747 -2.238436 0.000000000000000e+00 1851878480
11.415777 -6.535822 -2.238436 0.000000000000000e+00 1851878480
11.120865 -4.087168 -2.238437 0.000000000000000e+00 1851878480
11.026555 -4.587883 -2.238437 0.000000000000000e+00 1851878480
10.879245 -5.640616 -2.238437 0.000000000000000e+00 1851878480
10.826593 -6.202268 -2.238437 0.000000000000000e+00 1851878480
10.627121 -3.902641 -2.238437 0.000000000000000e+00 1851878480
10.526108 -4.378075 -2.238437 0.000000000000000e+00 1851878480
10.359287 -5.372746 -2.238437 0.000000000000000e+00 1851878480
10.293446 -5.900438 -2.238437 0.000000000000000e+00 1851878480
10.173989 -3.733297 -2.238437 0.000000000000000e+00 1851878480
10.067678 -4.185881 -2.238437 0.000000000000000e+00 1851878480
9.885144 -5.128488 -2.238437 0.000000000000000e+00 1851878480
9.808611 -5.625962 -2.238437 0.000000000000000e+00 1851878480
9.756620 -3.577316 -2.238437 0.000000000000000e+00 1851878480
9.646149 -4.009160 -2.238437 0.000000000000000e+00 1851878480
9.450986 -4.904819 -2.238438 0.000000000000000e+00 1851878480
9.365767 -5.375260 -2.238437 0.000000000000000e+00 1851878480
9.370875 -3.433156 -2.238437 0.000000000000000e+00 1851878480
9.257170 -3.846084 -2.238437 0.000000000000000e+00 1851878480
9.051873 -4.699208 -2.238437 0.000000000000000e+00 1851878480
8.959609 -5.145329 -2.238436 0.000000000000000e+00 1851878480
9.013246 -3.299503 -2.238437 0.000000000000000e+00 1851878480
8.897065 -3.695112 -2.238437 0.000000000000000e+00 1851878480
8.683686 -4.509527 -2.238437 0.000000000000000e+00 1851878480
8.585711 -4.933656 -2.238437 0.000000000000000e+00 1851878480
8.680710 -3.175235 -2.238437 0.000000000000000e+00 1851878480
8.562677 -3.554925 -2.238437 0.000000000000000e+00 1851878480
8.342906 -4.333968 -2.238437 0.000000000000000e+00 1851878480
8.240314 -4.738126 -2.238437 0.000000000000000e+00 1851878480
8.370682 -3.059376 -2.238437 0.000000000000000e+00 1851878480
8.251310 -3.424388 -2.238437 0.000000000000000e+00 1851878480
8.026537 -4.170988 -2.238437 0.000000000000000e+00 1851878480
7.920231 -4.556928 -2.238437 0.000000000000000e+00 1851878480
8.080898 -2.951081 -2.238437 0.000000000000000e+00 1851878480
7.960611 -3.302519 -2.238437 0.000000000000000e+00 1851878480
7.731998 -4.019246 -2.238437 0.000000000000000e+00 1851878480
7.622728 -4.388509 -2.238437 0.000000000000000e+00 1851878480
7.809417 -2.849624 -2.238437 0.000000000000000e+00 1851878480
7.688564 -3.188468 -2.238437 0.000000000000000e+00 1851878480
7.457070 -3.877615 -2.238437 0.000000000000000e+00 1851878480
7.345469 -4.231553 -2.238437 0.000000000000000e+00 1851878480
7.554509 -2.754368 -2.238437 0.000000000000000e+00 1851878480
7.433391 -3.081489 -2.238437 0.000000000000000e+00 1851878480
7.199819 -3.745089 -2.238437 0.000000000000000e+00 1851878480
7.086404 -4.084902 -2.238437 0.000000000000000e+00 1851878480
7.314676 -2.664743 -2.238437 0.000000000000000e+00 1851878480
7.193528 -2.980932 -2.238437 0.000000000000000e+00 1851878480
6.958557 -3.620797 -2.238437 0.000000000000000e+00 1851878480
6.843770 -3.947546 -2.238437 0.000000000000000e+00 1851878480
7.088571 -2.580255 -2.238437 0.000000000000000e+00 1851878480
6.967603 -2.886217 -2.238438 0.000000000000000e+00 1851878480
6.731793 -3.503978 -2.238437 0.000000000000000e+00 1851878480
6.616004 -3.818612 -2.238437 0.000000000000000e+00 1851878480
6.875038 -2.500459 -2.238437 0.000000000000000e+00 1851878480
6.754413 -2.796839 -2.238437 0.000000000000000e+00 1851878480
6.518243 -3.393963 -2.238437 0.000000000000000e+00 1851878480
6.401759 -3.697334 -2.238437 0.000000000000000e+00 1851878480
6.673018 -2.424968 -2.238437 0.000000000000000e+00 1851878480
6.552876 -2.712350 -2.238437 0.000000000000000e+00 1851878480
6.316743 -3.290163 -2.238437 0.000000000000000e+00 1851878480
6.199832 -3.583027 -2.238438 0.000000000000000e+00 1851878480
6.481578 -2.353431 -2.238437 0.000000000000000e+00 1851878480
6.362036 -2.632344 -2.238437 0.000000000000000e+00 1851878480
6.126277 -3.192041 -2.238437 0.000000000000000e+00 1851878480
6.009157 -3.475094 -2.238437 0.000000000000000e+00 1851878480
6.299880 -2.285538 -2.238437 0.000000000000000e+00 1851878480
6.181035 -2.556465 -2.238437 0.000000000000000e+00 1851878480
5.945933 -3.099136 -2.238437 0.000000000000000e+00 1851878480
5.828794 -3.372997 -2.238437 0.000000000000000e+00 1851878480
6.127175 -2.221004 -2.238437 0.000000000000000e+00 1851878480
6.009106 -2.484384 -2.238437 0.000000000000000e+00 1851878480
5.774897 -3.011024 -2.238437 0.000000000000000e+00 1851878480
5.657897 -3.276260 -2.238437 0.000000000000000e+00 1851878480
5.962792 -2.159581 -2.238437 0.000000000000000e+00 1851878480
5.845565 -2.415826 -2.238438 0.000000000000000e+00 1851878480
5.612448 -2.927339 -2.238437 0.000000000000000e+00 1851878480
5.495727 -3.184460 -2.238438 0.000000000000000e+00 1851878480
5.806118 -2.101040 -2.238437 0.000000000000000e+00 1851878480
5.689785 -2.350520 -2.238438 0.000000000000000e+00 1851878480
5.457928 -2.847737 -2.238437 0.000000000000000e+00 1851878480
5.341594 -3.097215 -2.238437 0.000000000000000e+00 1851878480
5.656604 -2.045173 -2.238437 0.000000000000000e+00 1851878480
5.541207 -2.288232 -2.238437 0.000000000000000e+00 1851878480
5.310748 -2.771917 -2.238437 0.000000000000000e+00 1851878480
5.194901 -3.014180 -2.238437 0.000000000000000e+00 1851878480
5.513748 -1.991796 -2.238437 0.000000000000000e+00 1851878480
5.399323 -2.228749 -2.238437 0.000000000000000e+00 1851878480
5.170379 -2.699605 -2.238437 0.000000000000000e+00 1851878480
5.055098 -2.935049 -2.238437 0.000000000000000e+00 1851878480
5.377091 -1.940737 -2.238437 0.000000000000000e+00 1851878480
5.263662 -2.171881 -2.238437 0.000000000000000e+00 1851878480
5.036329 -2.630550 -2.238437 0.000000000000000e+00 1851878480
4.921687 -2.859535 -2.238437 0.000000000000000e+00 1851878480
5.246227 -1.891842 -2.238437 0.000000000000000e+00 1851878480
5.133816 -2.117446 -2.238437 0.000000000000000e+00 1851878480
4.908173 -2.564531 -2.238437 0.000000000000000e+00 1851878480
4.794223 -2.787388 -2.238437 0.000000000000000e+00 1851878480
5.120775 -1.844969 -2.238437 0.000000000000000e+00 1851878480
5.009398 -2.065289 -2.238437 0.000000000000000e+00 1851878480
4.785506 -2.501340 -2.238437 0.000000000000000e+00 1851878480
4.672302 -2.718376 -2.238437 0.000000000000000e+00 1851878480
5.000388 -1.799991 -2.238437 0.000000000000000e+00 1851878480
4.890055 -2.015258 -2.238437 0.000000000000000e+00 1851878480
4.667967 -2.440787 -2.238437 0.000000000000000e+00 1851878480
4.555543 -2.652292 -2.238437 0.000000000000000e+00 1851878480
4.884748 -1.756789 -2.238437 0.000000000000000e+00 1851878480
4.775465 -1.967221 -2.238437 0.000000000000000e+00 1851878480
4.555222 -2.382708 -2.238437 0.000000000000000e+00 1851878480
4.443614 -2.588939 -2.238437 0.000000000000000e+00 1851878480
4.773564 -1.715247 -2.238437 0.000000000000000e+00 1851878480
4.665334 -1.921053 -2.238437 0.000000000000000e+00 1851878480
4.446965 -2.326941 -2.238437 0.000000000000000e+00 1851878480
4.336200 -2.528142 -2.238437 0.000000000000000e+00 1851878480
4.666570 -1.675274 -2.238437 0.000000000000000e+00 1851878480
4.559395 -1.876641 -2.238437 0.000000000000000e+00 1851878480
4.342923 -2.273346 -2.238437 0.000000000000000e+00 1851878480
4.233022 -2.469744 -2.238437 0.000000000000000e+00 1851878480
4.563517 -1.636774 -2.238437 0.000000000000000e+00 1851878480
4.457394 -1.833883 -2.238437 0.000000000000000e+00 1851878480
4.242836 -2.221787 -2.238437 0.000000000000000e+00 1851878480
4.133817 -2.413597 -2.238437 0.000000000000000e+00 1851878480
4.464175 -1.599664 -2.238437 0.000000000000000e+00 1851878480
4.359103 -1.792678 -2.238437 0.000000000000000e+00 1851878480
4.146469 -2.172143 -2.238437 0.000000000000000e+00 1851878480
4.038343 -2.359562 -2.238437 0.000000000000000e+00 1851878480
4.368336 -1.563858 -2.238437 0.000000000000000e+00 1851878480
4.264307 -1.752938 -2.238437 0.000000000000000e+00 1851878480
4.053601 -2.124303 -2.238437 0.000000000000000e+00 1851878480
3.946380 -2.307512 -2.238437 0.000000000000000e+00 1851878480
4.275804 -1.529293 -2.238437 0.000000000000000e+00 1851878480
4.172812 -1.714583 -2.238437 0.000000000000000e+00 1851878480
3.964035 -2.078166 -2.238437 0.000000000000000e+00 1851878480
3.857724 -2.257338 -2.238437 0.000000000000000e+00 1851878480
4.186401 -1.495892 -2.238437 0.000000000000000e+00 1851878480
4.084435 -1.677535 -2.238437 0.000000000000000e+00 1851878480
3.877584 -2.033632 -2.238437 0.000000000000000e+00 1851878480
3.772189 -2.208928 -2.238437 0.000000000000000e+00 1851878480
4.099953 -1.463600 -2.238437 0.000000000000000e+00 1851878480
3.999008 -1.641725 -2.238437 0.000000000000000e+00 1851878480
3.794075 -1.990615 -2.238437 0.000000000000000e+00 1851878480
3.689598 -2.162188 -2.238437 0.000000000000000e+00 1851878480
4.088593 -1.458133 -2.278725 0.000000000000000e+00 1634890835
3.916370 -1.607083 -2.238437 0.000000000000000e+00 1851878480
3.713347 -1.949030 -2.238437 0.000000000000000e+00 1851878480
3.609788 -2.117021 -2.238437 0.000000000000000e+00 1851878480
4.006145 -1.427336 -2.278724 0.000000000000000e+00 1634890835
3.836379 -1.573550 -2.238437 0.000000000000000e+00 1851878480
3.635252 -1.908802 -2.238437 0.000000000000000e+00 1851878480
3.532611 -2.073344 -2.238437 0.000000000000000e+00 1851878480
3.926260 -1.397495 -2.278725 0.000000000000000e+00 1634890835
3.758893 -1.541069 -2.238437 0.000000000000000e+00 1851878480
3.559653 -1.869856 -2.238437 0.000000000000000e+00 1851878480
3.457924 -2.031077 -2.238437 0.000000000000000e+00 1851878480
3.848814 -1.368567 -2.278725 0.000000000000000e+00 1634890835
3.683790 -1.509587 -2.238437 0.000000000000000e+00 1851878480
3.486420 -1.832134 -2.238437 0.000000000000000e+00 1851878480
3.385601 -1.990149 -2.238437 0.000000000000000e+00 1851878480
3.773682 -1.340505 -2.278725 0.000000000000000e+00 1634890835
3.610949 -1.479054 -2.238437 0.000000000000000e+00 1851878480
3.415431 -1.795568 -2.238437 0.000000000000000e+00 1851878480
3.315518 -1.950489 -2.238437 0.000000000000000e+00 1851878480
3.700754 -1.313265 -2.278725 0.000000000000000e+00 1634890835
3.346578 -1.760101 -2.238437 0.000000000000000e+00 1851878480
3.247562 -1.912035 -2.238437 0.000000000000000e+00 1851878480
3.629920 -1.286809 -2.278725 0.000000000000000e+00 1634890835
3.534101 -1.446216 -2.278725 0.000000000000000e+00 1634890835
3.279752 -1.725677 -2.238437 0.000000000000000e+00 1851878480
3.181629 -1.874723 -2.238437 0.000000000000000e+00 1851878480
3.561086 -1.261099 -2.278725 0.000000000000000e+00 1634890835
3.466208 -1.417758 -2.278725 0.000000000000000e+00 1634890835
3.214857 -1.692249 -2.238437 0.000000000000000e+00 1851878480
3.117618 -1.838501 -2.238437 0.000000000000000e+00 1851878480
3.494159 -1.236101 -2.278725 0.000000000000000e+00 1634890835
3.400209 -1.390090 -2.278725 0.000000000000000e+00 1634890835
3.151800 -1.659766 -2.238437 0.000000000000000e+00 1851878480
3.055438 -1.803315 -2.238437 0.000000000000000e+00 1851878480
3.429047 -1.211784 -2.278725 0.000000000000000e+00 1634890835
3.336013 -1.363181 -2.278724 0.000000000000000e+00 1634890835
3.090494 -1.628187 -2.238437 0.000000000000000e+00 1851878480
2.995002 -1.769117 -2.238437 0.000000000000000e+00 1851878480
3.365671 -1.188115 -2.278725 0.000000000000000e+00 1634890835
3.273540 -1.336995 -2.278725 0.000000000000000e+00 1634890835
3.030860 -1.597470 -2.238437 0.000000000000000e+00 1851878480
2.936228 -1.735859 -2.238437 0.000000000000000e+00 1851878480
3.303953 -1.165063 -2.278725 0.000000000000000e+00 1634890835
3.212710 -1.311495 -2.278725 0.000000000000000e+00 1634890835
2.972819 -1.567572 -2.238437 0.000000000000000e+00 1851878480
2.879037 -1.703498 -2.238437 0.000000000000000e+00 1851878480
3.243820 -1.142607 -2.278725 0.000000000000000e+00 1634890835
3.153453 -1.286657 -2.278725 0.000000000000000e+00 1634890835
2.916300 -1.538460 -2.238437 0.000000000000000e+00 1851878480
2.823360 -1.671994 -2.238437 0.000000000000000e+00 1851878480
3.185203 -1.120716 -2.278725 0.000000000000000e+00 1634890835
3.095700 -1.262448 -2.278725 0.000000000000000e+00 1634890835
2.861238 -1.510096 -2.238437 0.000000000000000e+00 1851878480
2.769129 -1.641310 -2.238437 0.000000000000000e+00 1851878480
3.128039 -1.099368 -2.278725 0.000000000000000e+00 1634890835
3.039386 -1.238844 -2.278725 0.000000000000000e+00 1634890835
2.807566 -1.482452 -2.238437 0.000000000000000e+00 1851878480
2.716281 -1.611407 -2.238437 0.000000000000000e+00 1851878480
3.072263 -1.078539 -2.278725 0.000000000000000e+00 1634890835
2.984449 -1.215815 -2.278725 0.000000000000000e+00 1634890835
2.755226 -1.455490 -2.238437 0.000000000000000e+00 1851878480
0.840392 -0.499000 -0.705943 0.000000000000000e+00 1886740808
3.017819 -1.058208 -2.278725 0.000000000000000e+00 1634890835
2.930829 -1.193339 -2.278725 0.000000000000000e+00 1634890835
2.752829 -1.454910 -2.278726 0.000000000000000e+00 1634890835
0.824540 -0.490031 -0.705943 0.000000000000000e+00 1886740808
2.964653 -1.038355 -2.278725 0.000000000000000e+00 1634890835
2.878477 -1.171397 -2.278726 0.000000000000000e+00 1634890835
0.837099 -0.442630 -0.705943 0.000000000000000e+00 1886740808
0.809070 -0.481279 -0.705943 0.000000000000000e+00 1886740808
2.912713 -1.018961 -2.278725 0.000000000000000e+00 1634890835
2.827338 -1.149959 -2.278726 0.000000000000000e+00 1634890835
0.821748 -0.434723 -0.705943 0.000000000000000e+00 1886740808
0.793966 -0.472733 -0.705943 0.000000000000000e+00 1886740808
2.861951 -1.000005 -2.278726 0.000000000000000e+00 1634890835
2.777362 -1.129012 -2.278726 0.000000000000000e+00 1634890835
0.806751 -0.426998 -0.705943 0.000000000000000e+00 1886740808
0.779214 -0.464386 -0.705943 0.000000000000000e+00 1886740808
2.812316 -0.981473 -2.278726 0.000000000000000e+00 1634890835
2.728503 -1.108533 -2.278726 0.000000000000000e+00 1634890835
0.792094 -0.419448 -0.705943 0.000000000000000e+00 1886740808
0.764797 -0.456231 -0.705943 0.000000000000000e+00 1886740808
2.763765 -0.963343 -2.278726 0.000000000000000e+00 1634890835
0.830479 -0.337215 -0.705943 0.000000000000000e+00 1886740808
0.777762 -0.412066 -0.705943 0.000000000000000e+00 1886740808
0.750702 -0.448257 -0.705943 0.000000000000000e+00 1886740808
0.841489 -0.292946 -0.705943 0.000000000000000e+00 1886740808
0.815995 -0.331144 -0.705943 0.000000000000000e+00 1886740808
0.763743 -0.404845 -0.705943 0.000000000000000e+00 1886740808
0.744293 -0.444866 -0.713007 0.000000000000000e+00 1886740808
0.827083 -0.287567 -0.705943 0.000000000000000e+00 1886740808
0.801818 -0.325202 -0.705943 0.000000000000000e+00 1886740808
0.750025 -0.397779 -0.705943 0.000000000000000e+00 1886740808
0.744293 -0.445310 -0.726299 0.000000000000000e+00 1886740808
0.812975 -0.282300 -0.705943 0.000000000000000e+00 1886740808
0.787936 -0.319383 -0.705943 0.000000000000000e+00 1886740808
0.744293 -0.394946 -0.713319 0.000000000000000e+00 1886740808
0.744293 -0.445760 -0.739798 0.000000000000000e+00 1886740808
0.799155 -0.277140 -0.705943 0.000000000000000e+00 1886740808
0.774339 -0.313684 -0.705943 0.000000000000000e+00 1886740808
0.744293 -0.395157 -0.726286 0.000000000000000e+00 1886740808
0.744293 -0.446218 -0.753511 0.000000000000000e+00 1886740808
0.785611 -0.272084 -0.705943 0.000000000000000e+00 1886740808
0.761015 -0.308100 -0.705943 0.000000000000000e+00 1886740808
0.744293 -0.395371 -0.739454 0.000000000000000e+00 1886740808
0.744293 -0.446684 -0.767445 0.000000000000000e+00 1886740808
0.772336 -0.267127 -0.705943 0.000000000000000e+00 1886740808
0.747956 -0.302626 -0.705943 0.000000000000000e+00 1886740808
0.744293 -0.395588 -0.752831 0.000000000000000e+00 1886740808
0.744293 -0.447157 -0.781607 0.000000000000000e+00 1886740808
0.759317 -0.262267 -0.705943 0.000000000000000e+00 1886740808
0.744293 -0.300955 -0.714723 0.000000000000000e+00 1886740808
0.744293 -0.395809 -0.766423 0.000000000000000e+00 1886740808
0.744293 -0.447638 -0.796007 0.000000000000000e+00 1886740808
0.746546 -0.257499 -0.705943 0.000000000000000e+00 1886740808
0.744293 -0.300764 -0.727147 0.000000000000000e+00 1886740808
0.744293 -0.396033 -0.780239 0.000000000000000e+00 1886740808
2.092191 -1.259677 -2.278725 0.000000000000000e+00 1634890835
0.744293 -0.256361 -0.715829 0.000000000000000e+00 1886740808
0.744293 -0.300570 -0.739765 0.000000000000000e+00 1886740808
0.744293 -0.396262 -0.794285 0.000000000000000e+00 1886740808
2.054432 -1.238318 -2.278725 0.000000000000000e+00 1634890835
0.744293 -0.255995 -0.728030 0.000000000000000e+00 1886740808
0.744293 -0.300372 -0.752583 0.000000000000000e+00 1886740808
2.097577 -1.117404 -2.278725 0.000000000000000e+00 1634890835
2.017380 -1.217360 -2.278725 0.000000000000000e+00 1634890835
0.744293 -0.255623 -0.740422 0.000000000000000e+00 1886740808
0.744293 -0.300171 -0.765609 0.000000000000000e+00 1886740808
2.060543 -1.098330 -2.278725 0.000000000000000e+00 1634890835
0.796275 -0.481053 -0.915942 0.000000000000000e+00 1886740808
0.744293 -0.255246 -0.753011 0.000000000000000e+00 1886740808
0.744293 -0.299968 -0.778848 0.000000000000000e+00 1886740808
2.024176 -1.079598 -2.278725 0.000000000000000e+00 1634890835
0.784635 -0.474576 -0.919123 0.000000000000000e+00 1886740808
0.744293 -0.254862 -0.765804 0.000000000000000e+00 1886740808
0.744293 -0.299761 -0.792308 0.000000000000000e+00 1886740808
1.988451 -1.061198 -2.278725 0.000000000000000e+00 1634890835
0.775673 -0.469713 -0.925308 0.000000000000000e+00 1886740808
0.744293 -0.254472 -0.778808 0.000000000000000e+00 1886740808
2.104270 -0.846890 -2.278725 0.000000000000000e+00 1634890835
0.797388 -0.425818 -0.930213 0.000000000000000e+00 1886740808
0.768822 -0.466129 -0.933989 0.000000000000000e+00 1886740808
0.744293 -0.254076 -0.792029 0.000000000000000e+00 1886740808
2.068529 -0.831911 -2.278725 0.000000000000000e+00 1634890835
0.785518 -0.419747 -0.932844 0.000000000000000e+00 1886740808
0.764548 -0.464110 -0.945877 0.000000000000000e+00 1886740808
0.744293 -0.253673 -0.805476 0.000000000000000e+00 1886740808
2.033382 -0.817180 -2.278725 0.000000000000000e+00 1634890835
0.776430 -0.415161 -0.938647 0.000000000000000e+00 1886740808
1.808580 -1.099258 -2.278725 0.000000000000000e+00 1634890835
2.070471 -0.704526 -2.278725 0.000000000000000e+00 1634890835
1.998812 -0.802691 -2.278725 0.000000000000000e+00 1634890835
0.769416 -0.411683 -0.946930 0.000000000000000e+00 1886740808
1.775829 -1.080734 -2.278725 0.000000000000000e+00 1634890835
2.035871 -0.691612 -2.278725 0.000000000000000e+00 1634890835
1.964799 -0.788435 -2.278725 0.000000000000000e+00 1634890835
0.764804 -0.409491 -0.958242 0.000000000000000e+00 1886740808
0.749056 -0.456456 -0.978942 0.000000000000000e+00 1886740808
2.001817 -0.678901 -2.278725 0.000000000000000e+00 1634890835
1.931322 -0.774405 -2.278725 0.000000000000000e+00 1634890835
0.767165 -0.411038 -0.978581 0.000000000000000e+00 1886740808
1.711906 -1.044580 -2.278725 0.000000000000000e+00 1634890835
1.968292 -0.666388 -2.278725 0.000000000000000e+00 1634890835
0.797682 -0.319597 -0.957506 0.000000000000000e+00 1886740808
1.754622 -0.940767 -2.278725 0.000000000000000e+00 1634890835
1.680699 -1.026931 -2.278725 0.000000000000000e+00 1634890835
1.935279 -0.654067 -2.278725 0.000000000000000e+00 1634890835
0.785810 -0.314588 -0.959660 0.000000000000000e+00 1886740808
0.751063 -0.402982 -0.993126 0.000000000000000e+00 1886740808
1.649974 -1.009555 -2.278725 0.000000000000000e+00 1634890835
1.902761 -0.641932 -2.278725 0.000000000000000e+00 1634890835
0.776730 -0.310699 -0.965104 0.000000000000000e+00 1886740808
1.692477 -0.908758 -2.278725 0.000000000000000e+00 1634890835
1.619715 -0.992442 -2.278725 0.000000000000000e+00 1634890835
0.796758 -0.268312 -0.970530 0.000000000000000e+00 1886740808
0.769654 -0.307611 -0.973020 0.000000000000000e+00 1886740808
1.662096 -0.893113 -2.278725 0.000000000000000e+00 1634890835
1.589905 -0.975583 -2.278725 0.000000000000000e+00 1634890835
0.785167 -0.263918 -0.972831 0.000000000000000e+00 1886740808
0.764877 -0.305441 -0.983921 0.000000000000000e+00 1886740808
1.632160 -0.877694 -2.278725 0.000000000000000e+00 1634890835
1.560532 -0.958972 -2.278725 0.000000000000000e+00 1634890835
0.776221 -0.260415 -0.978302 0.000000000000000e+00 1886740808
0.765615 -0.305470 -1.002178 0.000000000000000e+00 1886740808
1.602652 -0.862497 -2.278725 0.000000000000000e+00 1634890835
1.531580 -0.942599 -2.278725 0.000000000000000e+00 1634890835
0.769281 -0.257586 -0.986296 0.000000000000000e+00 1886740808
1.710671 -0.681928 -2.278725 0.000000000000000e+00 1634890835
1.573559 -0.847513 -2.278725 0.000000000000000e+00 1634890835
1.503036 -0.926457 -2.278725 0.000000000000000e+00 1634890835
0.764660 -0.255532 -0.997354 0.000000000000000e+00 1886740808
1.680924 -0.669461 -2.278725 0.000000000000000e+00 1634890835
1.544868 -0.832737 -2.278725 0.000000000000000e+00 1634890835
1.474888 -0.910540 -2.278725 0.000000000000000e+00 1634890835
0.766216 -0.255532 -1.016760 0.000000000000000e+00 1886740808
0.744042 -0.296055 -1.026574 0.000000000000000e+00 1886740808
1.516566 -0.818161 -2.278725 0.000000000000000e+00 1634890835
1.447123 -0.894838 -2.278725 0.000000000000000e+00 1634890835
1.687757 -0.561695 -2.278725 0.000000000000000e+00 1634890835
1.622622 -0.645028 -2.278725 0.000000000000000e+00 1634890835
1.488641 -0.803778 -2.278725 0.000000000000000e+00 1634890835
1.419727 -0.879346 -2.278725 0.000000000000000e+00 1634890835
0.752074 -0.249763 -1.033211 0.000000000000000e+00 1886740808
1.594046 -0.633052 -2.278725 0.000000000000000e+00 1634890835
1.461081 -0.789586 -2.278725 0.000000000000000e+00 1634890835
1.392691 -0.864059 -2.278725 0.000000000000000e+00 1634890835
1.629981 -0.540137 -2.278725 0.000000000000000e+00 1634890835
1.565836 -0.621228 -2.278725 0.000000000000000e+00 1634890835
1.433876 -0.775575 -2.278725 0.000000000000000e+00 1634890835
1.366003 -0.848967 -2.278725 0.000000000000000e+00 1634890835
1.601640 -0.529563 -2.278725 0.000000000000000e+00 1634890835
1.537980 -0.609555 -2.278725 0.000000000000000e+00 1634890835
1.407013 -0.761740 -2.278725 0.000000000000000e+00 1634890835
1.339652 -0.834066 -2.278725 0.000000000000000e+00 1634890835
1.573651 -0.519119 -2.278725 0.000000000000000e+00 1634890835
1.510470 -0.598025 -2.278725 0.000000000000000e+00 1634890835
1.380483 -0.748076 -2.278725 0.000000000000000e+00 1634890835
1.313627 -0.819351 -2.278725 0.000000000000000e+00 1634890835
1.546003 -0.508802 -2.278725 0.000000000000000e+00 1634890835
1.483294 -0.586635 -2.278725 0.000000000000000e+00 1634890835
1.354276 -0.734580 -2.278725 0.000000000000000e+00 1634890835
1.287919 -0.804814 -2.278725 0.000000000000000e+00 1634890835
1.518685 -0.498609 -2.278725 0.000000000000000e+00 1634890835
1.456442 -0.575382 -2.278725 0.000000000000000e+00 1634890835
1.328381 -0.721244 -2.278725 0.000000000000000e+00 1634890835
1.262519 -0.790451 -2.278725 0.000000000000000e+00 1634890835
1.491687 -0.488535 -2.278725 0.000000000000000e+00 1634890835
1.429905 -0.564261 -2.278725 0.000000000000000e+00 1634890835
1.302790 -0.708063 -2.278725 0.000000000000000e+00 1634890835
1.237415 -0.776258 -2.278725 0.000000000000000e+00 1634890835
1.464999 -0.478578 -2.278725 0.000000000000000e+00 1634890835
1.403672 -0.553268 -2.278725 0.000000000000000e+00 1634890835
1.277492 -0.695035 -2.278725 0.000000000000000e+00 1634890835
1.212599 -0.762227 -2.278724 0.000000000000000e+00 1634890835
1.438614 -0.468734 -2.278725 0.000000000000000e+00 1634890835
1.377736 -0.542399 -2.278725 0.000000000000000e+00 1634890835
1.252479 -0.682153 -2.278725 0.000000000000000e+00 1634890835
1.188065 -0.748353 -2.278725 0.000000000000000e+00 1634890835
1.412521 -0.458998 -2.278725 0.000000000000000e+00 1634890835
1.352086 -0.531649 -2.278725 0.000000000000000e+00 1634890835
1.227742 -0.669413 -2.278725 0.000000000000000e+00 1634890835
1.163800 -0.734633 -2.278725 0.000000000000000e+00 1634890835
1.386712 -0.449370 -2.278725 0.000000000000000e+00 1634890835
1.326716 -0.521017 -2.278725 0.000000000000000e+00 1634890835
1.203273 -0.656813 -2.278725 0.000000000000000e+00 1634890835
1.139798 -0.721064 -2.278725 0.000000000000000e+00 1634890835
1.361179 -0.439844 -2.278725 0.000000000000000e+00 1634890835
1.301616 -0.510497 -2.278725 0.000000000000000e+00 1634890835
1.179065 -0.644345 -2.278725 0.000000000000000e+00 1634890835
1.116051 -0.707637 -2.278725 0.000000000000000e+00 1634890835
1.335914 -0.430416 -2.278725 0.000000000000000e+00 1634890835
1.276778 -0.500088 -2.278725 0.000000000000000e+00 1634890835
1.155109 -0.632008 -2.278725 0.000000000000000e+00 1634890835
1.092552 -0.694350 -2.278725 0.000000000000000e+00 1634890835
1.310908 -0.421088 -2.278725 0.000000000000000e+00 1634890835
1.252194 -0.489785 -2.278725 0.000000000000000e+00 1634890835
1.131397 -0.619796 -2.278724 0.000000000000000e+00 1634890835
1.069292 -0.681200 -2.278724 0.000000000000000e+00 1634890835
1.286155 -0.411853 -2.278725 0.000000000000000e+00 1634890835
1.227859 -0.479587 -2.278725 0.000000000000000e+00 1634890835
1.107923 -0.607707 -2.278725 0.000000000000000e+00 1634890835
1.046265 -0.668180 -2.278725 0.000000000000000e+00 1634890835
1.261647 -0.402710 -2.278725 0.000000000000000e+00 1634890835
1.203763 -0.469489 -2.278725 0.000000000000000e+00 1634890835
1.084679 -0.595736 -2.278725 0.000000000000000e+00 1634890835
1.023463 -0.655288 -2.278724 0.000000000000000e+00 1634890835
1.237375 -0.393656 -2.278725 0.000000000000000e+00 1634890835
1.179899 -0.459489 -2.278725 0.000000000000000e+00 1634890835
1.061657 -0.583881 -2.278725 0.000000000000000e+00 1634890835
1.000880 -0.642521 -2.278725 0.000000000000000e+00 1634890835
1.213336 -0.384687 -2.278725 0.000000000000000e+00 1634890835
1.156261 -0.449584 -2.278725 0.000000000000000e+00 1634890835
1.038853 -0.572137 -2.278724 0.000000000000000e+00 1634890835
0.978509 -0.629873 -2.278725 0.000000000000000e+00 1634890835
1.189519 -0.375802 -2.278725 0.000000000000000e+00 1634890835
1.132843 -0.439770 -2.278725 0.000000000000000e+00 1634890835
1.016259 -0.560501 -2.278724 0.000000000000000e+00 1634890835
0.956343 -0.617342 -2.278724 0.000000000000000e+00 1634890835
1.165920 -0.366999 -2.278725 0.000000000000000e+00 1634890835
1.109636 -0.430046 -2.278725 0.000000000000000e+00 1634890835
0.993868 -0.548970 -2.278724 0.000000000000000e+00 1634890835
0.934376 -0.604923 -2.278724 0.000000000000000e+00 1634890835
1.142532 -0.358273 -2.278725 0.000000000000000e+00 1634890835
1.086637 -0.420406 -2.278725 0.000000000000000e+00 1634890835
0.971675 -0.537541 -2.278725 0.000000000000000e+00 1634890835
0.912603 -0.592613 -2.278725 0.000000000000000e+00 1634890835
1.119348 -0.349625 -2.278725 0.000000000000000e+00 1634890835
1.063838 -0.410852 -2.278725 0.000000000000000e+00 1634890835
0.949674 -0.526210 -2.278724 0.000000000000000e+00 1634890835
0.891017 -0.580410 -2.278725 0.000000000000000e+00 1634890835
1.096363 -0.341051 -2.278725 0.000000000000000e+00 1634890835
1.041232 -0.401379 -2.278725 0.000000000000000e+00 1634890835
0.927857 -0.514976 -2.278725 0.000000000000000e+00 1634890835
0.869612 -0.568309 -2.278725 0.000000000000000e+00 1634890835
1.073570 -0.332549 -2.278725 0.000000000000000e+00 1634890835
1.018816 -0.391985 -2.278725 0.000000000000000e+00 1634890835
0.906221 -0.503834 -2.278725 0.000000000000000e+00 1634890835
0.848383 -0.556308 -2.278725 0.000000000000000e+00 1634890835
1.050965 -0.324117 -2.278725 0.000000000000000e+00 1634890835
0.996582 -0.382668 -2.278725 0.000000000000000e+00 1634890835
0.884760 -0.492781 -2.278724 0.000000000000000e+00 1634890835
0.827325 -0.544403 -2.278724 0.000000000000000e+00 1634890835
1.028541 -0.315752 -2.278725 0.000000000000000e+00 1634890835
0.974526 -0.373425 -2.278725 0.000000000000000e+00 1634890835
0.863468 -0.481816 -2.278724 0.000000000000000e+00 1634890835
0.451011 -0.297861 -1.274415 0.000000000000000e+00 1936876886
1.006293 -0.307452 -2.278725 0.000000000000000e+00 1634890835
0.952640 -0.364254 -2.278724 0.000000000000000e+00 1634890835
0.842339 -0.470936 -2.278724 0.000000000000000e+00 1634890835
0.433314 -0.287261 -1.256717 0.000000000000000e+00 1936876886
0.984216 -0.299218 -2.278725 0.000000000000000e+00 1634890835
0.930922 -0.355153 -2.278725 0.000000000000000e+00 1634890835
0.821370 -0.460137 -2.278725 0.000000000000000e+00 1634890835
0.421236 -0.280360 -1.254547 0.000000000000000e+00 1936876886
0.962304 -0.291044 -2.278725 0.000000000000000e+00 1634890835
0.909365 -0.346118 -2.278724 0.000000000000000e+00 1634890835
0.445942 -0.250344 -1.269346 0.000000000000000e+00 1936876886
0.335131 -0.223973 -1.025484 0.000000000000000e+00 1953264973
0.940552 -0.282930 -2.278725 0.000000000000000e+00 1634890835
0.887965 -0.337151 -2.278725 0.000000000000000e+00 1634890835
0.428906 -0.241308 -1.253205 0.000000000000000e+00 1936876886
0.306475 -0.205706 -0.964056 0.000000000000000e+00 1953264973
0.495093 -0.148090 -1.227675 0.000000000000000e+00 1936876886
0.866716 -0.328246 -2.278724 0.000000000000000e+00 1634890835
0.358559 -0.202191 -1.075975 0.000000000000000e+00 1953264973
0.281226 -0.189610 -0.909930 0.000000000000000e+00 1953264973
0.483539 -0.143780 -1.227675 0.000000000000000e+00 1936876886
0.845614 -0.319403 -2.278724 0.000000000000000e+00 1634890835
0.326698 -0.184665 -1.007406 0.000000000000000e+00 1953264973
0.258805 -0.175317 -0.861867 0.000000000000000e+00 1953264973
0.472063 -0.139500 -1.227674 0.000000000000000e+00 1936876886
0.824654 -0.310620 -2.278724 0.000000000000000e+00 1634890835
0.299057 -0.169465 -0.948154 0.000000000000000e+00 1953264973
0.238758 -0.162539 -0.818894 0.000000000000000e+00 1953264973
