# .PCD v0.7 - Point Cloud Data file format
VERSION 0.7
FIELDS x y z rgb label
SIZE 4 4 4 4 4
TYPE F F F F U
COUNT 1 1 1 1 1
WIDTH 537
HEIGHT 1
VIEWPOINT 0 0 0 1 0 0 0
POINTS 537
DATA ascii
38.585110 -19.719599 9.957958 0.000000000000000e+00 1954047316
33.264660 -12.367283 -2.113444 0.000000000000000e+00 1851878480
31.999474 -13.385221 -1.950761 0.000000000000000e+00 1851878480
29.431585 -15.188032 -1.591523 0.000000000000000e+00 1851878480
27.956394 -15.872658 -1.388300 0.000000000000000e+00 1851878480
29.044537 -10.790117 -2.109181 0.000000000000000e+00 1851878480
28.342405 -11.851357 -1.993150 0.000000000000000e+00 1851878480
26.729887 -13.798112 -1.712224 0.000000000000000e+00 1851878480
25.886518 -14.706128 -1.552866 0.000000000000000e+00 1851878480
26.518066 -9.844042 -2.166835 0.000000000000000e+00 1851878480
26.061583 -10.893799 -2.076973 0.000000000000000e+00 1851878480
24.896284 -12.855577 -1.843557 0.000000000000000e+00 1851878480
24.483839 -13.917463 -1.721922 0.000000000000000e+00 1851878480
24.148840 -8.957726 -2.193058 0.000000000000000e+00 1851878480
24.355848 -10.177223 -2.169533 0.000000000000000e+00 1851878480
23.560190 -12.169428 -1.980370 0.000000000000000e+00 1851878480
23.352718 -13.282356 -1.884226 0.000000000000000e+00 1851878480
22.176077 -8.219687 -2.215999 0.000000000000000e+00 1851878480
22.377447 -9.347258 -2.203506 0.000000000000000e+00 1851878480
22.131798 -11.435187 -2.082090 0.000000000000000e+00 1851878480
21.864466 -12.443239 -1.990945 0.000000000000000e+00 1851878480
20.484398 -7.586870 -2.233878 0.000000000000000e+00 1851878480
20.648764 -8.622128 -2.227520 0.000000000000000e+00 1851878480
20.752716 -10.725959 -2.160652 0.000000000000000e+00 1851878480
20.453112 -11.646935 -2.074960 0.000000000000000e+00 1851878480
18.929644 -7.005674 -2.237326 0.000000000000000e+00 1851878480
19.020018 -7.939225 -2.231016 0.000000000000000e+00 1851878480
19.385424 -10.022406 -2.213227 0.000000000000000e+00 1851878480
19.093582 -10.879209 -2.135828 0.000000000000000e+00 1851878480
17.577671 -6.500337 -2.238439 0.000000000000000e+00 1851878480
17.634592 -7.358326 -2.234944 0.000000000000000e+00 1851878480
17.846170 -9.229478 -2.217295 0.000000000000000e+00 1851878480
17.869543 -10.187833 -2.185341 0.000000000000000e+00 1851878480
16.396896 -6.059028 -2.238438 0.000000000000000e+00 1851878480
16.435823 -6.855698 -2.238432 0.000000000000000e+00 1851878480
16.515654 -8.544049 -2.218738 0.000000000000000e+00 1851878480
16.630493 -9.487078 -2.207714 0.000000000000000e+00 1851878480
15.362925 -5.672592 -2.238438 0.000000000000000e+00 1851878480
15.366795 -6.407504 -2.238437 0.000000000000000e+00 1851878480
15.402970 -7.970919 -2.225127 0.000000000000000e+00 1851878480
15.437255 -8.811646 -2.211120 0.000000000000000e+00 1851878480
14.449845 -5.331329 -2.238437 0.000000000000000e+00 1851878480
14.426385 -6.013242 -2.238437 0.000000000000000e+00 1851878480
14.419973 -7.464571 -2.229397 0.000000000000000e+00 1851878480
14.411658 -8.231160 -2.215669 0.000000000000000e+00 1851878480
13.637501 -5.027727 -2.238437 0.000000000000000e+00 1851878480
13.592607 -5.663689 -2.238438 0.000000000000000e+00 1851878480
13.584814 -7.034464 -2.238438 0.000000000000000e+00 1851878480
13.556793 -7.747560 -2.227097 0.000000000000000e+00 1851878480
12.910004 -4.755835 -2.238438 0.000000000000000e+00 1851878480
12.848188 -5.351591 -2.238438 0.000000000000000e+00 1851878480
12.793031 -6.626556 -2.238438 0.000000000000000e+00 1851878480
12.795575 -7.316935 -2.237270 0.000000000000000e+00 1851878480
12.254606 -4.510887 -2.238438 0.000000000000000e+00 1851878480
12.179391 -5.071208 -2.238438 0.000000000000000e+00 1851878480
12.086508 -6.262575 -2.238438 0.000000000000000e+00 1851878480
12.070438 -6.906456 -2.238438 0.000000000000000e+00 1851878480
11.661041 -4.289052 -2.238438 0.000000000000000e+00 1851878480
11.575187 -4.817897 -2.238438 0.000000000000000e+00 1851878480
6.542104 -3.390840 -1.278724 1.880790849211783e-38 1684957512
11.415787 -6.535828 -2.238438 0.000000000000000e+00 1851878480
6.352876 -2.334825 -1.278723 1.880790849211783e-38 1684957512
6.299002 -2.620862 -1.278724 1.880790849211783e-38 1684957512
6.214849 -3.222243 -1.278724 1.880790849211783e-38 1684957512
10.826601 -6.202271 -2.238439 0.000000000000000e+00 1851878480
6.070821 -2.229413 -1.278723 1.880790849211783e-38 1684957512
6.013118 -2.501008 -1.278724 1.880790849211783e-38 1684957512
5.917819 -3.069221 -1.278724 1.880790849211783e-38 1684957512
5.880207 -3.370669 -1.278724 1.880790849211783e-38 1684957512
5.811966 -2.132673 -1.278724 1.880790849211783e-38 1684957512
5.751235 -2.391215 -1.278724 1.880790849211783e-38 1684957512
5.646962 -2.929686 -1.278723 1.880790849211783e-38 1684957512
5.603242 -3.213873 -1.278723 1.880790849211783e-38 1684957512
5.573541 -2.043568 -1.278724 1.880790849211783e-38 1684957512
5.510433 -2.290262 -1.278723 1.880790849211783e-38 1684957512
5.398943 -2.801913 -1.278724 1.880790849211783e-38 1684957512
5.350264 -3.070657 -1.278724 1.880790849211783e-38 1684957512
5.353182 -1.961216 -1.278724 1.880790849211783e-38 1684957512
5.288227 -2.197104 -1.278724 1.880790849211783e-38 1684957512
5.170949 -2.684458 -1.278724 1.880790849211783e-38 1684957512
5.118245 -2.939308 -1.278724 1.880790849211783e-38 1684957512
5.148883 -1.884865 -1.278724 1.880790849211783e-38 1684957512
5.082514 -2.110860 -1.278724 1.880790849211783e-38 1684957512
4.960619 -2.576100 -1.278724 1.880790849211783e-38 1684957512
4.904651 -2.818388 -1.278724 1.880790849211783e-38 1684957512
4.958920 -1.813876 -1.278724 1.880790849211783e-38 1684957512
4.891494 -2.030778 -1.278724 1.880790849211783e-38 1684957512
4.765947 -2.475812 -1.278724 1.880790849211783e-38 1684957512
4.707339 -2.706689 -1.278723 1.880790849211783e-38 1684957512
4.781814 -1.747691 -1.278724 1.880790849211783e-38 1684957512
4.713620 -1.956207 -1.278723 1.880790849211783e-38 1684957512
4.585218 -2.382708 -1.278724 1.880790849211783e-38 1684957512
4.584518 -2.637716 -1.295689 1.880790849211783e-38 1684957512
4.616273 -1.685827 -1.278724 1.880790849211783e-38 1684957512
4.584518 -1.901922 -1.289117 1.880790849211783e-38 1684957512
4.584518 -2.383123 -1.327232 1.880790849211783e-38 1684957512
4.584517 -2.639370 -1.346257 1.880790849211783e-38 1684957512
4.584517 -1.672872 -1.314075 1.880790849211783e-38 1684957512
4.584517 -1.901211 -1.334729 1.880790849211783e-38 1684957512
4.584517 -2.383912 -1.376164 1.880790849211783e-38 1684957512
4.584518 -2.641034 -1.397073 1.880790849211783e-38 1684957512
4.584517 -1.671511 -1.358414 1.880790849211783e-38 1684957512
4.584518 -1.900498 -1.380548 1.880790849211783e-38 1684957512
4.584517 -2.384702 -1.425335 1.880790849211783e-38 1684957512
4.584518 -2.642710 -1.448147 1.880790849211783e-38 1684957512
4.584517 -1.670144 -1.402954 1.880790849211783e-38 1684957512
4.584519 -1.899783 -1.426582 1.880790849211783e-38 1684957512
4.584518 -2.385496 -1.474753 1.880790849211783e-38 1684957512
4.584518 -2.644389 -1.499488 1.880790849211783e-38 1684957512
4.584518 -1.668774 -1.447704 1.880790849211783e-38 1684957512
4.584518 -1.899063 -1.472839 1.880790849211783e-38 1684957512
4.584517 -2.386295 -1.524431 1.880790849211783e-38 1684957512
4.584518 -2.646083 -1.551111 1.880790849211783e-38 1684957512
4.584518 -1.667395 -1.492669 1.880790849211783e-38 1684957512
4.584517 -1.898338 -1.519326 1.880790849211783e-38 1684957512
4.584518 -2.387098 -1.574374 1.880790849211783e-38 1684957512
4.584518 -2.647787 -1.603021 1.880790849211783e-38 1684957512
4.584518 -1.666009 -1.537858 1.880790849211783e-38 1684957512
4.584517 -1.897612 -1.566054 1.880790849211783e-38 1684957512
4.584518 -2.387910 -1.624596 1.880790849211783e-38 1684957512
4.584518 -2.649499 -1.655231 1.880790849211783e-38 1684957512
4.584517 -1.664618 -1.583280 1.880790849211783e-38 1684957512
4.584518 -1.896881 -1.613030 1.880790849211783e-38 1684957512
4.584517 -2.388721 -1.675104 1.880790849211783e-38 1684957512
4.584517 -2.651226 -1.707753 1.880790849211783e-38 1684957512
4.584517 -1.663221 -1.628944 1.880790849211783e-38 1684957512
4.584518 -1.896149 -1.660265 1.880790849211783e-38 1684957512
4.584519 -2.389541 -1.725912 1.880790849211783e-38 1684957512
4.584518 -2.652961 -1.760597 1.880790849211783e-38 1684957512
4.584517 -1.661815 -1.674859 1.880790849211783e-38 1684957512
4.584518 -1.895407 -1.707767 1.880790849211783e-38 1684957512
4.584517 -2.390362 -1.777028 1.880790849211783e-38 1684957512
4.584518 -2.654710 -1.813776 1.880790849211783e-38 1684957512
4.584517 -1.660403 -1.721032 1.880790849211783e-38 1684957512
4.584518 -1.894667 -1.755546 1.880790849211783e-38 1684957512
4.584517 -2.391191 -1.828463 1.880790849211783e-38 1684957512
4.584518 -2.656467 -1.867298 1.880790849211783e-38 1684957512
4.584518 -1.658984 -1.767473 1.880790849211783e-38 1684957512
4.584518 -1.893920 -1.803611 1.880790849211783e-38 1684957512
4.584518 -2.392025 -1.880229 1.880790849211783e-38 1684957512
4.584518 -2.658240 -1.921178 1.880790849211783e-38 1684957512
4.584518 -1.657555 -1.814190 1.880790849211783e-38 1684957512
4.584518 -1.893169 -1.851971 1.880790849211783e-38 1684957512
4.584518 -2.392865 -1.932337 1.880790849211783e-38 1684957512
4.584518 -2.660024 -1.975429 1.880790849211783e-38 1684957512
4.584518 -1.656120 -1.861194 1.880790849211783e-38 1684957512
4.584517 -1.892411 -1.900638 1.880790849211783e-38 1684957512
4.584518 -2.393710 -1.984798 1.880790849211783e-38 1684957512
4.584519 -2.661826 -2.030061 1.880790849211783e-38 1684957512
4.584518 -1.654676 -1.908496 1.880790849211783e-38 1684957512
4.584518 -1.891654 -1.949623 1.880790849211783e-38 1684957512
4.584518 -2.394563 -2.037626 1.880790849211783e-38 1684957512
4.584517 -2.663637 -2.085089 1.880790849211783e-38 1684957512
4.584517 -1.653222 -1.956102 1.880790849211783e-38 1684957512
4.584517 -1.890887 -1.998933 1.880790849211783e-38 1684957512
4.584517 -2.395420 -2.090830 1.880790849211783e-38 1684957512
4.584517 -2.665464 -2.140525 1.880790849211783e-38 1684957512
4.584518 -1.651761 -2.004024 1.880790849211783e-38 1684957512
4.584518 -1.890118 -2.048581 1.880790849211783e-38 1684957512
4.584518 -2.396285 -2.144424 1.880790849211783e-38 1684957512
4.584517 -2.667303 -2.196382 1.880790849211783e-38 1684957512
4.584518 -1.650291 -2.052272 1.880790849211783e-38 1684957512
4.584517 -1.889341 -2.098577 1.880790849211783e-38 1684957512
4.584517 -2.397153 -2.198420 1.880790849211783e-38 1684957512
4.555545 -2.652293 -2.238438 0.000000000000000e+00 1851878480
4.584518 -1.648812 -2.100857 1.880790849211783e-38 1684957512
4.584518 -1.888562 -2.148933 1.880790849211783e-38 1684957512
4.555225 -2.382710 -2.238438 0.000000000000000e+00 1851878480
4.443616 -2.588940 -2.238438 0.000000000000000e+00 1851878480
4.584518 -1.647318 -2.149789 1.880790849211783e-38 1684957512
4.584518 -1.887776 -2.199661 1.880790849211783e-38 1684957512
4.446967 -2.326941 -2.238438 0.000000000000000e+00 1851878480
4.336202 -2.528143 -2.238438 0.000000000000000e+00 1851878480
4.584518 -1.645818 -2.199079 1.880790849211783e-38 1684957512
4.559396 -1.876642 -2.238438 0.000000000000000e+00 1851878480
4.342925 -2.273346 -2.238438 0.000000000000000e+00 1851878480
4.233024 -2.469745 -2.238438 0.000000000000000e+00 1851878480
4.563519 -1.636774 -2.238438 0.000000000000000e+00 1851878480
4.457396 -1.833883 -2.238438 0.000000000000000e+00 1851878480
4.242838 -2.221788 -2.238438 0.000000000000000e+00 1851878480
4.133819 -2.413598 -2.238438 0.000000000000000e+00 1851878480
4.464177 -1.599664 -2.238438 0.000000000000000e+00 1851878480
4.359104 -1.792679 -2.238438 0.000000000000000e+00 1851878480
4.146471 -2.172144 -2.238438 0.000000000000000e+00 1851878480
4.038345 -2.359563 -2.238438 0.000000000000000e+00 1851878480
4.368337 -1.563859 -2.238438 0.000000000000000e+00 1851878480
4.264307 -1.752938 -2.238438 0.000000000000000e+00 1851878480
4.053603 -2.124304 -2.238438 0.000000000000000e+00 1851878480
3.946382 -2.307513 -2.238438 0.000000000000000e+00 1851878480
4.275805 -1.529293 -2.238438 0.000000000000000e+00 1851878480
4.172813 -1.714584 -2.238438 0.000000000000000e+00 1851878480
3.964037 -2.078167 -2.238438 0.000000000000000e+00 1851878480
3.857726 -2.257339 -2.238438 0.000000000000000e+00 1851878480
4.186402 -1.495893 -2.238438 0.000000000000000e+00 1851878480
4.084438 -1.677536 -2.238438 0.000000000000000e+00 1851878480
3.877585 -2.033633 -2.238438 0.000000000000000e+00 1851878480
3.772191 -2.208929 -2.238438 0.000000000000000e+00 1851878480
4.099954 -1.463601 -2.238438 0.000000000000000e+00 1851878480
3.999008 -1.641725 -2.238438 0.000000000000000e+00 1851878480
3.794075 -1.990616 -2.238438 0.000000000000000e+00 1851878480
3.689598 -2.162189 -2.238438 0.000000000000000e+00 1851878480
4.016309 -1.432354 -2.238438 0.000000000000000e+00 1851878480
3.916372 -1.607084 -2.238438 0.000000000000000e+00 1851878480
3.713349 -1.949031 -2.238438 0.000000000000000e+00 1851878480
3.609790 -2.117022 -2.238438 0.000000000000000e+00 1851878480
4.006148 -1.427337 -2.278727 0.000000000000000e+00 1634890835
3.836379 -1.573551 -2.238437 0.000000000000000e+00 1851878480
3.635254 -1.908803 -2.238438 0.000000000000000e+00 1851878480
3.532612 -2.073345 -2.238438 0.000000000000000e+00 1851878480
3.926263 -1.397496 -2.278726 0.000000000000000e+00 1634890835
3.758893 -1.541070 -2.238438 0.000000000000000e+00 1851878480
3.559654 -1.869857 -2.238438 0.000000000000000e+00 1851878480
3.457926 -2.031078 -2.238438 0.000000000000000e+00 1851878480
3.848817 -1.368568 -2.278727 0.000000000000000e+00 1634890835
3.683792 -1.509588 -2.238438 0.000000000000000e+00 1851878480
3.486421 -1.832134 -2.238438 0.000000000000000e+00 1851878480
3.385602 -1.990149 -2.238438 0.000000000000000e+00 1851878480
3.773686 -1.340506 -2.278727 0.000000000000000e+00 1634890835
3.610950 -1.479055 -2.238438 0.000000000000000e+00 1851878480
3.415432 -1.795568 -2.238437 0.000000000000000e+00 1851878480
3.315519 -1.950489 -2.238438 0.000000000000000e+00 1851878480
3.700757 -1.313266 -2.278727 0.000000000000000e+00 1634890835
3.540261 -1.449423 -2.238438 0.000000000000000e+00 1851878480
3.346579 -1.760101 -2.238438 0.000000000000000e+00 1851878480
3.247563 -1.912036 -2.238438 0.000000000000000e+00 1851878480
3.629924 -1.286810 -2.278727 0.000000000000000e+00 1634890835
3.471619 -1.420647 -2.238438 0.000000000000000e+00 1851878480
3.279752 -1.725677 -2.238438 0.000000000000000e+00 1851878480
3.181630 -1.874723 -2.238438 0.000000000000000e+00 1851878480
3.561090 -1.261100 -2.278727 0.000000000000000e+00 1634890835
3.466211 -1.417759 -2.278727 0.000000000000000e+00 1634890835
3.214857 -1.692249 -2.238438 0.000000000000000e+00 1851878480
3.117619 -1.838501 -2.238438 0.000000000000000e+00 1851878480
3.494162 -1.236102 -2.278727 0.000000000000000e+00 1634890835
3.400212 -1.390092 -2.278727 0.000000000000000e+00 1634890835
3.151800 -1.659767 -2.238438 0.000000000000000e+00 1851878480
3.055439 -1.803316 -2.238438 0.000000000000000e+00 1851878480
3.429050 -1.211785 -2.278727 0.000000000000000e+00 1634890835
3.336016 -1.363182 -2.278727 0.000000000000000e+00 1634890835
3.090495 -1.628188 -2.238437 0.000000000000000e+00 1851878480
2.995003 -1.769117 -2.238438 0.000000000000000e+00 1851878480
3.365674 -1.188117 -2.278727 0.000000000000000e+00 1634890835
3.273543 -1.336996 -2.278727 0.000000000000000e+00 1634890835
3.030861 -1.597471 -2.238438 0.000000000000000e+00 1851878480
2.936229 -1.735860 -2.238438 0.000000000000000e+00 1851878480
3.303956 -1.165064 -2.278727 0.000000000000000e+00 1634890835
3.212713 -1.311496 -2.278727 0.000000000000000e+00 1634890835
2.972819 -1.567572 -2.238438 0.000000000000000e+00 1851878480
2.879038 -1.703499 -2.238438 0.000000000000000e+00 1851878480
3.243823 -1.142608 -2.278727 0.000000000000000e+00 1634890835
3.153456 -1.286658 -2.278727 0.000000000000000e+00 1634890835
2.916301 -1.538460 -2.238438 0.000000000000000e+00 1851878480
2.823361 -1.671995 -2.238437 0.000000000000000e+00 1851878480
3.185205 -1.120717 -2.278726 0.000000000000000e+00 1634890835
3.095703 -1.262449 -2.278727 0.000000000000000e+00 1634890835
2.861239 -1.510097 -2.238438 0.000000000000000e+00 1851878480
2.769130 -1.641311 -2.238438 0.000000000000000e+00 1851878480
3.128042 -1.099369 -2.278727 0.000000000000000e+00 1634890835
3.039388 -1.238845 -2.278727 0.000000000000000e+00 1634890835
2.807567 -1.482452 -2.238437 0.000000000000000e+00 1851878480
2.716282 -1.611408 -2.238438 0.000000000000000e+00 1851878480
3.072266 -1.078540 -2.278727 0.000000000000000e+00 1634890835
2.984451 -1.215816 -2.278727 0.000000000000000e+00 1634890835
2.755227 -1.455490 -2.238438 0.000000000000000e+00 1851878480
0.840391 -0.499000 -0.705942 0.000000000000000e+00 1886740808
3.017822 -1.058209 -2.278727 0.000000000000000e+00 1634890835
2.930831 -1.193341 -2.278727 0.000000000000000e+00 1634890835
2.704159 -1.429187 -2.238438 0.000000000000000e+00 1851878480
0.824539 -0.490030 -0.705942 0.000000000000000e+00 1886740808
2.964656 -1.038356 -2.278727 0.000000000000000e+00 1634890835
2.878478 -1.171397 -2.278727 0.000000000000000e+00 1634890835
0.837098 -0.442630 -0.705942 0.000000000000000e+00 1886740808
0.809069 -0.481278 -0.705942 0.000000000000000e+00 1886740808
2.912716 -1.018962 -2.278727 0.000000000000000e+00 1634890835
2.827339 -1.149959 -2.278727 0.000000000000000e+00 1634890835
0.821748 -0.434722 -0.705942 0.000000000000000e+00 1886740808
0.793966 -0.472733 -0.705942 0.000000000000000e+00 1886740808
2.861952 -1.000006 -2.278727 0.000000000000000e+00 1634890835
2.777363 -1.129012 -2.278727 0.000000000000000e+00 1634890835
0.806751 -0.426998 -0.705942 0.000000000000000e+00 1886740808
0.779213 -0.464386 -0.705942 0.000000000000000e+00 1886740808
2.812317 -0.981473 -2.278727 0.000000000000000e+00 1634890835
2.728504 -1.108533 -2.278727 0.000000000000000e+00 1634890835
0.792093 -0.419448 -0.705942 0.000000000000000e+00 1886740808
0.764796 -0.456230 -0.705942 0.000000000000000e+00 1886740808
2.763767 -0.963343 -2.278727 0.000000000000000e+00 1634890835
0.830478 -0.337215 -0.705942 0.000000000000000e+00 1886740808
0.777761 -0.412066 -0.705942 0.000000000000000e+00 1886740808
0.750702 -0.448256 -0.705942 0.000000000000000e+00 1886740808
0.841489 -0.292945 -0.705942 0.000000000000000e+00 1886740808
0.815994 -0.331144 -0.705942 0.000000000000000e+00 1886740808
0.763743 -0.404845 -0.705942 0.000000000000000e+00 1886740808
0.744295 -0.444867 -0.713009 0.000000000000000e+00 1886740808
0.827082 -0.287567 -0.705942 0.000000000000000e+00 1886740808
0.801817 -0.325201 -0.705942 0.000000000000000e+00 1886740808
0.750025 -0.397779 -0.705942 0.000000000000000e+00 1886740808
0.744295 -0.445311 -0.726301 0.000000000000000e+00 1886740808
0.812974 -0.282300 -0.705942 0.000000000000000e+00 1886740808
0.787936 -0.319383 -0.705942 0.000000000000000e+00 1886740808
0.744295 -0.394947 -0.713321 0.000000000000000e+00 1886740808
0.744295 -0.445761 -0.739800 0.000000000000000e+00 1886740808
0.799154 -0.277139 -0.705942 0.000000000000000e+00 1886740808
0.774338 -0.313684 -0.705942 0.000000000000000e+00 1886740808
0.744295 -0.395158 -0.726288 0.000000000000000e+00 1886740808
0.744295 -0.446220 -0.753513 0.000000000000000e+00 1886740808
0.785611 -0.272084 -0.705942 0.000000000000000e+00 1886740808
0.761015 -0.308099 -0.705942 0.000000000000000e+00 1886740808
0.744295 -0.395372 -0.739456 0.000000000000000e+00 1886740808
0.744295 -0.446685 -0.767447 0.000000000000000e+00 1886740808
0.772335 -0.267127 -0.705942 0.000000000000000e+00 1886740808
0.747955 -0.302625 -0.705942 0.000000000000000e+00 1886740808
0.744295 -0.395589 -0.752833 0.000000000000000e+00 1886740808
0.744295 -0.447158 -0.781610 0.000000000000000e+00 1886740808
0.759316 -0.262267 -0.705942 0.000000000000000e+00 1886740808
0.744295 -0.300956 -0.714725 0.000000000000000e+00 1886740808
0.744295 -0.395810 -0.766426 0.000000000000000e+00 1886740808
0.744295 -0.447639 -0.796009 0.000000000000000e+00 1886740808
0.746545 -0.257499 -0.705942 0.000000000000000e+00 1886740808
0.744295 -0.300765 -0.727149 0.000000000000000e+00 1886740808
0.744295 -0.396035 -0.780241 0.000000000000000e+00 1886740808
2.092191 -1.259677 -2.278725 0.000000000000000e+00 1634890835
0.744295 -0.256362 -0.715831 0.000000000000000e+00 1886740808
0.744295 -0.300571 -0.739767 0.000000000000000e+00 1886740808
0.744295 -0.396263 -0.794288 0.000000000000000e+00 1886740808
2.054432 -1.238318 -2.278725 0.000000000000000e+00 1634890835
0.744295 -0.255996 -0.728032 0.000000000000000e+00 1886740808
0.744295 -0.300373 -0.752586 0.000000000000000e+00 1886740808
2.097576 -1.117403 -2.278725 0.000000000000000e+00 1634890835
2.017380 -1.217359 -2.278725 0.000000000000000e+00 1634890835
0.744295 -0.255624 -0.740424 0.000000000000000e+00 1886740808
0.744295 -0.300172 -0.765611 0.000000000000000e+00 1886740808
2.060542 -1.098330 -2.278725 0.000000000000000e+00 1634890835
0.796275 -0.481053 -0.915943 0.000000000000000e+00 1886740808
0.744295 -0.255246 -0.753013 0.000000000000000e+00 1886740808
0.744295 -0.299969 -0.778850 0.000000000000000e+00 1886740808
2.024175 -1.079598 -2.278725 0.000000000000000e+00 1634890835
0.784636 -0.474577 -0.919123 0.000000000000000e+00 1886740808
0.744295 -0.254862 -0.765806 0.000000000000000e+00 1886740808
0.744295 -0.299762 -0.792311 0.000000000000000e+00 1886740808
1.988451 -1.061198 -2.278725 0.000000000000000e+00 1634890835
0.775673 -0.469713 -0.925309 0.000000000000000e+00 1886740808
0.744295 -0.254473 -0.778810 0.000000000000000e+00 1886740808
2.104270 -0.846890 -2.278725 0.000000000000000e+00 1634890835
0.797389 -0.425818 -0.930214 0.000000000000000e+00 1886740808
0.768823 -0.466130 -0.933989 0.000000000000000e+00 1886740808
0.744295 -0.254077 -0.792032 0.000000000000000e+00 1886740808
2.068528 -0.831911 -2.278725 0.000000000000000e+00 1634890835
0.785518 -0.419747 -0.932844 0.000000000000000e+00 1886740808
0.764549 -0.464111 -0.945878 0.000000000000000e+00 1886740808
0.744295 -0.253673 -0.805478 0.000000000000000e+00 1886740808
2.033382 -0.817180 -2.278725 0.000000000000000e+00 1634890835
0.776431 -0.415161 -0.938648 0.000000000000000e+00 1886740808
1.808580 -1.099258 -2.278725 0.000000000000000e+00 1634890835
2.070470 -0.704525 -2.278724 0.000000000000000e+00 1634890835
1.998812 -0.802691 -2.278725 0.000000000000000e+00 1634890835
0.769417 -0.411684 -0.946931 0.000000000000000e+00 1886740808
1.775829 -1.080734 -2.278725 0.000000000000000e+00 1634890835
2.035870 -0.691612 -2.278724 0.000000000000000e+00 1634890835
1.964798 -0.788435 -2.278724 0.000000000000000e+00 1634890835
0.764804 -0.409492 -0.958243 0.000000000000000e+00 1886740808
0.749057 -0.456456 -0.978943 0.000000000000000e+00 1886740808
2.001816 -0.678901 -2.278725 0.000000000000000e+00 1634890835
1.931322 -0.774404 -2.278725 0.000000000000000e+00 1634890835
0.767165 -0.411038 -0.978582 0.000000000000000e+00 1886740808
1.711906 -1.044580 -2.278725 0.000000000000000e+00 1634890835
1.968292 -0.666388 -2.278725 0.000000000000000e+00 1634890835
0.797682 -0.319597 -0.957507 0.000000000000000e+00 1886740808
1.754621 -0.940767 -2.278725 0.000000000000000e+00 1634890835
1.680699 -1.026931 -2.278725 0.000000000000000e+00 1634890835
1.935278 -0.654067 -2.278725 0.000000000000000e+00 1634890835
0.785811 -0.314588 -0.959661 0.000000000000000e+00 1886740808
0.751063 -0.402982 -0.993126 0.000000000000000e+00 1886740808
1.649974 -1.009555 -2.278725 0.000000000000000e+00 1634890835
1.902761 -0.641932 -2.278725 0.000000000000000e+00 1634890835
0.776731 -0.310699 -0.965105 0.000000000000000e+00 1886740808
1.692476 -0.908758 -2.278725 0.000000000000000e+00 1634890835
1.619715 -0.992442 -2.278725 0.000000000000000e+00 1634890835
0.796758 -0.268312 -0.970530 0.000000000000000e+00 1886740808
0.769655 -0.307611 -0.973021 0.000000000000000e+00 1886740808
1.662096 -0.893113 -2.278725 0.000000000000000e+00 1634890835
1.589905 -0.975583 -2.278725 0.000000000000000e+00 1634890835
0.785168 -0.263918 -0.972832 0.000000000000000e+00 1886740808
0.764879 -0.305443 -0.983925 0.000000000000000e+00 1886740808
1.632160 -0.877694 -2.278725 0.000000000000000e+00 1634890835
1.560532 -0.958972 -2.278725 0.000000000000000e+00 1634890835
0.776222 -0.260415 -0.978302 0.000000000000000e+00 1886740808
0.765616 -0.305470 -1.002179 0.000000000000000e+00 1886740808
1.602652 -0.862497 -2.278725 0.000000000000000e+00 1634890835
1.531580 -0.942599 -2.278725 0.000000000000000e+00 1634890835
0.769282 -0.257587 -0.986297 0.000000000000000e+00 1886740808
1.710670 -0.681928 -2.278725 0.000000000000000e+00 1634890835
1.573559 -0.847513 -2.278725 0.000000000000000e+00 1634890835
1.503036 -0.926457 -2.278725 0.000000000000000e+00 1634890835
0.764661 -0.255532 -0.997355 0.000000000000000e+00 1886740808
1.680923 -0.669461 -2.278725 0.000000000000000e+00 1634890835
1.544868 -0.832737 -2.278725 0.000000000000000e+00 1634890835
1.474888 -0.910540 -2.278725 0.000000000000000e+00 1634890835
0.766226 -0.255535 -1.016772 0.000000000000000e+00 1886740808
0.744043 -0.296055 -1.026575 0.000000000000000e+00 1886740808
1.516566 -0.818161 -2.278725 0.000000000000000e+00 1634890835
1.447123 -0.894838 -2.278725 0.000000000000000e+00 1634890835
1.687757 -0.561695 -2.278725 0.000000000000000e+00 1634890835
1.622622 -0.645028 -2.278725 0.000000000000000e+00 1634890835
1.488641 -0.803778 -2.278725 0.000000000000000e+00 1634890835
1.419727 -0.879346 -2.278725 0.000000000000000e+00 1634890835
0.752072 -0.249762 -1.033210 0.000000000000000e+00 1886740808
1.594046 -0.633052 -2.278725 0.000000000000000e+00 1634890835
1.461081 -0.789586 -2.278725 0.000000000000000e+00 1634890835
1.392691 -0.864059 -2.278725 0.000000000000000e+00 1634890835
1.629981 -0.540137 -2.278725 0.000000000000000e+00 1634890835
1.565836 -0.621228 -2.278725 0.000000000000000e+00 1634890835
1.433876 -0.775575 -2.278725 0.000000000000000e+00 1634890835
1.366003 -0.848967 -2.278725 0.000000000000000e+00 1634890835
1.601640 -0.529563 -2.278725 0.000000000000000e+00 1634890835
1.537980 -0.609555 -2.278725 0.000000000000000e+00 1634890835
1.407013 -0.761740 -2.278725 0.000000000000000e+00 1634890835
1.339652 -0.834066 -2.278725 0.000000000000000e+00 1634890835
1.573651 -0.519119 -2.278725 0.000000000000000e+00 1634890835
1.510470 -0.598026 -2.278725 0.000000000000000e+00 1634890835
1.380484 -0.748076 -2.278725 0.000000000000000e+00 1634890835
1.313627 -0.819351 -2.278725 0.000000000000000e+00 1634890835
1.546003 -0.508802 -2.278725 0.000000000000000e+00 1634890835
1.483294 -0.586635 -2.278725 0.000000000000000e+00 1634890835
1.354276 -0.734580 -2.278725 0.000000000000000e+00 1634890835
1.287920 -0.804814 -2.278725 0.000000000000000e+00 1634890835
1.518685 -0.498609 -2.278725 0.000000000000000e+00 1634890835
1.456442 -0.575382 -2.278725 0.000000000000000e+00 1634890835
1.328381 -0.721244 -2.278725 0.000000000000000e+00 1634890835
1.262519 -0.790452 -2.278725 0.000000000000000e+00 1634890835
1.491687 -0.488534 -2.278725 0.000000000000000e+00 1634890835
1.429905 -0.564261 -2.278725 0.000000000000000e+00 1634890835
1.302790 -0.708063 -2.278725 0.000000000000000e+00 1634890835
1.237416 -0.776258 -2.278725 0.000000000000000e+00 1634890835
1.464999 -0.478578 -2.278725 0.000000000000000e+00 1634890835
1.403672 -0.553268 -2.278725 0.000000000000000e+00 1634890835
1.277492 -0.695035 -2.278725 0.000000000000000e+00 1634890835
1.212600 -0.762227 -2.278725 0.000000000000000e+00 1634890835
1.438614 -0.468734 -2.278725 0.000000000000000e+00 1634890835
1.377736 -0.542399 -2.278725 0.000000000000000e+00 1634890835
1.252479 -0.682153 -2.278725 0.000000000000000e+00 1634890835
1.188065 -0.748353 -2.278725 0.000000000000000e+00 1634890835
1.412521 -0.458998 -2.278725 0.000000000000000e+00 1634890835
1.352087 -0.531649 -2.278725 0.000000000000000e+00 1634890835
1.227742 -0.669413 -2.278725 0.000000000000000e+00 1634890835
1.163800 -0.734633 -2.278725 0.000000000000000e+00 1634890835
1.386712 -0.449370 -2.278725 0.000000000000000e+00 1634890835
1.326716 -0.521017 -2.278725 0.000000000000000e+00 1634890835
1.203274 -0.656813 -2.278725 0.000000000000000e+00 1634890835
1.139798 -0.721064 -2.278725 0.000000000000000e+00 1634890835
1.361179 -0.439844 -2.278725 0.000000000000000e+00 1634890835
1.301616 -0.510497 -2.278725 0.000000000000000e+00 1634890835
1.179065 -0.644345 -2.278725 0.000000000000000e+00 1634890835
1.116052 -0.707637 -2.278725 0.000000000000000e+00 1634890835
1.335914 -0.430416 -2.278725 0.000000000000000e+00 1634890835
1.276778 -0.500088 -2.278725 0.000000000000000e+00 1634890835
1.155109 -0.632008 -2.278725 0.000000000000000e+00 1634890835
1.092552 -0.694350 -2.278725 0.000000000000000e+00 1634890835
1.310908 -0.421088 -2.278725 0.000000000000000e+00 1634890835
1.252195 -0.489786 -2.278725 0.000000000000000e+00 1634890835
1.131397 -0.619796 -2.278725 0.000000000000000e+00 1634890835
1.069292 -0.681200 -2.278725 0.000000000000000e+00 1634890835
1.286155 -0.411853 -2.278725 0.000000000000000e+00 1634890835
1.227859 -0.479587 -2.278725 0.000000000000000e+00 1634890835
1.107923 -0.607707 -2.278725 0.000000000000000e+00 1634890835
1.046265 -0.668181 -2.278725 0.000000000000000e+00 1634890835
1.261647 -0.402710 -2.278725 0.000000000000000e+00 1634890835
1.203763 -0.469489 -2.278726 0.000000000000000e+00 1634890835
1.084679 -0.595736 -2.278725 0.000000000000000e+00 1634890835
1.023463 -0.655289 -2.278725 0.000000000000000e+00 1634890835
1.237375 -0.393656 -2.278725 0.000000000000000e+00 1634890835
1.179899 -0.459489 -2.278725 0.000000000000000e+00 1634890835
1.061658 -0.583881 -2.278725 0.000000000000000e+00 1634890835
1.000880 -0.642521 -2.278725 0.000000000000000e+00 1634890835
1.213336 -0.384687 -2.278725 0.000000000000000e+00 1634890835
1.156261 -0.449584 -2.278725 0.000000000000000e+00 1634890835
1.038854 -0.572137 -2.278725 0.000000000000000e+00 1634890835
0.978509 -0.629874 -2.278725 0.000000000000000e+00 1634890835
1.189520 -0.375802 -2.278725 0.000000000000000e+00 1634890835
1.132843 -0.439770 -2.278725 0.000000000000000e+00 1634890835
1.016260 -0.560501 -2.278725 0.000000000000000e+00 1634890835
0.956343 -0.617343 -2.278725 0.000000000000000e+00 1634890835
1.165920 -0.366998 -2.278725 0.000000000000000e+00 1634890835
1.109636 -0.430046 -2.278725 0.000000000000000e+00 1634890835
0.993868 -0.548970 -2.278725 0.000000000000000e+00 1634890835
0.934376 -0.604923 -2.278725 0.000000000000000e+00 1634890835
1.142532 -0.358273 -2.278725 0.000000000000000e+00 1634890835
1.086637 -0.420407 -2.278725 0.000000000000000e+00 1634890835
0.971675 -0.537541 -2.278726 0.000000000000000e+00 1634890835
0.912603 -0.592613 -2.278725 0.000000000000000e+00 1634890835
1.119348 -0.349625 -2.278725 0.000000000000000e+00 1634890835
1.063838 -0.410852 -2.278725 0.000000000000000e+00 1634890835
0.949674 -0.526210 -2.278725 0.000000000000000e+00 1634890835
0.891017 -0.580410 -2.278725 0.000000000000000e+00 1634890835
1.096363 -0.341051 -2.278725 0.000000000000000e+00 1634890835
1.041232 -0.401379 -2.278725 0.000000000000000e+00 1634890835
0.927858 -0.514976 -2.278726 0.000000000000000e+00 1634890835
0.869612 -0.568309 -2.278725 0.000000000000000e+00 1634890835
1.073570 -0.332549 -2.278725 0.000000000000000e+00 1634890835
1.018816 -0.391985 -2.278725 0.000000000000000e+00 1634890835
0.906221 -0.503834 -2.278725 0.000000000000000e+00 1634890835
0.848384 -0.556308 -2.278725 0.000000000000000e+00 1634890835
1.050965 -0.324117 -2.278725 0.000000000000000e+00 1634890835
0.996582 -0.382668 -2.278725 0.000000000000000e+00 1634890835
0.884760 -0.492781 -2.278725 0.000000000000000e+00 1634890835
0.827326 -0.544404 -2.278725 0.000000000000000e+00 1634890835
1.028542 -0.315752 -2.278725 0.000000000000000e+00 1634890835
0.974526 -0.373425 -2.278725 0.000000000000000e+00 1634890835
0.863469 -0.481816 -2.278725 0.000000000000000e+00 1634890835
0.451011 -0.297861 -1.274413 0.000000000000000e+00 1936876886
1.006294 -0.307453 -2.278725 0.000000000000000e+00 1634890835
0.952641 -0.364254 -2.278725 0.000000000000000e+00 1634890835
0.842340 -0.470936 -2.278726 0.000000000000000e+00 1634890835
0.433313 -0.287261 -1.256716 0.000000000000000e+00 1936876886
0.984217 -0.299218 -2.278725 0.000000000000000e+00 1634890835
0.930922 -0.355153 -2.278725 0.000000000000000e+00 1634890835
0.821370 -0.460137 -2.278726 0.000000000000000e+00 1634890835
0.421222 -0.280351 -1.254504 0.000000000000000e+00 1936876886
0.962304 -0.291044 -2.278725 0.000000000000000e+00 1634890835
0.909365 -0.346118 -2.278725 0.000000000000000e+00 1634890835
0.445942 -0.250344 -1.269344 0.000000000000000e+00 1936876886
0.335126 -0.223970 -1.025469 0.000000000000000e+00 1953264973
0.940552 -0.282930 -2.278725 0.000000000000000e+00 1634890835
0.887965 -0.337151 -2.278725 0.000000000000000e+00 1634890835
0.428905 -0.241307 -1.253204 0.000000000000000e+00 1936876886
0.306471 -0.205703 -0.964043 0.000000000000000e+00 1953264973
0.495093 -0.148090 -1.227675 0.000000000000000e+00 1936876886
0.866716 -0.328246 -2.278726 0.000000000000000e+00 1634890835
0.358553 -0.202188 -1.075958 0.000000000000000e+00 1953264973
0.281222 -0.189608 -0.909917 0.000000000000000e+00 1953264973
0.483539 -0.143780 -1.227675 0.000000000000000e+00 1936876886
0.845615 -0.319403 -2.278725 0.000000000000000e+00 1634890835
0.326693 -0.184663 -1.007392 0.000000000000000e+00 1953264973
0.258801 -0.175315 -0.861855 0.000000000000000e+00 1953264973
0.472064 -0.139500 -1.227675 0.000000000000000e+00 1936876886
0.824654 -0.310620 -2.278725 0.000000000000000e+00 1634890835
0.299053 -0.169463 -0.948141 0.000000000000000e+00 1953264973
0.238755 -0.162536 -0.818883 0.000000000000000e+00 1953264973
