# .PCD v0.7 - Point Cloud Data file format
VERSION 0.7
FIELDS x y z rgb label
SIZE 4 4 4 4 4
TYPE F F F F U
COUNT 1 1 1 1 1
WIDTH 534
HEIGHT 1
VIEWPOINT 0 0 0 1 0 0 0
POINTS 534
DATA ascii
36.587017 -18.692356 9.824306 0.000000000000000e+00 1954047316
35.458679 -13.182984 -2.252840 0.000000000000000e+00 1851878480
29.375708 -10.913149 -2.133230 0.000000000000000e+00 1851878480
29.101910 -12.168943 -2.046562 0.000000000000000e+00 1851878480
27.745802 -14.322534 -1.777300 0.000000000000000e+00 1851878480
26.617004 -15.121118 -1.596686 0.000000000000000e+00 1851878480
26.710125 -9.915338 -2.182528 0.000000000000000e+00 1851878480
26.256346 -10.975210 -2.092495 0.000000000000000e+00 1851878480
24.973619 -12.895511 -1.849283 0.000000000000000e+00 1851878480
24.308775 -13.817951 -1.709609 0.000000000000000e+00 1851878480
24.115837 -8.945483 -2.190061 0.000000000000000e+00 1851878480
24.256474 -10.135698 -2.160681 0.000000000000000e+00 1851878480
23.174862 -11.970397 -1.947981 0.000000000000000e+00 1851878480
22.703566 -12.913136 -1.831848 0.000000000000000e+00 1851878480
22.073074 -8.181508 -2.205706 0.000000000000000e+00 1851878480
22.131645 -9.244585 -2.179301 0.000000000000000e+00 1851878480
21.744556 -11.235106 -2.045660 0.000000000000000e+00 1851878480
21.414719 -12.187284 -1.949992 0.000000000000000e+00 1851878480
20.421696 -7.563646 -2.227041 0.000000000000000e+00 1851878480
20.492531 -8.556890 -2.210666 0.000000000000000e+00 1851878480
20.584215 -10.638870 -2.143109 0.000000000000000e+00 1851878480
20.307119 -11.563800 -2.060150 0.000000000000000e+00 1851878480
18.918159 -7.001424 -2.235969 0.000000000000000e+00 1851878480
18.966831 -7.917026 -2.224777 0.000000000000000e+00 1851878480
19.317171 -9.987119 -2.205435 0.000000000000000e+00 1851878480
19.108543 -10.887733 -2.137501 0.000000000000000e+00 1851878480
17.577665 -6.500335 -2.238437 0.000000000000000e+00 1851878480
17.637190 -7.359411 -2.235273 0.000000000000000e+00 1851878480
17.896826 -9.255675 -2.223589 0.000000000000000e+00 1851878480
17.999741 -10.262062 -2.201263 0.000000000000000e+00 1851878480
16.396893 -6.059027 -2.238438 0.000000000000000e+00 1851878480
16.435225 -6.855448 -2.238351 0.000000000000000e+00 1851878480
16.576347 -8.575449 -2.226892 0.000000000000000e+00 1851878480
16.726854 -9.542049 -2.220507 0.000000000000000e+00 1851878480
15.362926 -5.672593 -2.238438 0.000000000000000e+00 1851878480
15.366794 -6.407504 -2.238437 0.000000000000000e+00 1851878480
15.441319 -7.990764 -2.230667 0.000000000000000e+00 1851878480
15.527343 -8.863069 -2.224024 0.000000000000000e+00 1851878480
14.449850 -5.331330 -2.238438 0.000000000000000e+00 1851878480
14.426388 -6.013242 -2.238438 0.000000000000000e+00 1851878480
14.440641 -7.475269 -2.232592 0.000000000000000e+00 1851878480
14.463880 -8.260985 -2.223699 0.000000000000000e+00 1851878480
13.637512 -5.027731 -2.238439 0.000000000000000e+00 1851878480
13.592613 -5.663692 -2.238439 0.000000000000000e+00 1851878480
13.572938 -7.028315 -2.236481 0.000000000000000e+00 1851878480
13.562707 -7.750938 -2.228068 0.000000000000000e+00 1851878480
12.910008 -4.755836 -2.238439 0.000000000000000e+00 1851878480
12.848189 -5.351591 -2.238438 0.000000000000000e+00 1851878480
12.793033 -6.626556 -2.238438 0.000000000000000e+00 1851878480
12.774207 -7.304716 -2.233535 0.000000000000000e+00 1851878480
12.254608 -4.510887 -2.238439 0.000000000000000e+00 1851878480
12.179393 -5.071209 -2.238438 0.000000000000000e+00 1851878480
12.086510 -6.262576 -2.238438 0.000000000000000e+00 1851878480
12.070306 -6.906379 -2.238414 0.000000000000000e+00 1851878480
11.661049 -4.289054 -2.238439 0.000000000000000e+00 1851878480
11.575191 -4.817899 -2.238439 0.000000000000000e+00 1851878480
11.452125 -5.935754 -2.238439 0.000000000000000e+00 1851878480
11.415788 -6.535828 -2.238438 0.000000000000000e+00 1851878480
11.120875 -4.087172 -2.238439 0.000000000000000e+00 1851878480
11.026567 -4.587888 -2.238439 0.000000000000000e+00 1851878480
10.879251 -5.640619 -2.238438 0.000000000000000e+00 1851878480
10.826602 -6.202272 -2.238439 0.000000000000000e+00 1851878480
10.627131 -3.902645 -2.238439 0.000000000000000e+00 1851878480
10.526117 -4.378078 -2.238439 0.000000000000000e+00 1851878480
10.359295 -5.372750 -2.238438 0.000000000000000e+00 1851878480
10.293450 -5.900441 -2.238438 0.000000000000000e+00 1851878480
10.173995 -3.733299 -2.238438 0.000000000000000e+00 1851878480
10.067685 -4.185883 -2.238439 0.000000000000000e+00 1851878480
9.885151 -5.128491 -2.238439 0.000000000000000e+00 1851878480
9.808619 -5.625967 -2.238439 0.000000000000000e+00 1851878480
9.756625 -3.577318 -2.238438 0.000000000000000e+00 1851878480
9.646154 -4.009162 -2.238438 0.000000000000000e+00 1851878480
9.450991 -4.904821 -2.238439 0.000000000000000e+00 1851878480
9.365776 -5.375266 -2.238439 0.000000000000000e+00 1851878480
9.370879 -3.433158 -2.238438 0.000000000000000e+00 1851878480
9.257174 -3.846085 -2.238438 0.000000000000000e+00 1851878480
9.051879 -4.699212 -2.238439 0.000000000000000e+00 1851878480
8.959618 -5.145334 -2.238439 0.000000000000000e+00 1851878480
9.013250 -3.299504 -2.238438 0.000000000000000e+00 1851878480
8.897068 -3.695114 -2.238438 0.000000000000000e+00 1851878480
8.683695 -4.509531 -2.238439 0.000000000000000e+00 1851878480
8.585718 -4.933660 -2.238439 0.000000000000000e+00 1851878480
8.680715 -3.175237 -2.238438 0.000000000000000e+00 1851878480
8.562682 -3.554927 -2.238438 0.000000000000000e+00 1851878480
8.342912 -4.333972 -2.238439 0.000000000000000e+00 1851878480
8.240317 -4.738128 -2.238438 0.000000000000000e+00 1851878480
8.370685 -3.059377 -2.238438 0.000000000000000e+00 1851878480
8.251313 -3.424390 -2.238438 0.000000000000000e+00 1851878480
8.026539 -4.170989 -2.238438 0.000000000000000e+00 1851878480
7.920237 -4.556931 -2.238439 0.000000000000000e+00 1851878480
8.080902 -2.951083 -2.238438 0.000000000000000e+00 1851878480
7.960613 -3.302520 -2.238438 0.000000000000000e+00 1851878480
7.732001 -4.019248 -2.238438 0.000000000000000e+00 1851878480
7.622734 -4.388513 -2.238438 0.000000000000000e+00 1851878480
7.809420 -2.849625 -2.238438 0.000000000000000e+00 1851878480
7.688570 -3.188470 -2.238439 0.000000000000000e+00 1851878480
7.457074 -3.877617 -2.238438 0.000000000000000e+00 1851878480
7.345472 -4.231555 -2.238438 0.000000000000000e+00 1851878480
7.554514 -2.754370 -2.238438 0.000000000000000e+00 1851878480
7.433394 -3.081491 -2.238439 0.000000000000000e+00 1851878480
7.199823 -3.745091 -2.238438 0.000000000000000e+00 1851878480
7.086409 -4.084905 -2.238438 0.000000000000000e+00 1851878480
7.314680 -2.664745 -2.238439 0.000000000000000e+00 1851878480
7.193531 -2.980934 -2.238438 0.000000000000000e+00 1851878480
6.958561 -3.620799 -2.238438 0.000000000000000e+00 1851878480
6.843773 -3.947547 -2.238438 0.000000000000000e+00 1851878480
7.088574 -2.580256 -2.238438 0.000000000000000e+00 1851878480
6.967604 -2.886218 -2.238438 0.000000000000000e+00 1851878480
3.845588 -2.001674 -1.278724 1.880790849211783e-38 1684957512
3.779442 -2.181411 -1.278724 1.880790849211783e-38 1684957512
6.875041 -2.500460 -2.238438 0.000000000000000e+00 1851878480
3.858509 -1.597716 -1.278724 1.880790849211783e-38 1684957512
3.723596 -1.938827 -1.278724 1.880790849211783e-38 1684957512
3.657053 -2.112130 -1.278724 1.880790849211783e-38 1684957512
6.673020 -2.424968 -2.238438 0.000000000000000e+00 1851878480
3.743380 -1.549450 -1.278724 1.880790849211783e-38 1684957512
3.608488 -1.879531 -1.278724 1.880790849211783e-38 1684957512
3.541701 -2.046831 -1.278724 1.880790849211783e-38 1684957512
6.481579 -2.353432 -2.238438 0.000000000000000e+00 1851878480
3.634361 -1.503746 -1.278724 1.880790849211783e-38 1684957512
3.499683 -1.823478 -1.278724 1.880790849211783e-38 1684957512
3.432777 -1.985174 -1.278724 1.880790849211783e-38 1684957512
6.299883 -2.285539 -2.238438 0.000000000000000e+00 1851878480
3.530963 -1.460400 -1.278724 1.880790849211783e-38 1684957512
3.396659 -1.770405 -1.278724 1.880790849211783e-38 1684957512
3.329742 -1.926850 -1.278724 1.880790849211783e-38 1684957512
6.127178 -2.221004 -2.238439 0.000000000000000e+00 1851878480
3.486783 -1.441563 -1.298853 1.880790849211783e-38 1684957512
3.298954 -1.720071 -1.278724 1.880790849211783e-38 1684957512
3.232117 -1.871588 -1.278724 1.880790849211783e-38 1684957512
5.962795 -2.159582 -2.238438 0.000000000000000e+00 1851878480
3.488146 -1.441563 -1.335713 1.880790849211783e-38 1684957512
3.206153 -1.672264 -1.278724 1.880790849211783e-38 1684957512
3.139475 -1.819147 -1.278724 1.880790849211783e-38 1684957512
5.806121 -2.101041 -2.238439 0.000000000000000e+00 1851878480
3.489520 -1.441563 -1.372824 1.880790849211783e-38 1684957512
3.117882 -1.626791 -1.278724 1.880790849211783e-38 1684957512
3.051426 -1.769308 -1.278724 1.880790849211783e-38 1684957512
5.656607 -2.045174 -2.238438 0.000000000000000e+00 1851878480
3.490906 -1.441563 -1.410194 1.880790849211783e-38 1684957512
3.033805 -1.583479 -1.278724 1.880790849211783e-38 1684957512
2.967628 -1.721874 -1.278724 1.880790849211783e-38 1684957512
5.513750 -1.991797 -2.238438 0.000000000000000e+00 1851878480
3.492302 -1.441563 -1.447830 1.880790849211783e-38 1684957512
2.953618 -1.542170 -1.278724 1.880790849211783e-38 1684957512
2.887763 -1.676669 -1.278724 1.880790849211783e-38 1684957512
5.377093 -1.940738 -2.238438 0.000000000000000e+00 1851878480
3.493701 -1.441563 -1.485740 1.880790849211783e-38 1684957512
2.877041 -1.502722 -1.278724 1.880790849211783e-38 1684957512
2.811550 -1.633531 -1.278724 1.880790849211783e-38 1684957512
5.246230 -1.891842 -2.238438 0.000000000000000e+00 1851878480
3.495117 -1.441563 -1.523934 1.880790849211783e-38 1684957512
2.803831 -1.465008 -1.278724 1.880790849211783e-38 1684957512
2.738737 -1.592317 -1.278724 1.880790849211783e-38 1684957512
5.120778 -1.844970 -2.238438 0.000000000000000e+00 1851878480
3.496541 -1.441563 -1.562421 1.880790849211783e-38 1684957512
2.757966 -1.441563 -1.290048 1.880790849211783e-38 1684957512
2.669088 -1.552893 -1.278724 1.880790849211783e-38 1684957512
5.000391 -1.799992 -2.238438 0.000000000000000e+00 1851878480
3.497977 -1.441563 -1.601209 1.880790849211783e-38 1684957512
2.756967 -1.441563 -1.322052 1.880790849211783e-38 1684957512
2.602389 -1.515142 -1.278724 1.880790849211783e-38 1684957512
4.884750 -1.756790 -2.238438 0.000000000000000e+00 1851878480
3.499422 -1.441564 -1.640308 1.880790849211783e-38 1684957512
2.755957 -1.441563 -1.354278 1.880790849211783e-38 1684957512
2.538449 -1.478951 -1.278724 1.880790849211783e-38 1684957512
4.773566 -1.715247 -2.238438 0.000000000000000e+00 1851878480
3.500879 -1.441563 -1.679729 1.880790849211783e-38 1684957512
2.754941 -1.441563 -1.386735 1.880790849211783e-38 1684957512
2.477087 -1.444220 -1.278724 1.880790849211783e-38 1684957512
4.666571 -1.675275 -2.238438 0.000000000000000e+00 1851878480
3.502351 -1.441564 -1.719481 1.880790849211783e-38 1684957512
2.753914 -1.441563 -1.419428 1.880790849211783e-38 1684957512
2.470769 -1.441563 -1.306552 1.880790849211783e-38 1684957512
4.563519 -1.636775 -2.238438 0.000000000000000e+00 1851878480
3.503831 -1.441563 -1.759572 1.880790849211783e-38 1684957512
2.752882 -1.441563 -1.452367 1.880790849211783e-38 1684957512
2.468996 -1.441563 -1.336946 1.880790849211783e-38 1684957512
4.464178 -1.599664 -2.238438 0.000000000000000e+00 1851878480
3.505327 -1.441563 -1.800016 1.880790849211783e-38 1684957512
2.751844 -1.441563 -1.485560 1.880790849211783e-38 1684957512
2.467207 -1.441563 -1.367563 1.880790849211783e-38 1684957512
4.368338 -1.563859 -2.238438 0.000000000000000e+00 1851878480
3.506838 -1.441563 -1.840824 1.880790849211783e-38 1684957512
2.750795 -1.441563 -1.519015 1.880790849211783e-38 1684957512
2.465408 -1.441563 -1.398411 1.880790849211783e-38 1684957512
4.275806 -1.529294 -2.238438 0.000000000000000e+00 1851878480
3.508360 -1.441564 -1.882002 1.880790849211783e-38 1684957512
2.749736 -1.441563 -1.552739 1.880790849211783e-38 1684957512
2.463589 -1.441563 -1.429493 1.880790849211783e-38 1684957512
4.186402 -1.495893 -2.238438 0.000000000000000e+00 1851878480
3.509896 -1.441563 -1.923566 1.880790849211783e-38 1684957512
2.748669 -1.441563 -1.586742 1.880790849211783e-38 1684957512
2.461759 -1.441563 -1.460821 1.880790849211783e-38 1684957512
4.099954 -1.463601 -2.238438 0.000000000000000e+00 1851878480
3.511443 -1.441563 -1.965524 1.880790849211783e-38 1684957512
2.747592 -1.441563 -1.621031 1.880790849211783e-38 1684957512
2.459910 -1.441563 -1.492400 1.880790849211783e-38 1684957512
4.016310 -1.432355 -2.238438 0.000000000000000e+00 1851878480
3.513007 -1.441563 -2.007891 1.880790849211783e-38 1684957512
2.746507 -1.441563 -1.655618 1.880790849211783e-38 1684957512
2.458048 -1.441563 -1.524241 1.880790849211783e-38 1684957512
4.006147 -1.427337 -2.278726 0.000000000000000e+00 1634890835
3.514589 -1.441563 -2.050680 1.880790849211783e-38 1684957512
2.745410 -1.441563 -1.690509 1.880790849211783e-38 1684957512
2.456169 -1.441563 -1.556350 1.880790849211783e-38 1684957512
3.926263 -1.397496 -2.278726 0.000000000000000e+00 1634890835
3.516183 -1.441564 -2.093903 1.880790849211783e-38 1684957512
2.744310 -1.441564 -1.725720 1.880790849211783e-38 1684957512
2.454273 -1.441563 -1.588738 1.880790849211783e-38 1684957512
3.848817 -1.368568 -2.278726 0.000000000000000e+00 1634890835
3.517795 -1.441563 -2.137571 1.880790849211783e-38 1684957512
2.743193 -1.441564 -1.761252 1.880790849211783e-38 1684957512
2.452359 -1.441563 -1.621411 1.880790849211783e-38 1684957512
3.773685 -1.340506 -2.278727 0.000000000000000e+00 1634890835
3.519419 -1.441563 -2.181697 1.880790849211783e-38 1684957512
2.742063 -1.441563 -1.797119 1.880790849211783e-38 1684957512
2.450427 -1.441563 -1.654379 1.880790849211783e-38 1684957512
3.700757 -1.313266 -2.278727 0.000000000000000e+00 1634890835
3.521063 -1.441563 -2.226299 1.880790849211783e-38 1684957512
2.740925 -1.441563 -1.833332 1.880790849211783e-38 1684957512
2.448473 -1.441563 -1.687651 1.880790849211783e-38 1684957512
3.629923 -1.286810 -2.278727 0.000000000000000e+00 1634890835
3.522732 -1.441563 -2.271394 1.880790849211783e-38 1684957512
2.739777 -1.441563 -1.869904 1.880790849211783e-38 1684957512
2.446506 -1.441564 -1.721241 1.880790849211783e-38 1684957512
3.561090 -1.261100 -2.278727 0.000000000000000e+00 1634890835
3.466211 -1.417759 -2.278727 0.000000000000000e+00 1634890835
2.738616 -1.441563 -1.906841 1.880790849211783e-38 1684957512
2.444516 -1.441563 -1.755152 1.880790849211783e-38 1684957512
3.494161 -1.236102 -2.278727 0.000000000000000e+00 1634890835
3.400213 -1.390092 -2.278728 0.000000000000000e+00 1634890835
2.737445 -1.441563 -1.944159 1.880790849211783e-38 1684957512
2.442506 -1.441563 -1.789398 1.880790849211783e-38 1684957512
3.429049 -1.211785 -2.278726 0.000000000000000e+00 1634890835
3.336017 -1.363183 -2.278727 0.000000000000000e+00 1634890835
2.736260 -1.441563 -1.981866 1.880790849211783e-38 1684957512
2.440475 -1.441563 -1.823988 1.880790849211783e-38 1684957512
3.365675 -1.188117 -2.278727 0.000000000000000e+00 1634890835
3.273543 -1.336996 -2.278727 0.000000000000000e+00 1634890835
2.735061 -1.441563 -2.019975 1.880790849211783e-38 1684957512
2.438422 -1.441563 -1.858935 1.880790849211783e-38 1684957512
3.303956 -1.165064 -2.278727 0.000000000000000e+00 1634890835
3.212713 -1.311497 -2.278727 0.000000000000000e+00 1634890835
2.733849 -1.441563 -2.058501 1.880790849211783e-38 1684957512
2.436348 -1.441563 -1.894249 1.880790849211783e-38 1684957512
3.243823 -1.142608 -2.278728 0.000000000000000e+00 1634890835
3.153457 -1.286658 -2.278727 0.000000000000000e+00 1634890835
2.732624 -1.441563 -2.097454 1.880790849211783e-38 1684957512
2.434251 -1.441563 -1.929940 1.880790849211783e-38 1684957512
3.185205 -1.120717 -2.278727 0.000000000000000e+00 1634890835
3.095703 -1.262449 -2.278727 0.000000000000000e+00 1634890835
2.731386 -1.441564 -2.136850 1.880790849211783e-38 1684957512
2.432127 -1.441564 -1.966020 1.880790849211783e-38 1684957512
3.128042 -1.099369 -2.278727 0.000000000000000e+00 1634890835
3.039389 -1.238845 -2.278727 0.000000000000000e+00 1634890835
2.730129 -1.441563 -2.176697 1.880790849211783e-38 1684957512
2.429983 -1.441564 -2.002504 1.880790849211783e-38 1684957512
3.072266 -1.078540 -2.278727 0.000000000000000e+00 1634890835
2.984452 -1.215816 -2.278728 0.000000000000000e+00 1634890835
2.728863 -1.441563 -2.217019 1.880790849211783e-38 1684957512
0.840392 -0.499001 -0.705944 0.000000000000000e+00 1886740808
3.017822 -1.058209 -2.278727 0.000000000000000e+00 1634890835
2.930832 -1.193341 -2.278727 0.000000000000000e+00 1634890835
2.704159 -1.429187 -2.238438 0.000000000000000e+00 1851878480
0.824540 -0.490031 -0.705944 0.000000000000000e+00 1886740808
2.964657 -1.038357 -2.278728 0.000000000000000e+00 1634890835
2.878478 -1.171398 -2.278727 0.000000000000000e+00 1634890835
0.837100 -0.442630 -0.705944 0.000000000000000e+00 1886740808
0.809070 -0.481279 -0.705944 0.000000000000000e+00 1886740808
2.912717 -1.018962 -2.278728 0.000000000000000e+00 1634890835
2.827340 -1.149960 -2.278728 0.000000000000000e+00 1634890835
0.821749 -0.434723 -0.705944 0.000000000000000e+00 1886740808
0.793967 -0.472734 -0.705944 0.000000000000000e+00 1886740808
2.861953 -1.000006 -2.278727 0.000000000000000e+00 1634890835
2.777364 -1.129013 -2.278727 0.000000000000000e+00 1634890835
0.806752 -0.426998 -0.705944 0.000000000000000e+00 1886740808
0.779214 -0.464387 -0.705943 0.000000000000000e+00 1886740808
2.812318 -0.981473 -2.278727 0.000000000000000e+00 1634890835
2.728505 -1.108534 -2.278728 0.000000000000000e+00 1634890835
0.792094 -0.419449 -0.705944 0.000000000000000e+00 1886740808
0.764797 -0.456231 -0.705944 0.000000000000000e+00 1886740808
2.763767 -0.963343 -2.278727 0.000000000000000e+00 1634890835
0.830479 -0.337216 -0.705944 0.000000000000000e+00 1886740808
0.777762 -0.412066 -0.705944 0.000000000000000e+00 1886740808
0.750703 -0.448257 -0.705944 0.000000000000000e+00 1886740808
0.841490 -0.292946 -0.705944 0.000000000000000e+00 1886740808
0.815995 -0.331144 -0.705943 0.000000000000000e+00 1886740808
0.763744 -0.404846 -0.705944 0.000000000000000e+00 1886740808
0.744292 -0.444866 -0.713007 0.000000000000000e+00 1886740808
0.827083 -0.287567 -0.705943 0.000000000000000e+00 1886740808
0.801818 -0.325202 -0.705944 0.000000000000000e+00 1886740808
0.750026 -0.397780 -0.705943 0.000000000000000e+00 1886740808
0.744292 -0.445309 -0.726299 0.000000000000000e+00 1886740808
0.812975 -0.282300 -0.705943 0.000000000000000e+00 1886740808
0.787937 -0.319383 -0.705944 0.000000000000000e+00 1886740808
0.744292 -0.394946 -0.713318 0.000000000000000e+00 1886740808
0.744292 -0.445760 -0.739797 0.000000000000000e+00 1886740808
0.799155 -0.277140 -0.705944 0.000000000000000e+00 1886740808
0.774339 -0.313685 -0.705943 0.000000000000000e+00 1886740808
0.744292 -0.395157 -0.726286 0.000000000000000e+00 1886740808
0.744292 -0.446218 -0.753510 0.000000000000000e+00 1886740808
0.785612 -0.272084 -0.705943 0.000000000000000e+00 1886740808
0.761016 -0.308100 -0.705944 0.000000000000000e+00 1886740808
0.744292 -0.395371 -0.739454 0.000000000000000e+00 1886740808
0.744292 -0.446683 -0.767444 0.000000000000000e+00 1886740808
0.772336 -0.267127 -0.705943 0.000000000000000e+00 1886740808
0.747956 -0.302626 -0.705943 0.000000000000000e+00 1886740808
0.744292 -0.395588 -0.752831 0.000000000000000e+00 1886740808
0.744292 -0.447156 -0.781607 0.000000000000000e+00 1886740808
0.759317 -0.262267 -0.705944 0.000000000000000e+00 1886740808
0.744292 -0.300955 -0.714722 0.000000000000000e+00 1886740808
0.744292 -0.395809 -0.766423 0.000000000000000e+00 1886740808
0.744292 -0.447637 -0.796006 0.000000000000000e+00 1886740808
0.746546 -0.257499 -0.705944 0.000000000000000e+00 1886740808
0.744292 -0.300764 -0.727146 0.000000000000000e+00 1886740808
0.744292 -0.396033 -0.780238 0.000000000000000e+00 1886740808
2.092193 -1.259678 -2.278728 0.000000000000000e+00 1634890835
0.744292 -0.256361 -0.715828 0.000000000000000e+00 1886740808
0.744292 -0.300569 -0.739764 0.000000000000000e+00 1886740808
0.744292 -0.396261 -0.794285 0.000000000000000e+00 1886740808
2.054435 -1.238319 -2.278728 0.000000000000000e+00 1634890835
0.744292 -0.255995 -0.728030 0.000000000000000e+00 1886740808
0.744292 -0.300372 -0.752583 0.000000000000000e+00 1886740808
2.097579 -1.117405 -2.278728 0.000000000000000e+00 1634890835
2.017382 -1.217361 -2.278728 0.000000000000000e+00 1634890835
0.744292 -0.255623 -0.740421 0.000000000000000e+00 1886740808
0.744292 -0.300171 -0.765608 0.000000000000000e+00 1886740808
2.060545 -1.098331 -2.278728 0.000000000000000e+00 1634890835
0.796275 -0.481053 -0.915942 0.000000000000000e+00 1886740808
0.744292 -0.255245 -0.753011 0.000000000000000e+00 1886740808
0.744292 -0.299968 -0.778848 0.000000000000000e+00 1886740808
2.024178 -1.079599 -2.278728 0.000000000000000e+00 1634890835
0.784636 -0.474576 -0.919123 0.000000000000000e+00 1886740808
0.744292 -0.254862 -0.765803 0.000000000000000e+00 1886740808
0.744292 -0.299761 -0.792308 0.000000000000000e+00 1886740808
1.988454 -1.061199 -2.278728 0.000000000000000e+00 1634890835
0.775673 -0.469713 -0.925309 0.000000000000000e+00 1886740808
0.744292 -0.254472 -0.778808 0.000000000000000e+00 1886740808
2.104272 -0.846891 -2.278728 0.000000000000000e+00 1634890835
0.797388 -0.425818 -0.930214 0.000000000000000e+00 1886740808
0.768823 -0.466130 -0.933989 0.000000000000000e+00 1886740808
0.744292 -0.254076 -0.792029 0.000000000000000e+00 1886740808
2.068531 -0.831912 -2.278728 0.000000000000000e+00 1634890835
0.785518 -0.419747 -0.932844 0.000000000000000e+00 1886740808
0.764549 -0.464111 -0.945878 0.000000000000000e+00 1886740808
0.744292 -0.253673 -0.805476 0.000000000000000e+00 1886740808
2.033385 -0.817181 -2.278728 0.000000000000000e+00 1634890835
0.776431 -0.415161 -0.938648 0.000000000000000e+00 1886740808
1.808582 -1.099259 -2.278728 0.000000000000000e+00 1634890835
2.070472 -0.704526 -2.278727 0.000000000000000e+00 1634890835
1.998815 -0.802692 -2.278728 0.000000000000000e+00 1634890835
0.769417 -0.411684 -0.946931 0.000000000000000e+00 1886740808
1.775831 -1.080735 -2.278728 0.000000000000000e+00 1634890835
2.035872 -0.691612 -2.278727 0.000000000000000e+00 1634890835
1.964800 -0.788436 -2.278728 0.000000000000000e+00 1634890835
0.764805 -0.409492 -0.958243 0.000000000000000e+00 1886740808
0.749057 -0.456456 -0.978943 0.000000000000000e+00 1886740808
2.001819 -0.678902 -2.278728 0.000000000000000e+00 1634890835
1.931324 -0.774405 -2.278728 0.000000000000000e+00 1634890835
0.767167 -0.411039 -0.978584 0.000000000000000e+00 1886740808
1.711908 -1.044582 -2.278728 0.000000000000000e+00 1634890835
1.968294 -0.666389 -2.278728 0.000000000000000e+00 1634890835
0.797682 -0.319597 -0.957506 0.000000000000000e+00 1886740808
1.754623 -0.940768 -2.278728 0.000000000000000e+00 1634890835
1.680701 -1.026932 -2.278728 0.000000000000000e+00 1634890835
1.935281 -0.654068 -2.278728 0.000000000000000e+00 1634890835
0.785811 -0.314588 -0.959661 0.000000000000000e+00 1886740808
0.751063 -0.402982 -0.993126 0.000000000000000e+00 1886740808
1.649976 -1.009556 -2.278727 0.000000000000000e+00 1634890835
1.902763 -0.641933 -2.278727 0.000000000000000e+00 1634890835
0.776731 -0.310699 -0.965105 0.000000000000000e+00 1886740808
1.692478 -0.908759 -2.278728 0.000000000000000e+00 1634890835
1.619717 -0.992443 -2.278727 0.000000000000000e+00 1634890835
0.796758 -0.268312 -0.970530 0.000000000000000e+00 1886740808
0.769655 -0.307611 -0.973021 0.000000000000000e+00 1886740808
1.662098 -0.893114 -2.278728 0.000000000000000e+00 1634890835
1.589907 -0.975584 -2.278728 0.000000000000000e+00 1634890835
0.785168 -0.263918 -0.972831 0.000000000000000e+00 1886740808
0.764878 -0.305442 -0.983924 0.000000000000000e+00 1886740808
1.632162 -0.877695 -2.278728 0.000000000000000e+00 1634890835
1.560534 -0.958973 -2.278728 0.000000000000000e+00 1634890835
0.776222 -0.260415 -0.978302 0.000000000000000e+00 1886740808
0.765617 -0.305471 -1.002180 0.000000000000000e+00 1886740808
1.602654 -0.862498 -2.278728 0.000000000000000e+00 1634890835
1.531582 -0.942600 -2.278728 0.000000000000000e+00 1634890835
0.769282 -0.257587 -0.986297 0.000000000000000e+00 1886740808
1.710672 -0.681929 -2.278727 0.000000000000000e+00 1634890835
1.573561 -0.847514 -2.278728 0.000000000000000e+00 1634890835
1.503038 -0.926458 -2.278728 0.000000000000000e+00 1634890835
0.764661 -0.255532 -0.997356 0.000000000000000e+00 1886740808
1.680925 -0.669462 -2.278727 0.000000000000000e+00 1634890835
1.544870 -0.832737 -2.278728 0.000000000000000e+00 1634890835
1.474890 -0.910541 -2.278728 0.000000000000000e+00 1634890835
0.766226 -0.255535 -1.016772 0.000000000000000e+00 1886740808
0.744044 -0.296055 -1.026576 0.000000000000000e+00 1886740808
1.516568 -0.818162 -2.278728 0.000000000000000e+00 1634890835
1.447125 -0.894839 -2.278728 0.000000000000000e+00 1634890835
1.687759 -0.561696 -2.278728 0.000000000000000e+00 1634890835
1.622624 -0.645028 -2.278728 0.000000000000000e+00 1634890835
1.488642 -0.803779 -2.278727 0.000000000000000e+00 1634890835
1.419729 -0.879347 -2.278728 0.000000000000000e+00 1634890835
0.752071 -0.249762 -1.033208 0.000000000000000e+00 1886740808
1.594047 -0.633052 -2.278727 0.000000000000000e+00 1634890835
1.461082 -0.789587 -2.278728 0.000000000000000e+00 1634890835
1.392692 -0.864060 -2.278728 0.000000000000000e+00 1634890835
1.629983 -0.540137 -2.278728 0.000000000000000e+00 1634890835
1.565838 -0.621229 -2.278728 0.000000000000000e+00 1634890835
1.433878 -0.775575 -2.278728 0.000000000000000e+00 1634890835
1.366005 -0.848968 -2.278728 0.000000000000000e+00 1634890835
1.601642 -0.529563 -2.278728 0.000000000000000e+00 1634890835
1.537982 -0.609556 -2.278728 0.000000000000000e+00 1634890835
1.407015 -0.761741 -2.278728 0.000000000000000e+00 1634890835
1.339654 -0.834067 -2.278728 0.000000000000000e+00 1634890835
1.573653 -0.519120 -2.278727 0.000000000000000e+00 1634890835
1.510471 -0.598026 -2.278728 0.000000000000000e+00 1634890835
1.380485 -0.748077 -2.278728 0.000000000000000e+00 1634890835
1.313628 -0.819352 -2.278728 0.000000000000000e+00 1634890835
1.546005 -0.508803 -2.278728 0.000000000000000e+00 1634890835
1.483295 -0.586636 -2.278728 0.000000000000000e+00 1634890835
1.354278 -0.734580 -2.278728 0.000000000000000e+00 1634890835
1.287921 -0.804815 -2.278728 0.000000000000000e+00 1634890835
1.518686 -0.498610 -2.278728 0.000000000000000e+00 1634890835
1.456444 -0.575383 -2.278727 0.000000000000000e+00 1634890835
1.328382 -0.721244 -2.278728 0.000000000000000e+00 1634890835
1.262520 -0.790452 -2.278728 0.000000000000000e+00 1634890835
1.491689 -0.488535 -2.278728 0.000000000000000e+00 1634890835
1.429907 -0.564262 -2.278728 0.000000000000000e+00 1634890835
1.302791 -0.708064 -2.278728 0.000000000000000e+00 1634890835
1.237417 -0.776259 -2.278728 0.000000000000000e+00 1634890835
1.465001 -0.478579 -2.278728 0.000000000000000e+00 1634890835
1.403674 -0.553269 -2.278728 0.000000000000000e+00 1634890835
1.277493 -0.695036 -2.278728 0.000000000000000e+00 1634890835
1.212601 -0.762228 -2.278727 0.000000000000000e+00 1634890835
1.438616 -0.468734 -2.278728 0.000000000000000e+00 1634890835
1.377738 -0.542399 -2.278728 0.000000000000000e+00 1634890835
1.252481 -0.682154 -2.278728 0.000000000000000e+00 1634890835
1.188066 -0.748354 -2.278727 0.000000000000000e+00 1634890835
1.412523 -0.458999 -2.278728 0.000000000000000e+00 1634890835
1.352088 -0.531649 -2.278728 0.000000000000000e+00 1634890835
1.227744 -0.669414 -2.278728 0.000000000000000e+00 1634890835
1.163802 -0.734634 -2.278728 0.000000000000000e+00 1634890835
1.386714 -0.449371 -2.278728 0.000000000000000e+00 1634890835
1.326717 -0.521017 -2.278727 0.000000000000000e+00 1634890835
1.203275 -0.656814 -2.278728 0.000000000000000e+00 1634890835
1.139799 -0.721065 -2.278728 0.000000000000000e+00 1634890835
1.361181 -0.439844 -2.278727 0.000000000000000e+00 1634890835
1.301618 -0.510498 -2.278728 0.000000000000000e+00 1634890835
1.179067 -0.644345 -2.278728 0.000000000000000e+00 1634890835
1.116053 -0.707638 -2.278728 0.000000000000000e+00 1634890835
1.335915 -0.430417 -2.278728 0.000000000000000e+00 1634890835
1.276779 -0.500089 -2.278728 0.000000000000000e+00 1634890835
1.155110 -0.632009 -2.278728 0.000000000000000e+00 1634890835
1.092553 -0.694350 -2.278728 0.000000000000000e+00 1634890835
1.310910 -0.421088 -2.278728 0.000000000000000e+00 1634890835
1.252196 -0.489786 -2.278727 0.000000000000000e+00 1634890835
1.131398 -0.619797 -2.278728 0.000000000000000e+00 1634890835
1.069293 -0.681201 -2.278728 0.000000000000000e+00 1634890835
1.286156 -0.411854 -2.278728 0.000000000000000e+00 1634890835
1.227860 -0.479588 -2.278728 0.000000000000000e+00 1634890835
1.107924 -0.607708 -2.278728 0.000000000000000e+00 1634890835
1.046266 -0.668181 -2.278728 0.000000000000000e+00 1634890835
1.261648 -0.402710 -2.278728 0.000000000000000e+00 1634890835
1.203764 -0.469490 -2.278728 0.000000000000000e+00 1634890835
1.084680 -0.595737 -2.278728 0.000000000000000e+00 1634890835
1.023465 -0.655289 -2.278728 0.000000000000000e+00 1634890835
1.237377 -0.393657 -2.278728 0.000000000000000e+00 1634890835
1.179900 -0.459490 -2.278728 0.000000000000000e+00 1634890835
1.061659 -0.583882 -2.278728 0.000000000000000e+00 1634890835
1.000881 -0.642522 -2.278728 0.000000000000000e+00 1634890835
1.213337 -0.384688 -2.278728 0.000000000000000e+00 1634890835
1.156263 -0.449584 -2.278728 0.000000000000000e+00 1634890835
1.038855 -0.572138 -2.278728 0.000000000000000e+00 1634890835
0.978510 -0.629874 -2.278728 0.000000000000000e+00 1634890835
1.189521 -0.375803 -2.278728 0.000000000000000e+00 1634890835
1.132844 -0.439770 -2.278727 0.000000000000000e+00 1634890835
1.016261 -0.560501 -2.278728 0.000000000000000e+00 1634890835
0.956344 -0.617343 -2.278728 0.000000000000000e+00 1634890835
1.165921 -0.366999 -2.278728 0.000000000000000e+00 1634890835
1.109637 -0.430046 -2.278728 0.000000000000000e+00 1634890835
0.993869 -0.548971 -2.278727 0.000000000000000e+00 1634890835
0.934377 -0.604923 -2.278728 0.000000000000000e+00 1634890835
1.142533 -0.358274 -2.278728 0.000000000000000e+00 1634890835
1.086638 -0.420407 -2.278728 0.000000000000000e+00 1634890835
0.971676 -0.537541 -2.278728 0.000000000000000e+00 1634890835
0.912604 -0.592614 -2.278728 0.000000000000000e+00 1634890835
1.119349 -0.349626 -2.278728 0.000000000000000e+00 1634890835
1.063839 -0.410853 -2.278728 0.000000000000000e+00 1634890835
0.949675 -0.526211 -2.278728 0.000000000000000e+00 1634890835
0.891018 -0.580411 -2.278728 0.000000000000000e+00 1634890835
1.096364 -0.341051 -2.278728 0.000000000000000e+00 1634890835
1.041234 -0.401380 -2.278728 0.000000000000000e+00 1634890835
0.927858 -0.514976 -2.278728 0.000000000000000e+00 1634890835
0.869613 -0.568309 -2.278728 0.000000000000000e+00 1634890835
1.073572 -0.332549 -2.278728 0.000000000000000e+00 1634890835
1.018817 -0.391985 -2.278727 0.000000000000000e+00 1634890835
0.906222 -0.503834 -2.278728 0.000000000000000e+00 1634890835
0.848384 -0.556308 -2.278728 0.000000000000000e+00 1634890835
1.050966 -0.324117 -2.278728 0.000000000000000e+00 1634890835
0.996583 -0.382668 -2.278727 0.000000000000000e+00 1634890835
0.884761 -0.492782 -2.278728 0.000000000000000e+00 1634890835
0.827327 -0.544404 -2.278728 0.000000000000000e+00 1634890835
1.028543 -0.315752 -2.278728 0.000000000000000e+00 1634890835
0.974527 -0.373425 -2.278727 0.000000000000000e+00 1634890835
0.863469 -0.481816 -2.278728 0.000000000000000e+00 1634890835
0.451011 -0.297861 -1.274414 0.000000000000000e+00 1936876886
1.006295 -0.307453 -2.278728 0.000000000000000e+00 1634890835
0.952642 -0.364254 -2.278728 0.000000000000000e+00 1634890835
0.842340 -0.470937 -2.278728 0.000000000000000e+00 1634890835
0.433313 -0.287261 -1.256717 0.000000000000000e+00 1936876886
0.984217 -0.299218 -2.278728 0.000000000000000e+00 1634890835
0.930923 -0.355153 -2.278728 0.000000000000000e+00 1634890835
0.821371 -0.460138 -2.278728 0.000000000000000e+00 1634890835
0.421222 -0.280351 -1.254504 0.000000000000000e+00 1936876886
0.962305 -0.291044 -2.278728 0.000000000000000e+00 1634890835
0.909366 -0.346119 -2.278728 0.000000000000000e+00 1634890835
0.445942 -0.250344 -1.269345 0.000000000000000e+00 1936876886
0.335127 -0.223971 -1.025471 0.000000000000000e+00 1953264973
0.940553 -0.282931 -2.278728 0.000000000000000e+00 1634890835
0.887966 -0.337151 -2.278728 0.000000000000000e+00 1634890835
0.428906 -0.241307 -1.253205 0.000000000000000e+00 1936876886
0.306472 -0.205704 -0.964045 0.000000000000000e+00 1953264973
0.495094 -0.148090 -1.227676 0.000000000000000e+00 1936876886
0.866717 -0.328247 -2.278728 0.000000000000000e+00 1634890835
0.358554 -0.202189 -1.075961 0.000000000000000e+00 1953264973
0.281222 -0.189608 -0.909919 0.000000000000000e+00 1953264973
0.483540 -0.143780 -1.227676 0.000000000000000e+00 1936876886
0.845616 -0.319403 -2.278728 0.000000000000000e+00 1634890835
0.326694 -0.184663 -1.007395 0.000000000000000e+00 1953264973
0.258801 -0.175315 -0.861856 0.000000000000000e+00 1953264973
0.472064 -0.139500 -1.227676 0.000000000000000e+00 1936876886
0.824655 -0.310620 -2.278728 0.000000000000000e+00 1634890835
0.299054 -0.169464 -0.948143 0.000000000000000e+00 1953264973
0.238755 -0.162537 -0.818884 0.000000000000000e+00 1953264973
