# .PCD v0.7 - Point Cloud Data file format
VERSION 0.7
FIELDS x y z rgb label
SIZE 4 4 4 4 4
TYPE F F F F U
COUNT 1 1 1 1 1
WIDTH 528
HEIGHT 1
VIEWPOINT 0 0 0 1 0 0 0
POINTS 528
DATA ascii
31.050255 -11.535248 -2.254833 0.000000000000000e+00 1851878480
27.246698 -10.114525 -2.226373 0.000000000000000e+00 1851878480
27.977802 -11.694782 -2.229686 0.000000000000000e+00 1851878480
30.582787 -15.791891 -2.264639 0.000000000000000e+00 1851878480
24.478111 -9.079865 -2.222960 0.000000000000000e+00 1851878480
24.481186 -10.229595 -2.180699 0.000000000000000e+00 1851878480
24.140408 -12.469125 -2.029141 0.000000000000000e+00 1851878480
23.704203 -13.482270 -1.912585 0.000000000000000e+00 1851878480
22.193195 -8.226031 -2.217709 0.000000000000000e+00 1851878480
22.331312 -9.327988 -2.198963 0.000000000000000e+00 1851878480
21.945877 -11.339126 -2.064599 0.000000000000000e+00 1851878480
21.662870 -12.328508 -1.972588 0.000000000000000e+00 1851878480
20.376698 -7.546981 -2.222133 0.000000000000000e+00 1851878480
20.419321 -8.526321 -2.202768 0.000000000000000e+00 1851878480
20.439810 -10.564234 -2.128074 0.000000000000000e+00 1851878480
19.949808 -11.360331 -2.023901 0.000000000000000e+00 1851878480
18.897739 -6.993866 -2.233555 0.000000000000000e+00 1851878480
18.885963 -7.883270 -2.215292 0.000000000000000e+00 1851878480
18.983162 -9.814432 -2.167300 0.000000000000000e+00 1851878480
18.770506 -10.695125 -2.099688 0.000000000000000e+00 1851878480
17.616467 -6.514684 -2.243379 0.000000000000000e+00 1851878480
17.550879 -7.323396 -2.224334 0.000000000000000e+00 1851878480
17.673901 -9.140386 -2.195892 0.000000000000000e+00 1851878480
17.688799 -10.084787 -2.163237 0.000000000000000e+00 1851878480
16.430321 -6.071380 -2.243002 0.000000000000000e+00 1851878480
16.460016 -6.865789 -2.241727 0.000000000000000e+00 1851878480
16.482548 -8.526924 -2.214291 0.000000000000000e+00 1851878480
16.551460 -9.441994 -2.197223 0.000000000000000e+00 1851878480
15.344463 -5.665776 -2.235748 0.000000000000000e+00 1851878480
15.356351 -6.403150 -2.236916 0.000000000000000e+00 1851878480
15.381342 -7.959726 -2.222003 0.000000000000000e+00 1851878480
15.423932 -8.804041 -2.209212 0.000000000000000e+00 1851878480
14.479175 -5.342150 -2.242981 0.000000000000000e+00 1851878480
14.416689 -6.009200 -2.236933 0.000000000000000e+00 1851878480
14.427357 -7.468392 -2.230539 0.000000000000000e+00 1851878480
14.475377 -8.267553 -2.225466 0.000000000000000e+00 1851878480
13.691237 -5.047538 -2.247258 0.000000000000000e+00 1851878480
13.574530 -5.656157 -2.235461 0.000000000000000e+00 1851878480
13.589028 -7.036647 -2.239133 0.000000000000000e+00 1851878480
13.668285 -7.811275 -2.245412 0.000000000000000e+00 1851878480
12.924809 -4.761288 -2.241005 0.000000000000000e+00 1851878480
12.845660 -5.350537 -2.237997 0.000000000000000e+00 1851878480
12.863877 -6.663253 -2.250834 0.000000000000000e+00 1851878480
12.799584 -7.319228 -2.237971 0.000000000000000e+00 1851878480
12.251218 -4.509639 -2.237819 0.000000000000000e+00 1851878480
12.244848 -5.098463 -2.250469 0.000000000000000e+00 1851878480
12.124267 -6.282139 -2.245431 0.000000000000000e+00 1851878480
12.060919 -6.901008 -2.236673 0.000000000000000e+00 1851878480
11.673317 -4.293567 -2.240794 0.000000000000000e+00 1851878480
11.578897 -4.819442 -2.239156 0.000000000000000e+00 1851878480
11.452421 -5.935908 -2.238497 0.000000000000000e+00 1851878480
11.404616 -6.529432 -2.236248 0.000000000000000e+00 1851878480
11.124047 -4.088337 -2.239077 0.000000000000000e+00 1851878480
11.039601 -4.593311 -2.241085 0.000000000000000e+00 1851878480
10.958444 -5.681679 -2.254732 0.000000000000000e+00 1851878480
10.819770 -6.198358 -2.237026 0.000000000000000e+00 1851878480
10.608113 -3.895661 -2.234433 0.000000000000000e+00 1851878480
10.549782 -4.387921 -2.243471 0.000000000000000e+00 1851878480
10.389223 -5.388272 -2.244905 0.000000000000000e+00 1851878480
10.298781 -5.903497 -2.239598 0.000000000000000e+00 1851878480
10.200685 -3.743093 -2.244311 0.000000000000000e+00 1851878480
10.093418 -4.196582 -2.244160 0.000000000000000e+00 1851878480
9.921148 -5.147166 -2.246589 0.000000000000000e+00 1851878480
9.839424 -5.643636 -2.245469 0.000000000000000e+00 1851878480
9.757195 -3.577527 -2.238569 0.000000000000000e+00 1851878480
9.605124 -3.992109 -2.228917 0.000000000000000e+00 1851878480
9.496863 -4.928628 -2.249304 0.000000000000000e+00 1851878480
9.397891 -5.393697 -2.246114 0.000000000000000e+00 1851878480
9.352744 -3.426514 -2.234106 0.000000000000000e+00 1851878480
9.318539 -3.871581 -2.253276 0.000000000000000e+00 1851878480
9.112758 -4.730816 -2.253493 0.000000000000000e+00 1851878480
9.020187 -5.180117 -2.253571 0.000000000000000e+00 1851878480
9.068225 -3.319629 -2.252091 0.000000000000000e+00 1851878480
9.002731 -3.738997 -2.265022 0.000000000000000e+00 1851878480
8.740252 -4.538902 -2.253018 0.000000000000000e+00 1851878480
8.583443 -4.932353 -2.237846 0.000000000000000e+00 1851878480
8.725584 -3.191649 -2.250008 0.000000000000000e+00 1851878480
8.540870 -3.545871 -2.232736 0.000000000000000e+00 1851878480
8.355779 -4.340655 -2.241891 0.000000000000000e+00 1851878480
8.273855 -4.757412 -2.247549 0.000000000000000e+00 1851878480
8.350142 -3.051870 -2.232945 0.000000000000000e+00 1851878480
8.285815 -3.438708 -2.247798 0.000000000000000e+00 1851878480
8.113100 -4.215970 -2.262578 0.000000000000000e+00 1851878480
7.925137 -4.559751 -2.239824 0.000000000000000e+00 1851878480
8.093122 -2.955545 -2.241823 0.000000000000000e+00 1851878480
8.019312 -3.326872 -2.254943 0.000000000000000e+00 1851878480
7.766315 -4.037085 -2.248372 0.000000000000000e+00 1851878480
7.633678 -4.394814 -2.241652 0.000000000000000e+00 1851878480
7.808534 -2.849302 -2.238184 0.000000000000000e+00 1851878480
7.691606 -3.189729 -2.239323 0.000000000000000e+00 1851878480
7.493967 -3.896801 -2.249513 0.000000000000000e+00 1851878480
7.357934 -4.238733 -2.242235 0.000000000000000e+00 1851878480
7.583307 -2.764868 -2.246970 0.000000000000000e+00 1851878480
7.413435 -3.073217 -2.232428 0.000000000000000e+00 1851878480
7.223104 -3.757201 -2.245676 0.000000000000000e+00 1851878480
7.108161 -4.097444 -2.245310 0.000000000000000e+00 1851878480
7.346595 -2.676371 -2.248205 0.000000000000000e+00 1851878480
7.163658 -2.968554 -2.229142 0.000000000000000e+00 1851878480
7.033689 -3.659892 -2.262606 0.000000000000000e+00 1851878480
6.850269 -3.951295 -2.240563 0.000000000000000e+00 1851878480
7.145751 -2.601069 -2.256494 0.000000000000000e+00 1851878480
7.019778 -2.907830 -2.255200 0.000000000000000e+00 1851878480
6.744643 -3.510666 -2.242710 0.000000000000000e+00 1851878480
6.620594 -3.821261 -2.239990 0.000000000000000e+00 1851878480
6.883916 -2.503688 -2.241328 0.000000000000000e+00 1851878480
6.782669 -2.808540 -2.247802 0.000000000000000e+00 1851878480
6.563802 -3.417686 -2.254083 0.000000000000000e+00 1851878480
6.416498 -3.705846 -2.243591 0.000000000000000e+00 1851878480
6.691094 -2.431536 -2.244501 0.000000000000000e+00 1851878480
6.511317 -2.695148 -2.224241 0.000000000000000e+00 1851878480
6.380185 -3.323207 -2.260919 0.000000000000000e+00 1851878480
6.221506 -3.595553 -2.246263 0.000000000000000e+00 1851878480
6.503073 -2.361236 -2.245861 0.000000000000000e+00 1851878480
6.416634 -2.654934 -2.257647 0.000000000000000e+00 1851878480
6.205680 -3.233413 -2.267450 0.000000000000000e+00 1851878480
6.044164 -3.495339 -2.251477 0.000000000000000e+00 1851878480
6.313815 -2.290594 -2.243388 0.000000000000000e+00 1851878480
6.173746 -2.553450 -2.235797 0.000000000000000e+00 1851878480
5.991505 -3.122889 -2.255594 0.000000000000000e+00 1851878480
5.852020 -3.386437 -2.247357 0.000000000000000e+00 1851878480
6.135583 -2.224051 -2.241509 0.000000000000000e+00 1851878480
6.044794 -2.499139 -2.251731 0.000000000000000e+00 1851878480
5.760483 -3.003509 -2.232850 0.000000000000000e+00 1851878480
5.681270 -3.289794 -2.247684 0.000000000000000e+00 1851878480
5.915265 -2.142367 -2.220596 0.000000000000000e+00 1851878480
5.869328 -2.425646 -2.247537 0.000000000000000e+00 1851878480
5.665389 -2.954952 -2.259552 0.000000000000000e+00 1851878480
5.533077 -3.206102 -2.253651 0.000000000000000e+00 1851878480
5.835339 -2.111614 -2.249703 0.000000000000000e+00 1851878480
5.738790 -2.370764 -2.257717 0.000000000000000e+00 1851878480
5.497531 -2.868400 -2.254679 0.000000000000000e+00 1851878480
5.397662 -3.129725 -2.261933 0.000000000000000e+00 1851878480
5.661788 -2.047048 -2.240489 0.000000000000000e+00 1851878480
5.566432 -2.298648 -2.248627 0.000000000000000e+00 1851878480
5.344422 -2.789493 -2.252630 0.000000000000000e+00 1851878480
5.238385 -3.039410 -2.257174 0.000000000000000e+00 1851878480
5.508019 -1.989727 -2.236112 0.000000000000000e+00 1851878480
5.421034 -2.237711 -2.247438 0.000000000000000e+00 1851878480
5.231582 -2.731561 -2.264934 0.000000000000000e+00 1851878480
5.054728 -2.934834 -2.238273 0.000000000000000e+00 1851878480
5.393940 -1.946818 -2.245451 0.000000000000000e+00 1851878480
5.278595 -2.178043 -2.244788 0.000000000000000e+00 1851878480
5.090350 -2.658766 -2.262447 0.000000000000000e+00 1851878480
4.918826 -2.857873 -2.237136 0.000000000000000e+00 1851878480
5.283315 -1.905216 -2.254262 0.000000000000000e+00 1851878480
5.172592 -2.133439 -2.255344 0.000000000000000e+00 1851878480
4.983086 -2.603672 -2.272602 0.000000000000000e+00 1851878480
4.818203 -2.801330 -2.249633 0.000000000000000e+00 1851878480
5.158831 -1.858681 -2.255073 0.000000000000000e+00 1851878480
4.997317 -2.060308 -2.233039 0.000000000000000e+00 1851878480
4.802181 -2.510056 -2.246237 0.000000000000000e+00 1851878480
4.669736 -2.716884 -2.237208 0.000000000000000e+00 1851878480
5.016382 -1.805749 -2.245597 0.000000000000000e+00 1851878480
4.896344 -2.017849 -2.241316 0.000000000000000e+00 1851878480
4.716070 -2.465939 -2.261504 0.000000000000000e+00 1851878480
4.566647 -2.658756 -2.243893 0.000000000000000e+00 1851878480
4.879877 -1.755037 -2.236205 0.000000000000000e+00 1851878480
4.839155 -1.993458 -2.268291 0.000000000000000e+00 1851878480
4.560624 -2.385534 -2.241091 0.000000000000000e+00 1851878480
4.486958 -2.614192 -2.260271 0.000000000000000e+00 1851878480
4.809711 -1.728235 -2.255388 0.000000000000000e+00 1851878480
4.731214 -1.948180 -2.270046 0.000000000000000e+00 1851878480
4.491699 -2.350348 -2.260954 0.000000000000000e+00 1851878480
4.370835 -2.548335 -2.256316 0.000000000000000e+00 1851878480
4.659618 -1.672779 -2.235103 0.000000000000000e+00 1851878480
4.619641 -1.901438 -2.268015 0.000000000000000e+00 1851878480
4.354196 -2.279246 -2.244247 0.000000000000000e+00 1851878480
4.240703 -2.474226 -2.242498 0.000000000000000e+00 1851878480
4.558673 -1.635036 -2.236061 0.000000000000000e+00 1851878480
4.469407 -1.838825 -2.244470 0.000000000000000e+00 1851878480
4.273777 -2.237989 -2.254761 0.000000000000000e+00 1851878480
4.162089 -2.430104 -2.253747 0.000000000000000e+00 1851878480
4.498953 -1.612126 -2.255875 0.000000000000000e+00 1851878480
4.382483 -1.802293 -2.250443 0.000000000000000e+00 1851878480
4.211149 -2.206026 -2.273354 0.000000000000000e+00 1851878480
4.051423 -2.367204 -2.245687 0.000000000000000e+00 1851878480
4.413815 -1.580140 -2.261741 0.000000000000000e+00 1851878480
4.313927 -1.773335 -2.264484 0.000000000000000e+00 1851878480
4.095722 -2.146377 -2.261697 0.000000000000000e+00 1851878480
3.992323 -2.334376 -2.264497 0.000000000000000e+00 1851878480
4.259333 -1.523402 -2.229814 0.000000000000000e+00 1851878480
4.207189 -1.728708 -2.256878 0.000000000000000e+00 1851878480
4.013493 -2.104095 -2.266365 0.000000000000000e+00 1851878480
3.850555 -2.253143 -2.234277 0.000000000000000e+00 1851878480
4.209287 -1.504070 -2.250674 0.000000000000000e+00 1851878480
4.101307 -1.684464 -2.247684 0.000000000000000e+00 1851878480
3.932148 -2.062249 -2.269936 0.000000000000000e+00 1851878480
3.787823 -2.218083 -2.247715 0.000000000000000e+00 1851878480
4.100357 -1.463744 -2.238657 0.000000000000000e+00 1851878480
4.032823 -1.655607 -2.257365 0.000000000000000e+00 1851878480
3.802602 -1.995089 -2.243468 0.000000000000000e+00 1851878480
3.682467 -2.158009 -2.234111 0.000000000000000e+00 1851878480
4.108618 -1.465275 -2.289886 0.000000000000000e+00 1634890835
3.892518 -1.597296 -2.224804 0.000000000000000e+00 1851878480
3.734034 -1.959888 -2.250907 0.000000000000000e+00 1851878480
3.625380 -2.126165 -2.248106 0.000000000000000e+00 1851878480
3.992902 -1.422618 -2.271192 0.000000000000000e+00 1634890835
3.839841 -1.574971 -2.240458 0.000000000000000e+00 1851878480
3.679047 -1.931798 -2.265404 0.000000000000000e+00 1851878480
3.568091 -2.094167 -2.260919 0.000000000000000e+00 1851878480
3.958130 -1.408839 -2.297221 0.000000000000000e+00 1634890835
3.767660 -1.544664 -2.243658 0.000000000000000e+00 1851878480
3.581023 -1.881082 -2.251875 0.000000000000000e+00 1851878480
3.487950 -2.048713 -2.257874 0.000000000000000e+00 1851878480
3.843673 -1.366739 -2.275681 0.000000000000000e+00 1634890835
3.682358 -1.509000 -2.237566 0.000000000000000e+00 1851878480
3.568677 -1.875360 -2.291250 0.000000000000000e+00 1851878480
3.370426 -1.981228 -2.228404 0.000000000000000e+00 1851878480
3.767028 -1.338141 -2.274707 0.000000000000000e+00 1634890835
3.653186 -1.496355 -2.264620 0.000000000000000e+00 1851878480
3.430699 -1.803594 -2.248443 0.000000000000000e+00 1851878480
3.324151 -1.955567 -2.244265 0.000000000000000e+00 1851878480
3.666748 -1.301197 -2.257786 0.000000000000000e+00 1634890835
3.576828 -1.464394 -2.261558 0.000000000000000e+00 1851878480
3.357254 -1.765716 -2.245578 0.000000000000000e+00 1851878480
3.263162 -1.921220 -2.249190 0.000000000000000e+00 1851878480
3.672905 -1.302047 -2.305709 0.000000000000000e+00 1634890835
3.557429 -1.455762 -2.293766 0.000000000000000e+00 1634890835
3.331979 -1.753156 -2.274082 0.000000000000000e+00 1851878480
3.205140 -1.888576 -2.254979 0.000000000000000e+00 1851878480
3.583045 -1.268875 -2.292776 0.000000000000000e+00 1634890835
3.529267 -1.443550 -2.320180 0.000000000000000e+00 1634890835
3.237954 -1.704407 -2.254520 0.000000000000000e+00 1851878480
3.131221 -1.846523 -2.248204 0.000000000000000e+00 1851878480
3.492010 -1.235341 -2.277324 0.000000000000000e+00 1634890835
3.413229 -1.395414 -2.287451 0.000000000000000e+00 1634890835
3.174425 -1.671681 -2.254506 0.000000000000000e+00 1851878480
3.085022 -1.820776 -2.260110 0.000000000000000e+00 1851878480
3.441082 -1.216037 -2.286722 0.000000000000000e+00 1634890835
3.367565 -1.376074 -2.300276 0.000000000000000e+00 1634890835
3.145206 -1.657011 -2.278064 0.000000000000000e+00 1851878480
2.955043 -1.745513 -2.208572 0.000000000000000e+00 1851878480
3.357281 -1.185154 -2.273044 0.000000000000000e+00 1634890835
3.307588 -1.350901 -2.302426 0.000000000000000e+00 1634890835
3.048700 -1.606873 -2.251613 0.000000000000000e+00 1851878480
2.937803 -1.736791 -2.239638 0.000000000000000e+00 1851878480
3.322628 -1.171649 -2.291605 0.000000000000000e+00 1634890835
3.229507 -1.318352 -2.290639 0.000000000000000e+00 1634890835
2.966784 -1.564390 -2.233893 0.000000000000000e+00 1851878480
2.902071 -1.717128 -2.256346 0.000000000000000e+00 1851878480
3.261398 -1.148799 -2.291073 0.000000000000000e+00 1634890835
3.192278 -1.302498 -2.306780 0.000000000000000e+00 1634890835
2.906985 -1.533545 -2.231287 0.000000000000000e+00 1851878480
2.856675 -1.691723 -2.264849 0.000000000000000e+00 1851878480
3.177947 -1.118163 -2.273534 0.000000000000000e+00 1634890835
3.123737 -1.273882 -2.299363 0.000000000000000e+00 1634890835
2.901295 -1.531237 -2.269775 0.000000000000000e+00 1851878480
2.779769 -1.647617 -2.247038 0.000000000000000e+00 1851878480
3.156767 -1.109464 -2.299653 0.000000000000000e+00 1634890835
3.086570 -1.258076 -2.314101 0.000000000000000e+00 1634890835
2.815184 -1.486474 -2.244511 0.000000000000000e+00 1851878480
2.722952 -1.615365 -2.243934 0.000000000000000e+00 1851878480
3.051750 -1.071338 -2.263510 0.000000000000000e+00 1634890835
2.984637 -1.215891 -2.278869 0.000000000000000e+00 1634890835
2.789377 -1.473531 -2.266183 0.000000000000000e+00 1851878480
0.857690 -0.509272 -0.720474 0.000000000000000e+00 1886740808
3.040972 -1.066327 -2.296208 0.000000000000000e+00 1634890835
2.997766 -1.220594 -2.330769 0.000000000000000e+00 1634890835
2.807540 -1.483825 -2.324014 0.000000000000000e+00 1634890835
0.858116 -0.509985 -0.734690 0.000000000000000e+00 1886740808
3.008616 -1.053753 -2.312516 0.000000000000000e+00 1634890835
2.920173 -1.188365 -2.311734 0.000000000000000e+00 1634890835
0.888902 -0.470021 -0.749629 0.000000000000000e+00 1886740808
0.838691 -0.498899 -0.731788 0.000000000000000e+00 1886740808
2.929524 -1.024841 -2.291877 0.000000000000000e+00 1634890835
2.842010 -1.155927 -2.290552 0.000000000000000e+00 1634890835
0.824090 -0.435961 -0.707955 0.000000000000000e+00 1886740808
0.795585 -0.473697 -0.707383 0.000000000000000e+00 1886740808
2.867596 -1.001978 -2.283221 0.000000000000000e+00 1634890835
2.740453 -1.114008 -2.248444 0.000000000000000e+00 1634890835
0.848326 -0.449003 -0.742322 0.000000000000000e+00 1886740808
0.788774 -0.470084 -0.714605 0.000000000000000e+00 1886740808
2.816192 -0.982825 -2.281867 0.000000000000000e+00 1634890835
2.764746 -1.123258 -2.308995 0.000000000000000e+00 1634890835
0.842409 -0.446092 -0.750786 0.000000000000000e+00 1886740808
0.766251 -0.457098 -0.707286 0.000000000000000e+00 1886740808
2.770810 -0.965798 -2.284534 0.000000000000000e+00 1634890835
0.841874 -0.341842 -0.715630 0.000000000000000e+00 1886740808
0.785659 -0.416250 -0.713111 0.000000000000000e+00 1886740808
0.747763 -0.446502 -0.703179 0.000000000000000e+00 1886740808
0.841933 -0.293100 -0.706315 0.000000000000000e+00 1886740808
0.789182 -0.320263 -0.682747 0.000000000000000e+00 1886740808
0.774483 -0.410538 -0.715870 0.000000000000000e+00 1886740808
0.749074 -0.447724 -0.717588 0.000000000000000e+00 1886740808
0.828480 -0.288053 -0.707135 0.000000000000000e+00 1886740808
0.816970 -0.331347 -0.719284 0.000000000000000e+00 1886740808
0.776053 -0.411583 -0.730441 0.000000000000000e+00 1886740808
0.742168 -0.444039 -0.724226 0.000000000000000e+00 1886740808
0.822011 -0.285438 -0.713790 0.000000000000000e+00 1886740808
0.779960 -0.316150 -0.698796 0.000000000000000e+00 1886740808
0.806192 -0.427792 -0.772642 0.000000000000000e+00 1886740808
0.735093 -0.440251 -0.730654 0.000000000000000e+00 1886740808
0.792938 -0.274984 -0.700452 0.000000000000000e+00 1886740808
0.777850 -0.315107 -0.709144 0.000000000000000e+00 1886740808
0.771923 -0.409826 -0.753248 0.000000000000000e+00 1886740808
0.776136 -0.465309 -0.785748 0.000000000000000e+00 1886740808
0.800951 -0.277396 -0.719727 0.000000000000000e+00 1886740808
0.807473 -0.326908 -0.749038 0.000000000000000e+00 1886740808
0.790214 -0.419765 -0.785077 0.000000000000000e+00 1886740808
0.764739 -0.458955 -0.788527 0.000000000000000e+00 1886740808
0.832896 -0.288073 -0.761298 0.000000000000000e+00 1886740808
0.793118 -0.320899 -0.748569 0.000000000000000e+00 1886740808
0.761521 -0.404745 -0.770257 0.000000000000000e+00 1886740808
0.787263 -0.472972 -0.826732 0.000000000000000e+00 1886740808
0.773563 -0.267188 -0.719188 0.000000000000000e+00 1886740808
0.790873 -0.319790 -0.759452 0.000000000000000e+00 1886740808
0.789630 -0.419919 -0.813109 0.000000000000000e+00 1886740808
0.742116 -0.446329 -0.793679 0.000000000000000e+00 1886740808
0.756486 -0.260927 -0.715342 0.000000000000000e+00 1886740808
0.747072 -0.301887 -0.729863 0.000000000000000e+00 1886740808
0.764580 -0.406828 -0.801506 0.000000000000000e+00 1886740808
2.122745 -1.278074 -2.312004 0.000000000000000e+00 1634890835
0.745196 -0.256672 -0.716698 0.000000000000000e+00 1886740808
0.769103 -0.310589 -0.764424 0.000000000000000e+00 1886740808
0.773065 -0.411580 -0.824990 0.000000000000000e+00 1886740808
2.054647 -1.238448 -2.278964 0.000000000000000e+00 1634890835
0.740900 -0.254828 -0.724712 0.000000000000000e+00 1886740808
0.758992 -0.306304 -0.767447 0.000000000000000e+00 1886740808
2.135565 -1.137640 -2.319994 0.000000000000000e+00 1634890835
2.054686 -1.239871 -2.320863 0.000000000000000e+00 1634890835
0.744756 -0.255782 -0.740883 0.000000000000000e+00 1886740808
0.793558 -0.320040 -0.816285 0.000000000000000e+00 1886740808
2.113106 -1.126348 -2.336854 0.000000000000000e+00 1634890835
0.808259 -0.488293 -0.929727 0.000000000000000e+00 1886740808
0.759150 -0.260341 -0.768043 0.000000000000000e+00 1886740808
0.744911 -0.300217 -0.779495 0.000000000000000e+00 1886740808
2.039543 -1.087794 -2.296025 0.000000000000000e+00 1634890835
0.793006 -0.479639 -0.928928 0.000000000000000e+00 1886740808
0.746362 -0.255570 -0.767933 0.000000000000000e+00 1886740808
0.711781 -0.286667 -0.757700 0.000000000000000e+00 1886740808
1.999860 -1.067286 -2.291799 0.000000000000000e+00 1634890835
0.790664 -0.478791 -0.943191 0.000000000000000e+00 1886740808
0.786197 -0.268799 -0.822655 0.000000000000000e+00 1886740808
2.117558 -0.852238 -2.293115 0.000000000000000e+00 1634890835
0.871306 -0.465291 -1.016444 0.000000000000000e+00 1886740808
0.819367 -0.496774 -0.995392 0.000000000000000e+00 1886740808
0.753856 -0.257340 -0.802206 0.000000000000000e+00 1886740808
2.082388 -0.837485 -2.293993 0.000000000000000e+00 1634890835
0.793255 -0.423881 -0.942032 0.000000000000000e+00 1886740808
0.785394 -0.476764 -0.971667 0.000000000000000e+00 1886740808
0.752301 -0.256402 -0.814143 0.000000000000000e+00 1886740808
2.067993 -0.831090 -2.317512 0.000000000000000e+00 1634890835
0.764423 -0.408740 -0.924131 0.000000000000000e+00 1886740808
1.855207 -1.127598 -2.337473 0.000000000000000e+00 1634890835
2.070660 -0.704590 -2.278933 0.000000000000000e+00 1634890835
2.042495 -0.820233 -2.328525 0.000000000000000e+00 1634890835
0.778514 -0.416551 -0.958127 0.000000000000000e+00 1886740808
1.797026 -1.093634 -2.305925 0.000000000000000e+00 1634890835
2.056098 -0.698483 -2.301366 0.000000000000000e+00 1634890835
1.992792 -0.799668 -2.311191 0.000000000000000e+00 1634890835
0.780020 -0.417638 -0.977307 0.000000000000000e+00 1886740808
0.755530 -0.460400 -0.987402 0.000000000000000e+00 1886740808
1.984531 -0.673039 -2.259048 0.000000000000000e+00 1634890835
1.921962 -0.770651 -2.267681 0.000000000000000e+00 1634890835
0.781947 -0.418958 -0.997437 0.000000000000000e+00 1886740808
1.729229 -1.055151 -2.301784 0.000000000000000e+00 1634890835
1.989503 -0.673570 -2.303282 0.000000000000000e+00 1634890835
0.806521 -0.323138 -0.968116 0.000000000000000e+00 1886740808
1.766631 -0.947206 -2.294322 0.000000000000000e+00 1634890835
1.708995 -1.044221 -2.317090 0.000000000000000e+00 1634890835
1.915335 -0.647327 -2.255242 0.000000000000000e+00 1634890835
0.794987 -0.318261 -0.970867 0.000000000000000e+00 1886740808
0.775566 -0.416129 -1.025527 0.000000000000000e+00 1886740808
1.686908 -1.032153 -2.329732 0.000000000000000e+00 1634890835
1.942922 -0.655481 -2.326822 0.000000000000000e+00 1634890835
0.814725 -0.325897 -1.012313 0.000000000000000e+00 1886740808
1.720463 -0.923785 -2.316405 0.000000000000000e+00 1634890835
1.649358 -1.010605 -2.320429 0.000000000000000e+00 1634890835
0.800709 -0.269643 -0.975343 0.000000000000000e+00 1886740808
0.784305 -0.313467 -0.991542 0.000000000000000e+00 1886740808
1.697692 -0.912240 -2.327527 0.000000000000000e+00 1634890835
1.579402 -0.969138 -2.263671 0.000000000000000e+00 1634890835
0.764025 -0.256811 -0.946635 0.000000000000000e+00 1886740808
0.804813 -0.321389 -1.035294 0.000000000000000e+00 1886740808
1.674147 -0.900273 -2.337346 0.000000000000000e+00 1634890835
1.566506 -0.962644 -2.287449 0.000000000000000e+00 1634890835
0.790072 -0.265062 -0.995759 0.000000000000000e+00 1886740808
0.803142 -0.320443 -1.051300 0.000000000000000e+00 1886740808
1.630397 -0.877429 -2.318175 0.000000000000000e+00 1634890835
1.516480 -0.933306 -2.256259 0.000000000000000e+00 1634890835
0.760476 -0.254638 -0.975007 0.000000000000000e+00 1886740808
1.729689 -0.689509 -2.304058 0.000000000000000e+00 1634890835
1.576609 -0.849155 -2.283142 0.000000000000000e+00 1634890835
1.519901 -0.936852 -2.304293 0.000000000000000e+00 1634890835
0.758038 -0.253319 -0.988717 0.000000000000000e+00 1886740808
1.670418 -0.665277 -2.264483 0.000000000000000e+00 1634890835
1.579371 -0.851335 -2.329618 0.000000000000000e+00 1634890835
1.512653 -0.933854 -2.337073 0.000000000000000e+00 1634890835
0.792020 -0.264137 -1.051000 0.000000000000000e+00 1886740808
0.767094 -0.305227 -1.058380 0.000000000000000e+00 1886740808
1.550477 -0.836455 -2.329677 0.000000000000000e+00 1634890835
1.447724 -0.895209 -2.279671 0.000000000000000e+00 1634890835
1.701345 -0.566217 -2.297071 0.000000000000000e+00 1634890835
1.658780 -0.659401 -2.329502 0.000000000000000e+00 1634890835
1.511281 -0.816002 -2.313381 0.000000000000000e+00 1634890835
1.423733 -0.881828 -2.285155 0.000000000000000e+00 1634890835
0.742106 -0.246452 -1.019517 0.000000000000000e+00 1886740808
1.605047 -0.637421 -2.294452 0.000000000000000e+00 1634890835
1.510352 -0.816213 -2.355568 0.000000000000000e+00 1634890835
1.406195 -0.872438 -2.300822 0.000000000000000e+00 1634890835
1.630425 -0.540284 -2.279346 0.000000000000000e+00 1634890835
1.595709 -0.633080 -2.322199 0.000000000000000e+00 1634890835
1.447547 -0.782969 -2.300450 0.000000000000000e+00 1634890835
1.362157 -0.846577 -2.272309 0.000000000000000e+00 1634890835
1.630373 -0.539063 -2.319604 0.000000000000000e+00 1634890835
1.586425 -0.628755 -2.350502 0.000000000000000e+00 1634890835
1.430234 -0.774311 -2.316332 0.000000000000000e+00 1634890835
1.347718 -0.839088 -2.292444 0.000000000000000e+00 1634890835
1.574402 -0.519367 -2.279812 0.000000000000000e+00 1634890835
1.556185 -0.616125 -2.347692 0.000000000000000e+00 1634890835
1.399865 -0.758579 -2.310718 0.000000000000000e+00 1634890835
1.333453 -0.831717 -2.313116 0.000000000000000e+00 1634890835
1.555186 -0.511824 -2.292259 0.000000000000000e+00 1634890835
1.501937 -0.594009 -2.307366 0.000000000000000e+00 1634890835
1.394443 -0.756367 -2.346310 0.000000000000000e+00 1634890835
1.282658 -0.801526 -2.269415 0.000000000000000e+00 1634890835
1.539667 -0.505498 -2.310209 0.000000000000000e+00 1634890835
1.491598 -0.589271 -2.333730 0.000000000000000e+00 1634890835
1.341583 -0.728411 -2.301372 0.000000000000000e+00 1634890835
1.271399 -0.796011 -2.294753 0.000000000000000e+00 1634890835
1.512532 -0.495361 -2.310568 0.000000000000000e+00 1634890835
1.432239 -0.565182 -2.282444 0.000000000000000e+00 1634890835
1.311631 -0.712869 -2.294189 0.000000000000000e+00 1634890835
1.228278 -0.770525 -2.261898 0.000000000000000e+00 1634890835
1.469000 -0.479885 -2.284947 0.000000000000000e+00 1634890835
1.429163 -0.563316 -2.320107 0.000000000000000e+00 1634890835
1.305491 -0.710268 -2.328668 0.000000000000000e+00 1634890835
1.222711 -0.768583 -2.297727 0.000000000000000e+00 1634890835
1.460979 -0.476020 -2.314150 0.000000000000000e+00 1634890835
1.390023 -0.547236 -2.299048 0.000000000000000e+00 1634890835
1.280736 -0.697543 -2.330135 0.000000000000000e+00 1634890835
1.205617 -0.759409 -2.312391 0.000000000000000e+00 1634890835
1.425198 -0.463117 -2.299176 0.000000000000000e+00 1634890835
1.317768 -0.518155 -2.220888 0.000000000000000e+00 1634890835
1.238663 -0.675367 -2.298995 0.000000000000000e+00 1634890835
1.155897 -0.729644 -2.263251 0.000000000000000e+00 1634890835
1.417585 -0.459374 -2.329457 0.000000000000000e+00 1634890835
1.340664 -0.526494 -2.302682 0.000000000000000e+00 1634890835
1.206387 -0.658512 -2.284621 0.000000000000000e+00 1634890835
1.155234 -0.730829 -2.309585 0.000000000000000e+00 1634890835
1.363333 -0.440540 -2.282330 0.000000000000000e+00 1634890835
1.320852 -0.518042 -2.312401 0.000000000000000e+00 1634890835
1.196177 -0.653696 -2.311795 0.000000000000000e+00 1634890835
1.107645 -0.702307 -2.261561 0.000000000000000e+00 1634890835
1.326974 -0.427536 -2.263476 0.000000000000000e+00 1634890835
1.287323 -0.504219 -2.297546 0.000000000000000e+00 1634890835
1.174274 -0.642495 -2.316534 0.000000000000000e+00 1634890835
1.097038 -0.697201 -2.288082 0.000000000000000e+00 1634890835
1.310556 -0.420975 -2.278114 0.000000000000000e+00 1634890835
1.262021 -0.493629 -2.296608 0.000000000000000e+00 1634890835
1.163555 -0.637413 -2.343495 0.000000000000000e+00 1634890835
1.084688 -0.691008 -2.311535 0.000000000000000e+00 1634890835
1.306404 -0.418338 -2.314601 0.000000000000000e+00 1634890835
1.237771 -0.483459 -2.297120 0.000000000000000e+00 1634890835
1.137358 -0.623852 -2.339266 0.000000000000000e+00 1634890835
1.042504 -0.665779 -2.270533 0.000000000000000e+00 1634890835
1.263780 -0.403391 -2.282579 0.000000000000000e+00 1634890835
1.227854 -0.478886 -2.324331 0.000000000000000e+00 1634890835
1.097305 -0.602671 -2.305251 0.000000000000000e+00 1634890835
1.015633 -0.650275 -2.261291 0.000000000000000e+00 1634890835
1.245364 -0.396198 -2.293437 0.000000000000000e+00 1634890835
1.210809 -0.471527 -2.338421 0.000000000000000e+00 1634890835
1.076552 -0.592073 -2.310694 0.000000000000000e+00 1634890835
1.009034 -0.647756 -2.297290 0.000000000000000e+00 1634890835
1.194856 -0.378828 -2.244019 0.000000000000000e+00 1634890835
1.186741 -0.461435 -2.338793 0.000000000000000e+00 1634890835
1.053406 -0.580152 -2.310645 0.000000000000000e+00 1634890835
0.975262 -0.627783 -2.271162 0.000000000000000e+00 1634890835
1.185496 -0.374531 -2.271017 0.000000000000000e+00 1634890835
1.139395 -0.442314 -2.291905 0.000000000000000e+00 1634890835
1.015871 -0.560286 -2.277853 0.000000000000000e+00 1634890835
0.936045 -0.604240 -2.230360 0.000000000000000e+00 1634890835
1.191988 -0.375204 -2.329675 0.000000000000000e+00 1634890835
1.132405 -0.438870 -2.325482 0.000000000000000e+00 1634890835
1.010648 -0.558239 -2.317198 0.000000000000000e+00 1634890835
0.946533 -0.612793 -2.308373 0.000000000000000e+00 1634890835
1.140821 -0.357737 -2.275312 0.000000000000000e+00 1634890835
1.112972 -0.430595 -2.333951 0.000000000000000e+00 1634890835
1.003732 -0.555275 -2.353904 0.000000000000000e+00 1634890835
0.917675 -0.595906 -2.291388 0.000000000000000e+00 1634890835
1.108293 -0.346172 -2.256219 0.000000000000000e+00 1634890835
1.063345 -0.410662 -2.277670 0.000000000000000e+00 1634890835
0.985330 -0.545967 -2.364280 0.000000000000000e+00 1634890835
0.906211 -0.590307 -2.317582 0.000000000000000e+00 1634890835
1.092157 -0.339742 -2.269984 0.000000000000000e+00 1634890835
1.050984 -0.405138 -2.300066 0.000000000000000e+00 1634890835
0.949845 -0.527179 -2.332725 0.000000000000000e+00 1634890835
0.877671 -0.573576 -2.299843 0.000000000000000e+00 1634890835
1.073521 -0.332534 -2.278621 0.000000000000000e+00 1634890835
1.017064 -0.391311 -2.274806 0.000000000000000e+00 1634890835
0.911749 -0.506907 -2.292626 0.000000000000000e+00 1634890835
0.848756 -0.556552 -2.279727 0.000000000000000e+00 1634890835
1.070333 -0.330090 -2.320719 0.000000000000000e+00 1634890835
1.032459 -0.396444 -2.360760 0.000000000000000e+00 1634890835
0.879924 -0.490088 -2.266268 0.000000000000000e+00 1634890835
0.821996 -0.540896 -2.264045 0.000000000000000e+00 1634890835
1.064690 -0.326849 -2.358811 0.000000000000000e+00 1634890835
0.983301 -0.376787 -2.299243 0.000000000000000e+00 1634890835
0.878017 -0.489934 -2.317120 0.000000000000000e+00 1634890835
0.461933 -0.305074 -1.305276 0.000000000000000e+00 1936876886
0.988246 -0.301939 -2.237857 0.000000000000000e+00 1634890835
0.962464 -0.368010 -2.302224 0.000000000000000e+00 1634890835
0.875527 -0.489490 -2.368505 0.000000000000000e+00 1634890835
0.462810 -0.306815 -1.342264 0.000000000000000e+00 1936876886
0.992363 -0.301695 -2.297588 0.000000000000000e+00 1634890835
0.943702 -0.360028 -2.310008 0.000000000000000e+00 1634890835
0.829973 -0.464957 -2.302593 0.000000000000000e+00 1634890835
0.437976 -0.291501 -1.304400 0.000000000000000e+00 1936876886
0.974380 -0.294696 -2.307319 0.000000000000000e+00 1634890835
0.953488 -0.362912 -2.389291 0.000000000000000e+00 1634890835
0.479391 -0.269121 -1.364554 0.000000000000000e+00 1936876886
0.335788 -0.224412 -1.027493 0.000000000000000e+00 1953264973
0.961352 -0.289187 -2.329117 0.000000000000000e+00 1634890835
0.899972 -0.341710 -2.309539 0.000000000000000e+00 1634890835
0.431654 -0.242854 -1.261235 0.000000000000000e+00 1936876886
0.311970 -0.209394 -0.981340 0.000000000000000e+00 1953264973
0.516722 -0.154560 -1.281308 0.000000000000000e+00 1936876886
0.865672 -0.327851 -2.275979 0.000000000000000e+00 1634890835
0.378168 -0.213249 -1.134818 0.000000000000000e+00 1953264973
0.286441 -0.193126 -0.926802 0.000000000000000e+00 1953264973
0.476049 -0.141553 -1.208658 0.000000000000000e+00 1936876886
0.864312 -0.326465 -2.329109 0.000000000000000e+00 1634890835
0.330866 -0.187022 -1.020259 0.000000000000000e+00 1953264973
0.257930 -0.174725 -0.858954 0.000000000000000e+00 1953264973
0.481825 -0.142385 -1.253061 0.000000000000000e+00 1936876886
0.818287 -0.308221 -2.261130 0.000000000000000e+00 1634890835
0.299259 -0.169580 -0.948794 0.000000000000000e+00 1953264973
0.251111 -0.170948 -0.861260 0.000000000000000e+00 1953264973
