# .PCD v0.7 - Point Cloud Data file format
VERSION 0.7
FIELDS x y z rgb label
SIZE 4 4 4 4 4
TYPE F F F F U
COUNT 1 1 1 1 1
WIDTH 533
HEIGHT 1
VIEWPOINT 0 0 0 1 0 0 0
POINTS 533
DATA ascii
35.522392 -13.206672 -2.256888 0.000000000000000e+00 1851878480
29.859015 -11.092698 -2.168327 0.000000000000000e+00 1851878480
29.145096 -12.187001 -2.049600 0.000000000000000e+00 1851878480
28.008343 -14.458057 -1.794117 0.000000000000000e+00 1851878480
26.701616 -15.169186 -1.601762 0.000000000000000e+00 1851878480
26.744528 -9.928109 -2.185339 0.000000000000000e+00 1851878480
26.289249 -10.988964 -2.095118 0.000000000000000e+00 1851878480
25.098347 -12.959915 -1.858519 0.000000000000000e+00 1851878480
24.307680 -13.817329 -1.709532 0.000000000000000e+00 1851878480
24.149103 -8.957822 -2.193081 0.000000000000000e+00 1851878480
24.281103 -10.145990 -2.162875 0.000000000000000e+00 1851878480
23.230339 -11.999052 -1.952645 0.000000000000000e+00 1851878480
22.696966 -12.909383 -1.831315 0.000000000000000e+00 1851878480
22.118034 -8.198173 -2.210199 0.000000000000000e+00 1851878480
22.150827 -9.252597 -2.181191 0.000000000000000e+00 1851878480
21.812696 -11.270311 -2.052070 0.000000000000000e+00 1851878480
21.343998 -12.147037 -1.943552 0.000000000000000e+00 1851878480
20.387285 -7.550902 -2.223287 0.000000000000000e+00 1851878480
20.543062 -8.577991 -2.216118 0.000000000000000e+00 1851878480
20.536785 -10.614355 -2.138170 0.000000000000000e+00 1851878480
20.288307 -11.553087 -2.058242 0.000000000000000e+00 1851878480
18.962231 -7.017734 -2.241178 0.000000000000000e+00 1851878480
18.970419 -7.918523 -2.225198 0.000000000000000e+00 1851878480
19.343214 -10.000583 -2.208409 0.000000000000000e+00 1851878480
19.108946 -10.887962 -2.137547 0.000000000000000e+00 1851878480
17.568991 -6.497128 -2.237333 0.000000000000000e+00 1851878480
17.633936 -7.358053 -2.234860 0.000000000000000e+00 1851878480
17.920599 -9.267970 -2.226543 0.000000000000000e+00 1851878480
18.040487 -10.285293 -2.206246 0.000000000000000e+00 1851878480
16.422686 -6.068559 -2.241959 0.000000000000000e+00 1851878480
16.484381 -6.875952 -2.245046 0.000000000000000e+00 1851878480
16.608757 -8.592216 -2.231246 0.000000000000000e+00 1851878480
16.730207 -9.543962 -2.220951 0.000000000000000e+00 1851878480
15.379513 -5.678717 -2.240855 0.000000000000000e+00 1851878480
15.430631 -6.434122 -2.247737 0.000000000000000e+00 1851878480
15.471818 -8.006547 -2.235073 0.000000000000000e+00 1851878480
15.516503 -8.856880 -2.222471 0.000000000000000e+00 1851878480
14.458270 -5.334437 -2.239743 0.000000000000000e+00 1851878480
14.471771 -6.032159 -2.245480 0.000000000000000e+00 1851878480
14.529809 -7.521428 -2.246378 0.000000000000000e+00 1851878480
14.489895 -8.275845 -2.227698 0.000000000000000e+00 1851878480
13.671682 -5.040329 -2.244048 0.000000000000000e+00 1851878480
13.586565 -5.661171 -2.237443 0.000000000000000e+00 1851878480
13.639941 -7.063010 -2.247522 0.000000000000000e+00 1851878480
13.586017 -7.764259 -2.231897 0.000000000000000e+00 1851878480
12.884233 -4.746341 -2.233970 0.000000000000000e+00 1851878480
12.819273 -5.339546 -2.233400 0.000000000000000e+00 1851878480
12.816380 -6.638649 -2.242523 0.000000000000000e+00 1851878480
12.790962 -7.314297 -2.236464 0.000000000000000e+00 1851878480
12.263561 -4.514182 -2.240074 0.000000000000000e+00 1851878480
12.175051 -5.069401 -2.237640 0.000000000000000e+00 1851878480
12.122322 -6.281132 -2.245071 0.000000000000000e+00 1851878480
12.106161 -6.926895 -2.245063 0.000000000000000e+00 1851878480
11.693662 -4.301050 -2.244699 0.000000000000000e+00 1851878480
11.590199 -4.824146 -2.241341 0.000000000000000e+00 1851878480
11.473229 -5.946693 -2.242564 0.000000000000000e+00 1851878480
11.462812 -6.562751 -2.247659 0.000000000000000e+00 1851878480
11.169452 -4.105025 -2.248217 0.000000000000000e+00 1851878480
11.040752 -4.593790 -2.241319 0.000000000000000e+00 1851878480
10.919672 -5.661577 -2.246755 0.000000000000000e+00 1851878480
10.865643 -6.224638 -2.246511 0.000000000000000e+00 1851878480
10.663413 -3.915969 -2.246081 0.000000000000000e+00 1851878480
10.547272 -4.386877 -2.242937 0.000000000000000e+00 1851878480
10.375503 -5.381155 -2.241940 0.000000000000000e+00 1851878480
10.308488 -5.909060 -2.241708 0.000000000000000e+00 1851878480
10.184000 -3.736970 -2.240640 0.000000000000000e+00 1851878480
10.141377 -4.216522 -2.254823 0.000000000000000e+00 1851878480
9.965382 -5.170115 -2.256606 0.000000000000000e+00 1851878480
9.806396 -5.624692 -2.237931 0.000000000000000e+00 1851878480
9.774179 -3.583754 -2.242465 0.000000000000000e+00 1851878480
9.647676 -4.009795 -2.238792 0.000000000000000e+00 1851878480
9.524986 -4.943223 -2.255965 0.000000000000000e+00 1851878480
9.402271 -5.396211 -2.247161 0.000000000000000e+00 1851878480
9.392530 -3.441090 -2.243610 0.000000000000000e+00 1851878480
9.255551 -3.845412 -2.238046 0.000000000000000e+00 1851878480
9.069491 -4.708355 -2.242794 0.000000000000000e+00 1851878480
8.967490 -5.149854 -2.240406 0.000000000000000e+00 1851878480
8.997506 -3.293741 -2.234528 0.000000000000000e+00 1851878480
8.946428 -3.715614 -2.250857 0.000000000000000e+00 1851878480
8.703041 -4.519578 -2.243426 0.000000000000000e+00 1851878480
8.587137 -4.934476 -2.238809 0.000000000000000e+00 1851878480
8.741414 -3.197439 -2.254090 0.000000000000000e+00 1851878480
8.613498 -3.576025 -2.251723 0.000000000000000e+00 1851878480
8.357676 -4.341640 -2.242400 0.000000000000000e+00 1851878480
8.266346 -4.753094 -2.245509 0.000000000000000e+00 1851878480
8.432929 -3.082127 -2.255083 0.000000000000000e+00 1851878480
8.263064 -3.429266 -2.241626 0.000000000000000e+00 1851878480
8.105359 -4.211947 -2.260419 0.000000000000000e+00 1851878480
7.915098 -4.553974 -2.236986 0.000000000000000e+00 1851878480
8.066793 -2.945930 -2.234530 0.000000000000000e+00 1851878480
7.955696 -3.300480 -2.237055 0.000000000000000e+00 1851878480
7.750023 -4.028616 -2.243656 0.000000000000000e+00 1851878480
7.641815 -4.399498 -2.244042 0.000000000000000e+00 1851878480
7.855559 -2.866461 -2.251663 0.000000000000000e+00 1851878480
7.708292 -3.196649 -2.244180 0.000000000000000e+00 1851878480
7.486877 -3.893115 -2.247385 0.000000000000000e+00 1851878480
7.344277 -4.230866 -2.238074 0.000000000000000e+00 1851878480
7.557977 -2.755632 -2.239465 0.000000000000000e+00 1851878480
7.468143 -3.095895 -2.248902 0.000000000000000e+00 1851878480
7.202590 -3.746530 -2.239298 0.000000000000000e+00 1851878480
7.141507 -4.116666 -2.255843 0.000000000000000e+00 1851878480
7.339256 -2.673698 -2.245959 0.000000000000000e+00 1851878480
7.211699 -2.988462 -2.244092 0.000000000000000e+00 1851878480
6.986577 -3.635377 -2.247450 0.000000000000000e+00 1851878480
6.832839 -3.941240 -2.234862 0.000000000000000e+00 1851878480
7.093298 -2.581975 -2.239930 0.000000000000000e+00 1851878480
7.004367 -2.901446 -2.250249 0.000000000000000e+00 1851878480
6.759626 -3.518465 -2.247692 0.000000000000000e+00 1851878480
6.644315 -3.834952 -2.248016 0.000000000000000e+00 1851878480
6.851636 -2.491948 -2.230818 0.000000000000000e+00 1851878480
6.785525 -2.809722 -2.248748 0.000000000000000e+00 1851878480
6.520802 -3.395295 -2.239316 0.000000000000000e+00 1851878480
3.712845 -2.144353 -1.298232 1.880790849211783e-38 1684957512
6.714043 -2.439876 -2.252199 0.000000000000000e+00 1851878480
6.566477 -2.717979 -2.243083 0.000000000000000e+00 1851878480
3.675316 -1.914339 -1.302406 1.880790849211783e-38 1684957512
3.587422 -2.073254 -1.295232 1.880790849211783e-38 1684957512
6.477704 -2.352025 -2.237099 0.000000000000000e+00 1851878480
3.653391 -1.511620 -1.285420 1.880790849211783e-38 1684957512
3.528199 -1.838336 -1.289144 1.880790849211783e-38 1684957512
3.479761 -2.012346 -1.296226 1.880790849211783e-38 1684957512
6.307669 -2.288364 -2.241205 0.000000000000000e+00 1851878480
3.526837 -1.458693 -1.277230 1.880790849211783e-38 1684957512
3.442490 -1.794293 -1.295978 1.880790849211783e-38 1684957512
3.363410 -1.946333 -1.291654 1.880790849211783e-38 1684957512
6.186236 -2.242412 -2.260014 0.000000000000000e+00 1851878480
3.524776 -1.457271 -1.313006 1.880790849211783e-38 1684957512
3.343496 -1.743295 -1.295990 1.880790849211783e-38 1684957512
3.284843 -1.902120 -1.299584 1.880790849211783e-38 1684957512
5.985400 -2.167769 -2.246924 0.000000000000000e+00 1851878480
3.484076 -1.439881 -1.334155 1.880790849211783e-38 1684957512
3.254926 -1.697703 -1.298177 1.880790849211783e-38 1684957512
3.199134 -1.853716 -1.303024 1.880790849211783e-38 1684957512
5.785723 -2.093660 -2.230574 0.000000000000000e+00 1851878480
3.514008 -1.451680 -1.382458 1.880790849211783e-38 1684957512
3.171564 -1.654800 -1.300740 1.880790849211783e-38 1684957512
3.056544 -1.772275 -1.280869 1.880790849211783e-38 1684957512
5.644516 -2.040802 -2.233654 0.000000000000000e+00 1851878480
3.536248 -1.460288 -1.428510 1.880790849211783e-38 1684957512
3.045592 -1.589631 -1.283692 1.880790849211783e-38 1684957512
2.986992 -1.733109 -1.287069 1.880790849211783e-38 1684957512
5.557272 -2.007519 -2.256107 0.000000000000000e+00 1851878480
3.522261 -1.453930 -1.460250 1.880790849211783e-38 1684957512
2.931879 -1.530819 -1.269313 1.880790849211783e-38 1684957512
2.889911 -1.677916 -1.279675 1.880790849211783e-38 1684957512
5.416863 -1.955092 -2.254994 0.000000000000000e+00 1851878480
3.530390 -1.456702 -1.501342 1.880790849211783e-38 1684957512
2.935765 -1.533394 -1.304824 1.880790849211783e-38 1684957512
2.834294 -1.646745 -1.289068 1.880790849211783e-38 1684957512
5.235377 -1.887929 -2.233808 0.000000000000000e+00 1851878480
3.458815 -1.426591 -1.508106 1.880790849211783e-38 1684957512
2.869465 -1.499301 -1.308657 1.880790849211783e-38 1684957512
2.723202 -1.583285 -1.271471 1.880790849211783e-38 1684957512
5.126072 -1.846878 -2.240753 0.000000000000000e+00 1851878480
3.531715 -1.456065 -1.578138 1.880790849211783e-38 1684957512
2.805320 -1.466315 -1.312198 1.880790849211783e-38 1684957512
2.644290 -1.538465 -1.266844 1.880790849211783e-38 1684957512
5.046915 -1.816740 -2.259265 0.000000000000000e+00 1851878480
3.535788 -1.457146 -1.618518 1.880790849211783e-38 1684957512
2.798539 -1.463300 -1.341987 1.880790849211783e-38 1684957512
2.625832 -1.528790 -1.290243 1.880790849211783e-38 1684957512
4.925996 -1.771623 -2.257339 0.000000000000000e+00 1851878480
3.503185 -1.443114 -1.642072 1.880790849211783e-38 1684957512
2.798975 -1.464065 -1.375417 1.880790849211783e-38 1684957512
2.571626 -1.498281 -1.295437 1.880790849211783e-38 1684957512
4.782365 -1.718409 -2.242564 0.000000000000000e+00 1851878480
3.587850 -1.477375 -1.721458 1.880790849211783e-38 1684957512
2.786920 -1.458297 -1.402832 1.880790849211783e-38 1684957512
2.444847 -1.425423 -1.262081 1.880790849211783e-38 1684957512
4.710175 -1.690928 -2.259354 0.000000000000000e+00 1851878480
3.528419 -1.452293 -1.732279 1.880790849211783e-38 1684957512
2.804673 -1.468134 -1.445590 1.880790849211783e-38 1684957512
2.482676 -1.448510 -1.312848 1.880790849211783e-38 1684957512
4.554474 -1.633530 -2.234002 0.000000000000000e+00 1851878480
3.518383 -1.447550 -1.766880 1.880790849211783e-38 1684957512
2.777934 -1.454682 -1.465583 1.880790849211783e-38 1684957512
2.477618 -1.446597 -1.341615 1.880790849211783e-38 1684957512
4.510416 -1.616233 -2.261623 0.000000000000000e+00 1851878480
3.530651 -1.451978 -1.813020 1.880790849211783e-38 1684957512
2.817075 -1.475735 -1.520775 1.880790849211783e-38 1684957512
2.452465 -1.432949 -1.359391 1.880790849211783e-38 1684957512
4.380156 -1.568090 -2.244494 0.000000000000000e+00 1851878480
3.544334 -1.456977 -1.860506 1.880790849211783e-38 1684957512
2.761497 -1.447172 -1.524925 1.880790849211783e-38 1684957512
2.513739 -1.469824 -1.425825 1.880790849211783e-38 1684957512
4.284492 -1.532400 -2.242985 0.000000000000000e+00 1851878480
3.560969 -1.463181 -1.910224 1.880790849211783e-38 1684957512
2.811161 -1.473766 -1.587425 1.880790849211783e-38 1684957512
2.500563 -1.463199 -1.450947 1.880790849211783e-38 1684957512
4.208180 -1.503675 -2.250083 0.000000000000000e+00 1851878480
3.536466 -1.452476 -1.938127 1.880790849211783e-38 1684957512
2.810290 -1.473881 -1.622314 1.880790849211783e-38 1684957512
2.514960 -1.472716 -1.492390 1.880790849211783e-38 1684957512
4.169114 -1.488289 -2.276197 0.000000000000000e+00 1851878480
3.506145 -1.439388 -1.962558 1.880790849211783e-38 1684957512
2.774656 -1.455763 -1.636998 1.880790849211783e-38 1684957512
2.510242 -1.471059 -1.522936 1.880790849211783e-38 1684957512
4.129778 -1.472821 -2.301679 0.000000000000000e+00 1634890835
3.577566 -1.468055 -2.044791 1.880790849211783e-38 1684957512
2.778835 -1.458531 -1.675106 1.880790849211783e-38 1684957512
2.502558 -1.467667 -1.551842 1.880790849211783e-38 1684957512
3.989024 -1.421236 -2.268986 0.000000000000000e+00 1634890835
3.539229 -1.451670 -2.065057 1.880790849211783e-38 1684957512
2.795305 -1.467762 -1.721232 1.880790849211783e-38 1684957512
2.447435 -1.436437 -1.550816 1.880790849211783e-38 1684957512
3.933831 -1.400190 -2.283119 0.000000000000000e+00 1634890835
3.534310 -1.448995 -2.104697 1.880790849211783e-38 1684957512
2.753986 -1.446647 -1.731805 1.880790849211783e-38 1684957512
2.494402 -1.465134 -1.614715 1.880790849211783e-38 1684957512
3.868562 -1.375589 -2.290416 0.000000000000000e+00 1634890835
3.521401 -1.443041 -2.139762 1.880790849211783e-38 1684957512
2.796849 -1.469760 -1.795702 1.880790849211783e-38 1684957512
2.493680 -1.465853 -1.648732 1.880790849211783e-38 1684957512
3.760018 -1.335651 -2.270474 0.000000000000000e+00 1634890835
3.565686 -1.460514 -2.210378 1.880790849211783e-38 1684957512
2.786557 -1.464955 -1.826280 1.880790849211783e-38 1684957512
2.482411 -1.460380 -1.675974 1.880790849211783e-38 1684957512
3.706854 -1.315429 -2.282481 0.000000000000000e+00 1634890835
3.574324 -1.463369 -2.259975 1.880790849211783e-38 1684957512
2.822296 -1.484360 -1.887759 1.880790849211783e-38 1684957512
2.471855 -1.455330 -1.703767 1.880790849211783e-38 1684957512
3.630979 -1.287184 -2.279389 0.000000000000000e+00 1634890835
3.588500 -1.468477 -2.313800 1.880790849211783e-38 1684957512
2.743538 -1.443542 -1.872471 1.880790849211783e-38 1684957512
2.474607 -1.458121 -1.741011 1.880790849211783e-38 1684957512
3.571365 -1.264739 -2.285302 0.000000000000000e+00 1634890835
3.479541 -1.423211 -2.287490 0.000000000000000e+00 1634890835
2.766034 -1.455996 -1.925932 1.880790849211783e-38 1684957512
2.428780 -1.432284 -1.743854 1.880790849211783e-38 1684957512
3.547792 -1.255074 -2.313702 0.000000000000000e+00 1634890835
3.420918 -1.398557 -2.292604 0.000000000000000e+00 1634890835
2.774895 -1.461285 -1.970756 1.880790849211783e-38 1684957512
2.466420 -1.455678 -1.806918 1.880790849211783e-38 1684957512
3.420714 -1.208839 -2.273187 0.000000000000000e+00 1634890835
3.331890 -1.361496 -2.275908 0.000000000000000e+00 1634890835
2.778479 -1.463806 -2.012444 1.880790849211783e-38 1684957512
2.465400 -1.456287 -1.842618 1.880790849211783e-38 1684957512
3.364365 -1.187654 -2.277840 0.000000000000000e+00 1634890835
3.311772 -1.352610 -2.305339 0.000000000000000e+00 1634890835
2.770901 -1.460454 -2.046444 1.880790849211783e-38 1684957512
2.455728 -1.451794 -1.872127 1.880790849211783e-38 1684957512
3.305238 -1.165516 -2.279611 0.000000000000000e+00 1634890835
3.223733 -1.315995 -2.286543 0.000000000000000e+00 1634890835
2.778709 -1.465218 -2.092279 1.880790849211783e-38 1684957512
2.438056 -1.442574 -1.895577 1.880790849211783e-38 1684957512
3.257949 -1.147584 -2.288651 0.000000000000000e+00 1634890835
3.189824 -1.301497 -2.305007 0.000000000000000e+00 1634890835
2.759611 -1.455800 -2.118168 1.880790849211783e-38 1684957512
2.445776 -1.448389 -1.939078 1.880790849211783e-38 1684957512
3.156404 -1.110583 -2.258122 0.000000000000000e+00 1634890835
3.114445 -1.270092 -2.292523 0.000000000000000e+00 1634890835
2.737518 -1.444800 -2.141647 1.880790849211783e-38 1684957512
2.434400 -1.442910 -1.967857 1.880790849211783e-38 1684957512
3.143522 -1.104810 -2.290004 0.000000000000000e+00 1634890835
3.042268 -1.240019 -2.280886 0.000000000000000e+00 1634890835
2.790796 -1.473597 -2.225066 1.880790849211783e-38 1684957512
2.443220 -1.449416 -2.013412 1.880790849211783e-38 1684957512
3.055930 -1.072806 -2.266611 0.000000000000000e+00 1634890835
2.988021 -1.217270 -2.281452 0.000000000000000e+00 1634890835
2.730342 -1.442345 -2.218221 1.880790849211783e-38 1684957512
0.885319 -0.525676 -0.743682 0.000000000000000e+00 1886740808
3.029042 -1.062143 -2.287199 0.000000000000000e+00 1634890835
2.893375 -1.178089 -2.249604 0.000000000000000e+00 1634890835
2.727853 -1.441710 -2.258051 0.000000000000000e+00 1851878480
0.856038 -0.508750 -0.732911 0.000000000000000e+00 1886740808
2.974638 -1.041853 -2.286400 0.000000000000000e+00 1634890835
2.870329 -1.168081 -2.272276 0.000000000000000e+00 1634890835
0.877694 -0.464095 -0.740178 0.000000000000000e+00 1886740808
0.797780 -0.474563 -0.696092 0.000000000000000e+00 1886740808
2.939817 -1.028442 -2.299929 0.000000000000000e+00 1634890835
2.852929 -1.160367 -2.299351 0.000000000000000e+00 1634890835
0.865844 -0.458050 -0.743824 0.000000000000000e+00 1886740808
0.822060 -0.489460 -0.730922 0.000000000000000e+00 1886740808
2.912796 -1.017771 -2.319210 0.000000000000000e+00 1634890835
2.833708 -1.151917 -2.324956 0.000000000000000e+00 1634890835
0.845588 -0.447554 -0.739927 0.000000000000000e+00 1886740808
0.792064 -0.472045 -0.717585 0.000000000000000e+00 1886740808
2.824412 -0.985694 -2.288527 0.000000000000000e+00 1634890835
2.743090 -1.114459 -2.290908 0.000000000000000e+00 1634890835
0.843768 -0.446812 -0.751997 0.000000000000000e+00 1886740808
0.765980 -0.456936 -0.707035 0.000000000000000e+00 1886740808
2.766171 -0.964181 -2.280710 0.000000000000000e+00 1634890835
0.854473 -0.346958 -0.726339 0.000000000000000e+00 1886740808
0.810984 -0.429668 -0.736098 0.000000000000000e+00 1886740808
0.786610 -0.469697 -0.739709 0.000000000000000e+00 1886740808
0.877022 -0.305316 -0.735752 0.000000000000000e+00 1886740808
0.823455 -0.334172 -0.712397 0.000000000000000e+00 1886740808
0.768654 -0.407449 -0.710482 0.000000000000000e+00 1886740808
0.774553 -0.462953 -0.741996 0.000000000000000e+00 1886740808
0.836873 -0.290971 -0.714299 0.000000000000000e+00 1886740808
0.805263 -0.326599 -0.708976 0.000000000000000e+00 1886740808
0.740796 -0.392885 -0.697257 0.000000000000000e+00 1886740808
0.785427 -0.469920 -0.766439 0.000000000000000e+00 1886740808
0.834239 -0.289684 -0.724408 0.000000000000000e+00 1886740808
0.826976 -0.335207 -0.740920 0.000000000000000e+00 1886740808
0.765544 -0.406223 -0.733686 0.000000000000000e+00 1886740808
0.764926 -0.458118 -0.760307 0.000000000000000e+00 1886740808
0.799432 -0.277236 -0.706188 0.000000000000000e+00 1886740808
0.810764 -0.328440 -0.739151 0.000000000000000e+00 1886740808
0.741053 -0.393437 -0.723124 0.000000000000000e+00 1886740808
0.751904 -0.450782 -0.761217 0.000000000000000e+00 1886740808
0.745242 -0.258103 -0.669668 0.000000000000000e+00 1886740808
0.769982 -0.311730 -0.714260 0.000000000000000e+00 1886740808
0.758457 -0.402895 -0.753527 0.000000000000000e+00 1886740808
0.769665 -0.461911 -0.793607 0.000000000000000e+00 1886740808
0.782535 -0.270654 -0.715266 0.000000000000000e+00 1886740808
0.756544 -0.306101 -0.714050 0.000000000000000e+00 1886740808
0.769044 -0.408743 -0.777866 0.000000000000000e+00 1886740808
0.756424 -0.454445 -0.794347 0.000000000000000e+00 1886740808
0.790818 -0.273148 -0.735231 0.000000000000000e+00 1886740808
0.761291 -0.307829 -0.731046 0.000000000000000e+00 1886740808
0.785113 -0.417517 -0.808457 0.000000000000000e+00 1886740808
0.788345 -0.474132 -0.843120 0.000000000000000e+00 1886740808
0.737446 -0.254360 -0.697338 0.000000000000000e+00 1886740808
0.761657 -0.307781 -0.744111 0.000000000000000e+00 1886740808
0.766955 -0.408092 -0.803996 0.000000000000000e+00 1886740808
2.093344 -1.260371 -2.279981 0.000000000000000e+00 1634890835
0.772374 -0.266033 -0.742836 0.000000000000000e+00 1886740808
0.751179 -0.303350 -0.746609 0.000000000000000e+00 1886740808
0.763963 -0.406734 -0.815277 0.000000000000000e+00 1886740808
2.073708 -1.249936 -2.300105 0.000000000000000e+00 1634890835
0.745765 -0.256501 -0.729470 0.000000000000000e+00 1886740808
0.717074 -0.289388 -0.725062 0.000000000000000e+00 1886740808
2.130205 -1.134785 -2.314171 0.000000000000000e+00 1634890835
2.018229 -1.217872 -2.279685 0.000000000000000e+00 1634890835
0.776668 -0.266742 -0.772629 0.000000000000000e+00 1886740808
0.772846 -0.311687 -0.794980 0.000000000000000e+00 1886740808
2.068789 -1.102725 -2.287844 0.000000000000000e+00 1634890835
0.778279 -0.470181 -0.895241 0.000000000000000e+00 1886740808
0.758253 -0.260033 -0.767135 0.000000000000000e+00 1886740808
0.767767 -0.309429 -0.803412 0.000000000000000e+00 1886740808
2.031037 -1.083258 -2.286450 0.000000000000000e+00 1634890835
0.801443 -0.484742 -0.938811 0.000000000000000e+00 1886740808
0.806138 -0.276039 -0.829436 0.000000000000000e+00 1886740808
0.772038 -0.310935 -0.821843 0.000000000000000e+00 1886740808
2.010585 -1.073010 -2.304089 0.000000000000000e+00 1634890835
0.778842 -0.471632 -0.929089 0.000000000000000e+00 1886740808
0.740216 -0.253078 -0.774542 0.000000000000000e+00 1886740808
2.138731 -0.860759 -2.316043 0.000000000000000e+00 1634890835
0.845089 -0.451291 -0.985860 0.000000000000000e+00 1886740808
0.775112 -0.469943 -0.941629 0.000000000000000e+00 1886740808
0.741379 -0.253081 -0.788929 0.000000000000000e+00 1886740808
2.123579 -0.854051 -2.339370 0.000000000000000e+00 1634890835
0.813687 -0.434799 -0.966296 0.000000000000000e+00 1886740808
0.789483 -0.479247 -0.976726 0.000000000000000e+00 1886740808
0.751136 -0.256005 -0.812882 0.000000000000000e+00 1886740808
2.055593 -0.826106 -2.303615 0.000000000000000e+00 1634890835
0.790383 -0.422622 -0.955515 0.000000000000000e+00 1886740808
1.812962 -1.101921 -2.284245 0.000000000000000e+00 1634890835
2.102759 -0.715512 -2.314261 0.000000000000000e+00 1634890835
2.009270 -0.806891 -2.290648 0.000000000000000e+00 1634890835
0.784101 -0.419541 -0.965003 0.000000000000000e+00 1886740808
1.792164 -1.090675 -2.299686 0.000000000000000e+00 1634890835
2.028911 -0.689248 -2.270936 0.000000000000000e+00 1634890835
1.973753 -0.792028 -2.289111 0.000000000000000e+00 1634890835
0.797379 -0.426933 -0.999056 0.000000000000000e+00 1886740808
0.768347 -0.468211 -1.004153 0.000000000000000e+00 1886740808
2.010601 -0.681880 -2.288725 0.000000000000000e+00 1634890835
1.951273 -0.782404 -2.302264 0.000000000000000e+00 1634890835
0.792854 -0.424802 -1.011350 0.000000000000000e+00 1886740808
1.742824 -1.063446 -2.319880 0.000000000000000e+00 1634890835
1.999684 -0.677017 -2.315069 0.000000000000000e+00 1634890835
0.786287 -0.315032 -0.943828 0.000000000000000e+00 1886740808
1.796227 -0.963075 -2.332759 0.000000000000000e+00 1634890835
1.700557 -1.039065 -2.305649 0.000000000000000e+00 1634890835
1.962131 -0.663143 -2.310342 0.000000000000000e+00 1634890835
0.811202 -0.324753 -0.990669 0.000000000000000e+00 1886740808
0.781445 -0.419284 -1.033300 0.000000000000000e+00 1886740808
1.656300 -1.013425 -2.287461 0.000000000000000e+00 1634890835
1.899063 -0.640684 -2.274297 0.000000000000000e+00 1634890835
0.824469 -0.329795 -1.024420 0.000000000000000e+00 1886740808
1.700968 -0.913318 -2.290158 0.000000000000000e+00 1634890835
1.644585 -1.007680 -2.313714 0.000000000000000e+00 1634890835
0.811627 -0.273319 -0.988643 0.000000000000000e+00 1886740808
0.803120 -0.320986 -1.015328 0.000000000000000e+00 1886740808
1.693868 -0.910185 -2.322284 0.000000000000000e+00 1634890835
1.587634 -0.974189 -2.275469 0.000000000000000e+00 1634890835
0.783531 -0.263368 -0.970803 0.000000000000000e+00 1886740808
0.783348 -0.312818 -1.007683 0.000000000000000e+00 1886740808
1.665215 -0.895470 -2.324875 0.000000000000000e+00 1634890835
1.567693 -0.963373 -2.289183 0.000000000000000e+00 1634890835
0.762302 -0.255746 -0.960759 0.000000000000000e+00 1886740808
0.781812 -0.311933 -1.023380 0.000000000000000e+00 1886740808
1.626955 -0.875576 -2.313280 0.000000000000000e+00 1634890835
1.558775 -0.959336 -2.319186 0.000000000000000e+00 1634890835
0.770992 -0.258159 -0.988489 0.000000000000000e+00 1886740808
1.746984 -0.696404 -2.327097 0.000000000000000e+00 1634890835
1.589075 -0.855870 -2.301195 0.000000000000000e+00 1634890835
1.528367 -0.942071 -2.317128 0.000000000000000e+00 1634890835
0.774161 -0.258707 -1.009746 0.000000000000000e+00 1886740808
1.690440 -0.673251 -2.291625 0.000000000000000e+00 1634890835
1.566975 -0.844653 -2.311333 0.000000000000000e+00 1634890835
1.471813 -0.908641 -2.273974 0.000000000000000e+00 1634890835
0.807791 -0.269397 -1.071928 0.000000000000000e+00 1886740808
0.753314 -0.299744 -1.039367 0.000000000000000e+00 1886740808
1.579069 -0.851880 -2.372638 0.000000000000000e+00 1634890835
1.461735 -0.903873 -2.301734 0.000000000000000e+00 1634890835
1.691661 -0.562994 -2.283996 0.000000000000000e+00 1634890835
1.630398 -0.648119 -2.289644 0.000000000000000e+00 1634890835
1.517107 -0.819148 -2.322300 0.000000000000000e+00 1634890835
1.419473 -0.879189 -2.278316 0.000000000000000e+00 1634890835
0.746955 -0.248063 -1.026179 0.000000000000000e+00 1886740808
1.626011 -0.645746 -2.324420 0.000000000000000e+00 1634890835
1.474407 -0.796788 -2.299508 0.000000000000000e+00 1634890835
1.397065 -0.866773 -2.285882 0.000000000000000e+00 1634890835
1.653803 -0.548031 -2.312028 0.000000000000000e+00 1634890835
1.571369 -0.623423 -2.286776 0.000000000000000e+00 1634890835
1.468335 -0.794213 -2.333488 0.000000000000000e+00 1634890835
1.390522 -0.864205 -2.319625 0.000000000000000e+00 1634890835
1.628117 -0.538317 -2.316395 0.000000000000000e+00 1634890835
1.542749 -0.611445 -2.285791 0.000000000000000e+00 1634890835
1.433923 -0.776308 -2.322307 0.000000000000000e+00 1634890835
1.352899 -0.842314 -2.301258 0.000000000000000e+00 1634890835
1.584996 -0.522862 -2.295153 0.000000000000000e+00 1634890835
1.526905 -0.604533 -2.303519 0.000000000000000e+00 1634890835
1.413797 -0.766128 -2.333714 0.000000000000000e+00 1634890835
1.318359 -0.822302 -2.286933 0.000000000000000e+00 1634890835
1.535031 -0.505191 -2.262553 0.000000000000000e+00 1634890835
1.495909 -0.591625 -2.298105 0.000000000000000e+00 1634890835
1.370629 -0.743450 -2.306241 0.000000000000000e+00 1634890835
1.280164 -0.799968 -2.265003 0.000000000000000e+00 1634890835
1.538798 -0.505213 -2.308905 0.000000000000000e+00 1634890835
1.497129 -0.591456 -2.342383 0.000000000000000e+00 1634890835
1.326296 -0.720112 -2.275149 0.000000000000000e+00 1634890835
1.286224 -0.805293 -2.321512 0.000000000000000e+00 1634890835
1.523838 -0.499064 -2.327839 0.000000000000000e+00 1634890835
1.420527 -0.560560 -2.263781 0.000000000000000e+00 1634890835
1.299343 -0.706190 -2.272697 0.000000000000000e+00 1634890835
1.267333 -0.795026 -2.333818 0.000000000000000e+00 1634890835
1.455715 -0.475545 -2.264284 0.000000000000000e+00 1634890835
1.406781 -0.554493 -2.283771 0.000000000000000e+00 1634890835
1.293820 -0.703919 -2.307850 0.000000000000000e+00 1634890835
1.186530 -0.745840 -2.229735 0.000000000000000e+00 1634890835
1.458621 -0.475252 -2.310415 0.000000000000000e+00 1634890835
1.385473 -0.545445 -2.291521 0.000000000000000e+00 1634890835
1.287278 -0.701106 -2.342038 0.000000000000000e+00 1634890835
1.201890 -0.757061 -2.305241 0.000000000000000e+00 1634890835
1.440754 -0.468172 -2.324271 0.000000000000000e+00 1634890835
1.377060 -0.541469 -2.320814 0.000000000000000e+00 1634890835
1.252720 -0.683032 -2.325084 0.000000000000000e+00 1634890835
1.179421 -0.744494 -2.309311 0.000000000000000e+00 1634890835
1.388961 -0.450099 -2.282420 0.000000000000000e+00 1634890835
1.378533 -0.541366 -2.367724 0.000000000000000e+00 1634890835
1.221051 -0.666517 -2.312392 0.000000000000000e+00 1634890835
1.153540 -0.729757 -2.306198 0.000000000000000e+00 1634890835
1.361768 -0.440034 -2.279711 0.000000000000000e+00 1634890835
1.336036 -0.523997 -2.338983 0.000000000000000e+00 1634890835
1.185909 -0.648085 -2.291952 0.000000000000000e+00 1634890835
1.122514 -0.711735 -2.291921 0.000000000000000e+00 1634890835
1.334265 -0.429885 -2.275912 0.000000000000000e+00 1634890835
1.281650 -0.501997 -2.287421 0.000000000000000e+00 1634890835
1.173047 -0.641823 -2.314112 0.000000000000000e+00 1634890835
1.104347 -0.701846 -2.303326 0.000000000000000e+00 1634890835
1.324833 -0.425560 -2.302930 0.000000000000000e+00 1634890835
1.248040 -0.488161 -2.271165 0.000000000000000e+00 1634890835
1.152151 -0.631165 -2.320525 0.000000000000000e+00 1634890835
1.059809 -0.675159 -2.258516 0.000000000000000e+00 1634890835
1.300470 -0.416437 -2.304087 0.000000000000000e+00 1634890835
1.237048 -0.483177 -2.295779 0.000000000000000e+00 1634890835
1.118673 -0.613603 -2.300835 0.000000000000000e+00 1634890835
1.043494 -0.666411 -2.272691 0.000000000000000e+00 1634890835
1.268688 -0.404957 -2.291442 0.000000000000000e+00 1634890835
1.208000 -0.471142 -2.286746 0.000000000000000e+00 1634890835
1.106534 -0.607740 -2.324639 0.000000000000000e+00 1634890835
1.022698 -0.654799 -2.277021 0.000000000000000e+00 1634890835
1.252368 -0.398426 -2.306335 0.000000000000000e+00 1634890835
1.191666 -0.464072 -2.301450 0.000000000000000e+00 1634890835
1.116340 -0.613955 -2.396095 0.000000000000000e+00 1634890835
1.016443 -0.652512 -2.314159 0.000000000000000e+00 1634890835
1.225405 -0.388514 -2.301392 0.000000000000000e+00 1634890835
1.157535 -0.450079 -2.281235 0.000000000000000e+00 1634890835
1.053510 -0.580209 -2.310874 0.000000000000000e+00 1634890835
1.006680 -0.648007 -2.344328 0.000000000000000e+00 1634890835
1.187130 -0.375047 -2.274148 0.000000000000000e+00 1634890835
1.154273 -0.448089 -2.321831 0.000000000000000e+00 1634890835
1.029576 -0.567845 -2.308584 0.000000000000000e+00 1634890835
0.967232 -0.624372 -2.304671 0.000000000000000e+00 1634890835
1.172907 -0.369198 -2.292383 0.000000000000000e+00 1634890835
1.137481 -0.440837 -2.335907 0.000000000000000e+00 1634890835
1.010774 -0.558308 -2.317487 0.000000000000000e+00 1634890835
0.934038 -0.604704 -2.277901 0.000000000000000e+00 1634890835
1.149386 -0.360423 -2.292395 0.000000000000000e+00 1634890835
1.101594 -0.426193 -2.310090 0.000000000000000e+00 1634890835
1.013031 -0.560419 -2.375711 0.000000000000000e+00 1634890835
0.924411 -0.600281 -2.308208 0.000000000000000e+00 1634890835
1.133522 -0.354052 -2.307579 0.000000000000000e+00 1634890835
1.078357 -0.416460 -2.309824 0.000000000000000e+00 1634890835
0.975732 -0.540649 -2.341252 0.000000000000000e+00 1634890835
0.917034 -0.597358 -2.345262 0.000000000000000e+00 1634890835
1.081188 -0.336330 -2.247186 0.000000000000000e+00 1634890835
1.045246 -0.402926 -2.287508 0.000000000000000e+00 1634890835
0.955192 -0.530147 -2.345857 0.000000000000000e+00 1634890835
0.871459 -0.569516 -2.283564 0.000000000000000e+00 1634890835
1.086693 -0.336614 -2.306579 0.000000000000000e+00 1634890835
1.020583 -0.392665 -2.282677 0.000000000000000e+00 1634890835
0.915995 -0.509268 -2.303300 0.000000000000000e+00 1634890835
0.853141 -0.559427 -2.291502 0.000000000000000e+00 1634890835
1.062680 -0.327730 -2.304126 0.000000000000000e+00 1634890835
1.007841 -0.386991 -2.304470 0.000000000000000e+00 1634890835
0.907797 -0.505612 -2.338057 0.000000000000000e+00 1634890835
0.841923 -0.554009 -2.318932 0.000000000000000e+00 1634890835
1.040623 -0.319461 -2.305491 0.000000000000000e+00 1634890835
0.988654 -0.378838 -2.311760 0.000000000000000e+00 1634890835
0.872958 -0.487111 -2.303769 0.000000000000000e+00 1634890835
0.452670 -0.298956 -1.279102 0.000000000000000e+00 1936876886
1.005969 -0.307353 -2.277990 0.000000000000000e+00 1634890835
0.970132 -0.370942 -2.320565 0.000000000000000e+00 1634890835
0.847433 -0.473784 -2.292504 0.000000000000000e+00 1634890835
0.448237 -0.297154 -1.299999 0.000000000000000e+00 1936876886
0.993629 -0.302079 -2.300517 0.000000000000000e+00 1634890835
0.931870 -0.355514 -2.281045 0.000000000000000e+00 1634890835
0.839870 -0.470501 -2.330048 0.000000000000000e+00 1634890835
0.427058 -0.284235 -1.271886 0.000000000000000e+00 1936876886
0.964950 -0.291844 -2.284991 0.000000000000000e+00 1634890835
0.923387 -0.351455 -2.313862 0.000000000000000e+00 1634890835
0.470876 -0.264341 -1.340317 0.000000000000000e+00 1936876886
0.352104 -0.235317 -1.077420 0.000000000000000e+00 1953264973
0.952021 -0.286380 -2.306511 0.000000000000000e+00 1634890835
0.894651 -0.339689 -2.295885 0.000000000000000e+00 1634890835
0.435926 -0.245257 -1.273716 0.000000000000000e+00 1936876886
0.313107 -0.210157 -0.984917 0.000000000000000e+00 1953264973
0.509862 -0.152508 -1.264298 0.000000000000000e+00 1936876886
0.878474 -0.332700 -2.309639 0.000000000000000e+00 1634890835
0.367713 -0.207353 -1.103443 0.000000000000000e+00 1953264973
0.304734 -0.205460 -0.985992 0.000000000000000e+00 1953264973
0.482352 -0.143427 -1.224661 0.000000000000000e+00 1936876886
0.864568 -0.326562 -2.329799 0.000000000000000e+00 1634890835
0.331320 -0.187278 -1.021657 0.000000000000000e+00 1953264973
0.259841 -0.176019 -0.865318 0.000000000000000e+00 1953264973
0.495036 -0.146288 -1.287418 0.000000000000000e+00 1936876886
0.829603 -0.312484 -2.292399 0.000000000000000e+00 1634890835
0.315203 -0.178615 -0.999343 0.000000000000000e+00 1953264973
0.243090 -0.165488 -0.833752 0.000000000000000e+00 1953264973
