# .PCD v0.7 - Point Cloud Data file format
VERSION 0.7
FIELDS x y z rgb label
SIZE 4 4 4 4 4
TYPE F F F F U
COUNT 1 1 1 1 1
WIDTH 533
HEIGHT 1
VIEWPOINT 0 0 0 1 0 0 0
POINTS 533
DATA ascii
35.268295 -13.112204 -2.240744 0.000000000000000e+00 1851878480
29.340967 -10.900242 -2.130706 0.000000000000000e+00 1851878480
28.732428 -12.014444 -2.020579 0.000000000000000e+00 1851878480
27.143522 -14.011634 -1.738720 0.000000000000000e+00 1851878480
25.914869 -14.722236 -1.554567 0.000000000000000e+00 1851878480
26.616064 -9.880421 -2.174842 0.000000000000000e+00 1851878480
26.117760 -10.917281 -2.081451 0.000000000000000e+00 1851878480
24.953897 -12.885326 -1.847822 0.000000000000000e+00 1851878480
24.272154 -13.797136 -1.707033 0.000000000000000e+00 1851878480
24.082771 -8.933218 -2.187057 0.000000000000000e+00 1851878480
24.248165 -10.132227 -2.159942 0.000000000000000e+00 1851878480
23.225218 -11.996407 -1.952214 0.000000000000000e+00 1851878480
22.920343 -13.036433 -1.849338 0.000000000000000e+00 1851878480
22.188601 -8.224328 -2.217250 0.000000000000000e+00 1851878480
22.246689 -9.292639 -2.190630 0.000000000000000e+00 1851878480
21.989840 -11.361840 -2.068735 0.000000000000000e+00 1851878480
21.709314 -12.354941 -1.976818 0.000000000000000e+00 1851878480
20.426212 -7.565320 -2.227533 0.000000000000000e+00 1851878480
20.560970 -8.585468 -2.218049 0.000000000000000e+00 1851878480
20.680916 -10.688848 -2.153177 0.000000000000000e+00 1851878480
20.405071 -11.619577 -2.070087 0.000000000000000e+00 1851878480
18.962568 -7.017859 -2.241218 0.000000000000000e+00 1851878480
19.062466 -7.956944 -2.235995 0.000000000000000e+00 1851878480
19.500231 -10.081762 -2.226334 0.000000000000000e+00 1851878480
19.166351 -10.920671 -2.143967 0.000000000000000e+00 1851878480
17.621475 -6.516537 -2.244017 0.000000000000000e+00 1851878480
17.635796 -7.358829 -2.235096 0.000000000000000e+00 1851878480
17.936970 -9.276437 -2.228576 0.000000000000000e+00 1851878480
17.966053 -10.242856 -2.197144 0.000000000000000e+00 1851878480
16.332638 -6.035284 -2.229666 0.000000000000000e+00 1851878480
16.461184 -6.866276 -2.241886 0.000000000000000e+00 1851878480
16.616734 -8.596342 -2.232318 0.000000000000000e+00 1851878480
16.710529 -9.532737 -2.218339 0.000000000000000e+00 1851878480
15.378576 -5.678371 -2.240718 0.000000000000000e+00 1851878480
15.399457 -6.421124 -2.243195 0.000000000000000e+00 1851878480
15.415965 -7.977644 -2.227005 0.000000000000000e+00 1851878480
15.509259 -8.852746 -2.221433 0.000000000000000e+00 1851878480
14.461483 -5.335622 -2.240240 0.000000000000000e+00 1851878480
14.416587 -6.009157 -2.236917 0.000000000000000e+00 1851878480
14.473373 -7.492214 -2.237653 0.000000000000000e+00 1851878480
14.436583 -8.245396 -2.219502 0.000000000000000e+00 1851878480
13.670009 -5.039712 -2.243773 0.000000000000000e+00 1851878480
13.621326 -5.675655 -2.243168 0.000000000000000e+00 1851878480
13.562865 -7.023099 -2.234822 0.000000000000000e+00 1851878480
13.564306 -7.751852 -2.228330 0.000000000000000e+00 1851878480
12.916821 -4.758346 -2.239620 0.000000000000000e+00 1851878480
12.871672 -5.361372 -2.242529 0.000000000000000e+00 1851878480
12.819696 -6.640368 -2.243104 0.000000000000000e+00 1851878480
12.812330 -7.326517 -2.240200 0.000000000000000e+00 1851878480
12.246602 -4.507940 -2.236976 0.000000000000000e+00 1851878480
12.264934 -5.106826 -2.254160 0.000000000000000e+00 1851878480
12.126188 -6.283135 -2.245787 0.000000000000000e+00 1851878480
12.069666 -6.906013 -2.238295 0.000000000000000e+00 1851878480
11.687114 -4.298641 -2.243442 0.000000000000000e+00 1851878480
11.566667 -4.814351 -2.236790 0.000000000000000e+00 1851878480
11.513857 -5.967751 -2.250505 0.000000000000000e+00 1851878480
11.474051 -6.569185 -2.249863 0.000000000000000e+00 1851878480
11.131216 -4.090972 -2.240520 0.000000000000000e+00 1851878480
11.049453 -4.597410 -2.243085 0.000000000000000e+00 1851878480
10.889421 -5.645893 -2.240531 0.000000000000000e+00 1851878480
10.840729 -6.210365 -2.241359 0.000000000000000e+00 1851878480
10.650940 -3.911389 -2.243454 0.000000000000000e+00 1851878480
10.551805 -4.388762 -2.243901 0.000000000000000e+00 1851878480
10.422800 -5.405686 -2.252161 0.000000000000000e+00 1851878480
10.249593 -5.875300 -2.228901 0.000000000000000e+00 1851878480
10.206743 -3.745316 -2.245643 0.000000000000000e+00 1851878480
10.094020 -4.196833 -2.244294 0.000000000000000e+00 1851878480
9.942859 -5.158430 -2.251506 0.000000000000000e+00 1851878480
9.843416 -5.645926 -2.246380 0.000000000000000e+00 1851878480
9.749037 -3.574535 -2.236697 0.000000000000000e+00 1851878480
9.639248 -4.006292 -2.236836 0.000000000000000e+00 1851878480
9.521239 -4.941279 -2.255077 0.000000000000000e+00 1851878480
9.421465 -5.407227 -2.251749 0.000000000000000e+00 1851878480
9.318225 -3.413867 -2.225860 0.000000000000000e+00 1851878480
9.266261 -3.849861 -2.240636 0.000000000000000e+00 1851878480
9.102339 -4.725407 -2.250917 0.000000000000000e+00 1851878480
8.999032 -5.167968 -2.248286 0.000000000000000e+00 1851878480
9.001712 -3.295281 -2.235573 0.000000000000000e+00 1851878480
8.915228 -3.702656 -2.243007 0.000000000000000e+00 1851878480
5.035843 -2.615165 -1.298114 1.880790849211783e-38 1684957512
4.928071 -2.831846 -1.284830 1.880790849211783e-38 1684957512
4.992475 -1.826150 -1.287376 1.880790849211783e-38 1684957512
4.861131 -2.018173 -1.270787 1.880790849211783e-38 1684957512
4.794590 -2.490691 -1.286409 1.880790849211783e-38 1684957512
4.744331 -2.727959 -1.288772 1.880790849211783e-38 1684957512
4.773878 -1.744791 -1.276602 1.880790849211783e-38 1684957512
4.796950 -1.990789 -1.301329 1.880790849211783e-38 1684957512
4.617981 -2.399733 -1.287861 1.880790849211783e-38 1684957512
4.541437 -2.612929 -1.283513 1.880790849211783e-38 1684957512
4.646826 -1.696985 -1.287187 1.880790849211783e-38 1684957512
4.599648 -1.908198 -1.293371 1.880790849211783e-38 1684957512
4.473770 -2.325555 -1.295170 1.880790849211783e-38 1684957512
4.364179 -2.512518 -1.281554 1.880790849211783e-38 1684957512
4.486059 -1.636945 -1.285853 1.880790849211783e-38 1684957512
4.425910 -1.835436 -1.288553 1.880790849211783e-38 1684957512
4.300819 -2.236391 -1.291005 1.880790849211783e-38 1684957512
4.207331 -2.423745 -1.282130 1.880790849211783e-38 1684957512
4.355507 -1.588014 -1.290557 1.880790849211783e-38 1684957512
4.249320 -1.761543 -1.279609 1.880790849211783e-38 1684957512
4.143277 -2.155185 -1.288153 1.880790849211783e-38 1684957512
4.037993 -2.327670 -1.275512 1.880790849211783e-38 1684957512
4.255661 -1.550341 -1.302317 1.880790849211783e-38 1684957512
4.144039 -1.717252 -1.289516 1.880790849211783e-38 1684957512
3.997709 -2.080157 -1.285988 1.880790849211783e-38 1684957512
3.976553 -2.293710 -1.300637 1.880790849211783e-38 1684957512
4.100293 -1.492516 -1.294795 1.880790849211783e-38 1684957512
4.008777 -1.660571 -1.287875 1.880790849211783e-38 1684957512
3.894439 -2.027101 -1.294968 1.880790849211783e-38 1684957512
3.802530 -2.194737 -1.286536 1.880790849211783e-38 1684957512
3.994230 -1.452706 -1.300478 1.880790849211783e-38 1684957512
3.916453 -1.621709 -1.297927 1.880790849211783e-38 1684957512
3.750564 -1.952869 -1.287985 1.880790849211783e-38 1684957512
3.654490 -2.110650 -1.277828 1.880790849211783e-38 1684957512
4.012053 -1.457976 -1.345827 1.880790849211783e-38 1684957512
3.758397 -1.555667 -1.283854 1.880790849211783e-38 1684957512
3.611060 -1.880871 -1.279636 1.880790849211783e-38 1684957512
3.549032 -2.051068 -1.281371 1.880790849211783e-38 1684957512
3.971576 -1.442061 -1.371599 1.880790849211783e-38 1684957512
3.632919 -1.503150 -1.278217 1.880790849211783e-38 1684957512
3.528895 -1.838699 -1.289398 1.880790849211783e-38 1684957512
3.459798 -2.000801 -1.288790 1.880790849211783e-38 1684957512
3.979878 -1.443863 -1.414107 1.880790849211783e-38 1684957512
3.589450 -1.484590 -1.299905 1.880790849211783e-38 1684957512
3.467535 -1.807347 -1.305407 1.880790849211783e-38 1684957512
3.354632 -1.941253 -1.288283 1.880790849211783e-38 1684957512
3.984583 -1.444348 -1.455685 1.880790849211783e-38 1684957512
3.537685 -1.462608 -1.317814 1.880790849211783e-38 1684957512
3.366871 -1.755482 -1.305050 1.880790849211783e-38 1684957512
3.244717 -1.878885 -1.283710 1.880790849211783e-38 1684957512
3.984681 -1.443156 -1.495853 1.880790849211783e-38 1684957512
3.505442 -1.448711 -1.342336 1.880790849211783e-38 1684957512
3.221493 -1.680265 -1.284842 1.880790849211783e-38 1684957512
3.140505 -1.819744 -1.279144 1.880790849211783e-38 1684957512
4.017035 -1.453631 -1.548691 1.880790849211783e-38 1684957512
3.499282 -1.445596 -1.376664 1.880790849211783e-38 1684957512
3.159542 -1.648527 -1.295810 1.880790849211783e-38 1684957512
3.072569 -1.781567 -1.287584 1.880790849211783e-38 1684957512
3.979237 -1.438713 -1.574668 1.880790849211783e-38 1684957512
3.525701 -1.455932 -1.424250 1.880790849211783e-38 1684957512
3.026053 -1.579433 -1.275457 1.880790849211783e-38 1684957512
3.050657 -1.770049 -1.314501 1.880790849211783e-38 1684957512
3.987196 -1.440342 -1.618697 1.880790849211783e-38 1684957512
3.536120 -1.459651 -1.465996 1.880790849211783e-38 1684957512
3.087501 -1.612074 -1.336687 1.880790849211783e-38 1684957512
3.016474 -1.751400 -1.335719 1.880790849211783e-38 1684957512
3.971161 -1.433299 -1.653161 1.880790849211783e-38 1684957512
3.496059 -1.442536 -1.486742 1.880790849211783e-38 1684957512
3.051986 -1.594098 -1.356480 1.880790849211783e-38 1684957512
3.014227 -1.751287 -1.370903 1.880790849211783e-38 1684957512
4.018346 -1.449055 -1.714530 1.880790849211783e-38 1684957512
3.530761 -1.456265 -1.539476 1.880790849211783e-38 1684957512
3.040812 -1.588830 -1.386802 1.880790849211783e-38 1684957512
3.041669 -1.768443 -1.420164 1.880790849211783e-38 1684957512
4.036682 -1.454380 -1.764549 1.880790849211783e-38 1684957512
3.504552 -1.444866 -1.566000 1.880790849211783e-38 1684957512
3.061001 -1.599957 -1.431794 1.880790849211783e-38 1684957512
3.037408 -1.767184 -1.455182 1.880790849211783e-38 1684957512
4.025482 -1.449054 -1.802018 1.880790849211783e-38 1684957512
3.512311 -1.447471 -1.607771 1.880790849211783e-38 1684957512
3.081285 -1.611143 -1.477573 1.880790849211783e-38 1684957512
3.004236 -1.749102 -1.476178 1.880790849211783e-38 1684957512
4.009298 -1.441935 -1.837262 1.880790849211783e-38 1684957512
3.502416 -1.442797 -1.641712 1.880790849211783e-38 1684957512
3.075325 -1.608616 -1.511215 1.880790849211783e-38 1684957512
3.051896 -1.778095 -1.537369 1.880790849211783e-38 1684957512
4.017658 -1.443633 -1.883975 1.880790849211783e-38 1684957512
3.517150 -1.448263 -1.687536 1.880790849211783e-38 1684957512
3.049645 -1.595772 -1.535078 1.880790849211783e-38 1684957512
3.009049 -1.754371 -1.553334 1.880790849211783e-38 1684957512
4.009575 -1.439417 -1.923293 1.880790849211783e-38 1684957512
3.511382 -1.445281 -1.723915 1.880790849211783e-38 1684957512
3.018772 -1.580205 -1.555941 1.880790849211783e-38 1684957512
3.023387 -1.763987 -1.598778 1.880790849211783e-38 1684957512
4.075511 -1.461743 -1.999067 1.880790849211783e-38 1684957512
3.532299 -1.453275 -1.773868 1.880790849211783e-38 1684957512
3.104650 -1.625769 -1.637952 1.880790849211783e-38 1684957512
3.037753 -1.773642 -1.644925 1.880790849211783e-38 1684957512
4.022524 -1.441405 -2.016983 1.880790849211783e-38 1684957512
3.507393 -1.442413 -1.801077 1.880790849211783e-38 1684957512
3.065722 -1.605989 -1.655005 1.880790849211783e-38 1684957512
3.113874 -1.819404 -1.726008 1.880790849211783e-38 1684957512
4.073552 -1.458326 -2.087383 1.880790849211783e-38 1684957512
3.534588 -1.452971 -1.855390 1.880790849211783e-38 1684957512
3.086324 -1.617398 -1.704297 1.880790849211783e-38 1684957512
3.038501 -1.776660 -1.723477 1.880790849211783e-38 1684957512
4.011277 -1.434682 -2.099954 1.880790849211783e-38 1684957512
3.552984 -1.459900 -1.905941 1.880790849211783e-38 1684957512
3.046073 -1.596920 -1.720076 1.880790849211783e-38 1684957512
3.020763 -1.767592 -1.752792 1.880790849211783e-38 1684957512
4.051065 -1.447534 -2.166075 1.880790849211783e-38 1684957512
3.494030 -1.435047 -1.914871 1.880790849211783e-38 1684957512
3.062055 -1.605921 -1.767652 1.880790849211783e-38 1684957512
3.034868 -1.777166 -1.800907 1.880790849211783e-38 1684957512
4.069556 -1.452749 -2.221841 1.880790849211783e-38 1684957512
3.572529 -1.466641 -1.999717 1.880790849211783e-38 1684957512
3.032284 -1.590931 -1.788994 1.880790849211783e-38 1684957512
3.032366 -1.777035 -1.839702 1.880790849211783e-38 1684957512
3.999319 -1.426295 -2.228969 0.000000000000000e+00 1851878480
3.492763 -1.433256 -1.996321 1.880790849211783e-38 1684957512
2.996470 -1.572762 -1.806297 1.880790849211783e-38 1684957512
3.075833 -1.803874 -1.907331 1.880790849211783e-38 1684957512
4.013913 -1.430104 -2.283144 0.000000000000000e+00 1634890835
3.583108 -1.469667 -2.090659 1.880790849211783e-38 1684957512
3.087257 -1.621060 -1.901004 1.880790849211783e-38 1684957512
3.021903 -1.773601 -1.914827 1.880790849211783e-38 1684957512
3.932358 -1.399666 -2.282264 0.000000000000000e+00 1634890835
3.520281 -1.443244 -2.096343 1.880790849211783e-38 1684957512
3.050864 -1.602594 -1.918492 1.880790849211783e-38 1684957512
3.060447 -1.797611 -1.981136 1.880790849211783e-38 1684957512
3.880085 -1.379686 -2.297239 0.000000000000000e+00 1634890835
3.499883 -1.434224 -2.126687 1.880790849211783e-38 1684957512
3.058906 -1.607473 -1.963954 1.880790849211783e-38 1684957512
3.040845 -1.787492 -2.010497 1.880790849211783e-38 1684957512
3.762169 -1.336415 -2.271773 0.000000000000000e+00 1634890835
3.591057 -1.470906 -2.226106 1.880790849211783e-38 1684957512
3.015154 -1.585133 -1.976099 1.880790849211783e-38 1684957512
3.036556 -1.786378 -2.050099 1.880790849211783e-38 1684957512
3.726779 -1.322500 -2.294750 0.000000000000000e+00 1634890835
3.530710 -1.445513 -2.232399 1.880790849211783e-38 1684957512
3.063491 -1.611214 -2.049087 1.880790849211783e-38 1684957512
3.033948 -1.786268 -2.091200 1.880790849211783e-38 1684957512
3.619695 -1.283184 -2.272305 0.000000000000000e+00 1634890835
3.460041 -1.415909 -2.230973 0.000000000000000e+00 1851878480
3.046336 -1.602863 -2.079131 1.880790849211783e-38 1684957512
3.019613 -1.779258 -2.124451 1.880790849211783e-38 1684957512
3.579768 -1.267715 -2.290679 0.000000000000000e+00 1634890835
3.504353 -1.433360 -2.303801 0.000000000000000e+00 1634890835
3.081962 -1.622295 -2.145906 1.880790849211783e-38 1684957512
3.049200 -1.798154 -2.189313 1.880790849211783e-38 1684957512
3.556310 -1.258087 -2.319257 0.000000000000000e+00 1634890835
3.393451 -1.387328 -2.274196 0.000000000000000e+00 1634890835
3.069063 -1.616197 -2.179677 1.880790849211783e-38 1684957512
3.025706 -1.785767 -2.216655 1.880790849211783e-38 1684957512
3.426757 -1.210975 -2.277203 0.000000000000000e+00 1634890835
3.363167 -1.374277 -2.297272 0.000000000000000e+00 1634890835
3.059308 -1.611757 -2.215848 1.880790849211783e-38 1684957512
2.985300 -1.763386 -2.231186 0.000000000000000e+00 1851878480
3.373118 -1.190744 -2.283767 0.000000000000000e+00 1634890835
3.320367 -1.356120 -2.311321 0.000000000000000e+00 1634890835
3.050673 -1.607913 -2.253070 1.880790849211783e-38 1684957512
2.944944 -1.741012 -2.245082 0.000000000000000e+00 1851878480
3.295076 -1.161933 -2.272603 0.000000000000000e+00 1634890835
3.229022 -1.318154 -2.290294 0.000000000000000e+00 1634890835
3.032221 -1.598895 -2.283165 0.000000000000000e+00 1851878480
2.868421 -1.697217 -2.230183 0.000000000000000e+00 1851878480
3.234348 -1.139271 -2.272072 0.000000000000000e+00 1634890835
3.167610 -1.292433 -2.288955 0.000000000000000e+00 1634890835
2.949743 -1.556102 -2.264107 0.000000000000000e+00 1851878480
2.833368 -1.677921 -2.246371 0.000000000000000e+00 1851878480
3.193511 -1.123639 -2.284668 0.000000000000000e+00 1634890835
3.129462 -1.276216 -2.303576 0.000000000000000e+00 1634890835
2.921892 -1.542108 -2.285889 0.000000000000000e+00 1851878480
2.816812 -1.669573 -2.276981 0.000000000000000e+00 1851878480
3.143345 -1.104747 -2.289875 0.000000000000000e+00 1634890835
3.057369 -1.246174 -2.292208 0.000000000000000e+00 1634890835
2.873696 -1.517370 -2.291162 0.000000000000000e+00 1851878480
2.740293 -1.625652 -2.258224 0.000000000000000e+00 1851878480
3.081078 -1.081634 -2.285263 0.000000000000000e+00 1634890835
3.008086 -1.225444 -2.296773 0.000000000000000e+00 1634890835
2.764010 -1.460130 -2.245574 0.000000000000000e+00 1851878480
0.852383 -0.506121 -0.716016 0.000000000000000e+00 1886740808
3.024315 -1.060486 -2.283630 0.000000000000000e+00 1634890835
2.988114 -1.216664 -2.323264 0.000000000000000e+00 1634890835
2.747828 -1.452267 -2.274586 0.000000000000000e+00 1851878480
0.839495 -0.498919 -0.718747 0.000000000000000e+00 1886740808
2.961982 -1.037420 -2.276672 0.000000000000000e+00 1634890835
2.881358 -1.172570 -2.281007 0.000000000000000e+00 1634890835
0.837460 -0.442821 -0.706248 0.000000000000000e+00 1886740808
0.839084 -0.499133 -0.732131 0.000000000000000e+00 1886740808
2.960330 -1.035618 -2.315977 0.000000000000000e+00 1634890835
2.844732 -1.157034 -2.292745 0.000000000000000e+00 1634890835
0.857201 -0.453478 -0.736400 0.000000000000000e+00 1886740808
0.825260 -0.491366 -0.733767 0.000000000000000e+00 1886740808
2.865353 -1.001194 -2.281435 0.000000000000000e+00 1634890835
2.822972 -1.147552 -2.316147 0.000000000000000e+00 1634890835
0.835291 -0.442103 -0.730916 0.000000000000000e+00 1886740808
0.784681 -0.467645 -0.710896 0.000000000000000e+00 1886740808
2.819502 -0.983980 -2.284548 0.000000000000000e+00 1634890835
2.770254 -1.125495 -2.313594 0.000000000000000e+00 1634890835
0.828667 -0.438815 -0.738538 0.000000000000000e+00 1886740808
0.768704 -0.458562 -0.709550 0.000000000000000e+00 1886740808
2.789857 -0.972437 -2.300238 0.000000000000000e+00 1634890835
0.848446 -0.344511 -0.721216 0.000000000000000e+00 1886740808
0.813413 -0.430955 -0.738302 0.000000000000000e+00 1886740808
0.765744 -0.457238 -0.720088 0.000000000000000e+00 1886740808
0.911590 -0.317350 -0.764752 0.000000000000000e+00 1886740808
0.905224 -0.367355 -0.783138 0.000000000000000e+00 1886740808
0.787890 -0.417645 -0.728262 0.000000000000000e+00 1886740808
0.745358 -0.445503 -0.714027 0.000000000000000e+00 1886740808
0.834422 -0.290119 -0.712207 0.000000000000000e+00 1886740808
0.817928 -0.331736 -0.720127 0.000000000000000e+00 1886740808
0.805976 -0.427453 -0.758606 0.000000000000000e+00 1886740808
0.752240 -0.450065 -0.734055 0.000000000000000e+00 1886740808
0.831833 -0.288848 -0.722318 0.000000000000000e+00 1886740808
0.796424 -0.322824 -0.713548 0.000000000000000e+00 1886740808
0.787987 -0.418132 -0.755195 0.000000000000000e+00 1886740808
0.774917 -0.464101 -0.770237 0.000000000000000e+00 1886740808
0.794823 -0.275638 -0.702117 0.000000000000000e+00 1886740808
0.793129 -0.321296 -0.723073 0.000000000000000e+00 1886740808
0.769743 -0.408669 -0.751121 0.000000000000000e+00 1886740808
0.776100 -0.465288 -0.785712 0.000000000000000e+00 1886740808
0.784950 -0.271855 -0.705349 0.000000000000000e+00 1886740808
0.774743 -0.313657 -0.718677 0.000000000000000e+00 1886740808
0.739964 -0.393071 -0.735153 0.000000000000000e+00 1886740808
0.770273 -0.462276 -0.794233 0.000000000000000e+00 1886740808
0.781990 -0.270466 -0.714768 0.000000000000000e+00 1886740808
0.778669 -0.315053 -0.734931 0.000000000000000e+00 1886740808
0.747060 -0.397059 -0.755630 0.000000000000000e+00 1886740808
0.753283 -0.452558 -0.791048 0.000000000000000e+00 1886740808
0.809433 -0.279577 -0.752536 0.000000000000000e+00 1886740808
0.749773 -0.303171 -0.719985 0.000000000000000e+00 1886740808
0.766254 -0.407488 -0.789038 0.000000000000000e+00 1886740808
0.775015 -0.466115 -0.828864 0.000000000000000e+00 1886740808
0.752832 -0.259667 -0.711888 0.000000000000000e+00 1886740808
0.758520 -0.306513 -0.741046 0.000000000000000e+00 1886740808
0.748867 -0.398467 -0.785034 0.000000000000000e+00 1886740808
2.112977 -1.272192 -2.301365 0.000000000000000e+00 1634890835
0.729176 -0.251154 -0.701290 0.000000000000000e+00 1886740808
0.763054 -0.308146 -0.758412 0.000000000000000e+00 1886740808
0.762866 -0.406150 -0.814106 0.000000000000000e+00 1886740808
2.054626 -1.238435 -2.278940 0.000000000000000e+00 1634890835
0.753348 -0.259110 -0.736888 0.000000000000000e+00 1886740808
0.766190 -0.309209 -0.774724 0.000000000000000e+00 1886740808
2.129074 -1.134183 -2.312943 0.000000000000000e+00 1634890835
1.994426 -1.203508 -2.252797 0.000000000000000e+00 1634890835
0.752336 -0.258385 -0.748423 0.000000000000000e+00 1886740808
0.802953 -0.323829 -0.825949 0.000000000000000e+00 1886740808
2.090042 -1.114054 -2.311348 0.000000000000000e+00 1634890835
0.815096 -0.492423 -0.937592 0.000000000000000e+00 1886740808
0.754620 -0.258787 -0.763459 0.000000000000000e+00 1886740808
0.808761 -0.325950 -0.846309 0.000000000000000e+00 1886740808
2.076524 -1.107518 -2.337657 0.000000000000000e+00 1634890835
0.791146 -0.478514 -0.926749 0.000000000000000e+00 1886740808
0.776838 -0.266006 -0.799289 0.000000000000000e+00 1886740808
0.785847 -0.316497 -0.836543 0.000000000000000e+00 1886740808
1.974566 -1.053787 -2.262812 0.000000000000000e+00 1634890835
0.778032 -0.471142 -0.928123 0.000000000000000e+00 1886740808
0.760520 -0.260020 -0.795787 0.000000000000000e+00 1886740808
2.119047 -0.852837 -2.294727 0.000000000000000e+00 1634890835
0.837522 -0.447250 -0.977033 0.000000000000000e+00 1886740808
0.771743 -0.467900 -0.937537 0.000000000000000e+00 1886740808
0.796233 -0.271806 -0.847301 0.000000000000000e+00 1886740808
2.052891 -0.825622 -2.261499 0.000000000000000e+00 1634890835
0.803016 -0.429097 -0.953624 0.000000000000000e+00 1886740808
0.776099 -0.471122 -0.960168 0.000000000000000e+00 1886740808
0.770334 -0.262548 -0.833658 0.000000000000000e+00 1886740808
2.061334 -0.828414 -2.310050 0.000000000000000e+00 1634890835
0.813959 -0.435227 -0.984016 0.000000000000000e+00 1886740808
1.816703 -1.104195 -2.288959 0.000000000000000e+00 1634890835
2.074426 -0.705871 -2.283079 0.000000000000000e+00 1634890835
2.014179 -0.808862 -2.296243 0.000000000000000e+00 1634890835
0.776673 -0.415567 -0.955862 0.000000000000000e+00 1886740808
1.777576 -1.081797 -2.280966 0.000000000000000e+00 1634890835
2.060459 -0.699965 -2.306247 0.000000000000000e+00 1634890835
1.992566 -0.799578 -2.310930 0.000000000000000e+00 1634890835
0.766429 -0.410361 -0.960278 0.000000000000000e+00 1886740808
0.757929 -0.461863 -0.990538 0.000000000000000e+00 1886740808
2.048855 -0.694854 -2.332271 0.000000000000000e+00 1634890835
1.943098 -0.779126 -2.292619 0.000000000000000e+00 1634890835
0.792455 -0.424588 -1.010841 0.000000000000000e+00 1886740808
1.724358 -1.052178 -2.295300 0.000000000000000e+00 1634890835
1.984673 -0.671934 -2.297691 0.000000000000000e+00 1634890835
0.819984 -0.328532 -0.984276 0.000000000000000e+00 1886740808
1.784471 -0.956772 -2.317491 0.000000000000000e+00 1634890835
1.694161 -1.035156 -2.296976 0.000000000000000e+00 1634890835
1.926491 -0.651097 -2.268378 0.000000000000000e+00 1634890835
0.780176 -0.312332 -0.952780 0.000000000000000e+00 1886740808
0.777502 -0.417168 -1.028087 0.000000000000000e+00 1886740808
1.663479 -1.017817 -2.297375 0.000000000000000e+00 1634890835
1.914634 -0.645938 -2.292944 0.000000000000000e+00 1634890835
0.782420 -0.312974 -0.972173 0.000000000000000e+00 1886740808
1.733969 -0.931038 -2.334591 0.000000000000000e+00 1634890835
1.624430 -0.995331 -2.285358 0.000000000000000e+00 1634890835
0.823931 -0.277463 -1.003630 0.000000000000000e+00 1886740808
0.769711 -0.307634 -0.973091 0.000000000000000e+00 1886740808
1.700499 -0.913748 -2.331375 0.000000000000000e+00 1634890835
1.582592 -0.971095 -2.268243 0.000000000000000e+00 1634890835
0.789752 -0.265459 -0.978512 0.000000000000000e+00 1886740808
0.768038 -0.306704 -0.987988 0.000000000000000e+00 1886740808
1.649014 -0.886757 -2.302256 0.000000000000000e+00 1634890835
1.580092 -0.970992 -2.307287 0.000000000000000e+00 1634890835
0.805235 -0.270149 -1.014869 0.000000000000000e+00 1886740808
0.792345 -0.316135 -1.037167 0.000000000000000e+00 1886740808
1.615309 -0.869309 -2.296722 0.000000000000000e+00 1634890835
1.504530 -0.925951 -2.238479 0.000000000000000e+00 1634890835
0.779340 -0.260954 -0.999192 0.000000000000000e+00 1886740808
1.715589 -0.683889 -2.285276 0.000000000000000e+00 1634890835
1.627403 -0.876513 -2.356699 0.000000000000000e+00 1634890835
1.501443 -0.925475 -2.276309 0.000000000000000e+00 1634890835
0.748289 -0.250061 -0.976001 0.000000000000000e+00 1886740808
1.679458 -0.668878 -2.276737 0.000000000000000e+00 1634890835
1.573814 -0.848339 -2.321421 0.000000000000000e+00 1634890835
1.500469 -0.926332 -2.318248 0.000000000000000e+00 1634890835
0.803551 -0.267983 -1.066302 0.000000000000000e+00 1886740808
0.774899 -0.308333 -1.069148 0.000000000000000e+00 1886740808
1.520990 -0.820547 -2.285372 0.000000000000000e+00 1634890835
1.444634 -0.893299 -2.274806 0.000000000000000e+00 1634890835
1.701297 -0.566202 -2.297007 0.000000000000000e+00 1634890835
1.622864 -0.645124 -2.279063 0.000000000000000e+00 1634890835
1.518751 -0.820036 -2.324816 0.000000000000000e+00 1634890835
1.429160 -0.885189 -2.293864 0.000000000000000e+00 1634890835
0.745649 -0.247629 -1.024384 0.000000000000000e+00 1886740808
1.617271 -0.642275 -2.311926 0.000000000000000e+00 1634890835
1.480782 -0.800233 -2.309451 0.000000000000000e+00 1634890835
1.422999 -0.882863 -2.328316 0.000000000000000e+00 1634890835
1.644583 -0.544975 -2.299139 0.000000000000000e+00 1634890835
1.610283 -0.638862 -2.343407 0.000000000000000e+00 1634890835
1.458247 -0.788757 -2.317456 0.000000000000000e+00 1634890835
1.366648 -0.849368 -2.279800 0.000000000000000e+00 1634890835
1.636094 -0.540954 -2.327743 0.000000000000000e+00 1634890835
1.525844 -0.604745 -2.260744 0.000000000000000e+00 1634890835
1.448071 -0.783968 -2.345221 0.000000000000000e+00 1634890835
1.333997 -0.830545 -2.269105 0.000000000000000e+00 1634890835
1.599245 -0.527562 -2.315787 0.000000000000000e+00 1634890835
1.532803 -0.606868 -2.312418 0.000000000000000e+00 1634890835
1.411263 -0.764756 -2.329532 0.000000000000000e+00 1634890835
1.302196 -0.812221 -2.258896 0.000000000000000e+00 1634890835
1.545733 -0.508713 -2.278327 0.000000000000000e+00 1634890835
1.468199 -0.580666 -2.255536 0.000000000000000e+00 1634890835
1.368511 -0.742301 -2.302677 0.000000000000000e+00 1634890835
1.284634 -0.802761 -2.272913 0.000000000000000e+00 1634890835
1.518119 -0.498424 -2.277877 0.000000000000000e+00 1634890835
1.461974 -0.577568 -2.287380 0.000000000000000e+00 1634890835
1.360321 -0.738585 -2.333515 0.000000000000000e+00 1634890835
1.269814 -0.795019 -2.291893 0.000000000000000e+00 1634890835
1.513198 -0.495579 -2.311585 0.000000000000000e+00 1634890835
1.435102 -0.566312 -2.287007 0.000000000000000e+00 1634890835
1.325954 -0.720653 -2.319242 0.000000000000000e+00 1634890835
1.239428 -0.777521 -2.282432 0.000000000000000e+00 1634890835
1.492550 -0.487578 -2.321579 0.000000000000000e+00 1634890835
1.419655 -0.559568 -2.304672 0.000000000000000e+00 1634890835
1.301284 -0.707980 -2.321164 0.000000000000000e+00 1634890835
1.221317 -0.767707 -2.295107 0.000000000000000e+00 1634890835
1.401147 -0.456526 -2.219378 0.000000000000000e+00 1634890835
1.393211 -0.548491 -2.304320 0.000000000000000e+00 1634890835
1.269639 -0.691499 -2.309944 0.000000000000000e+00 1634890835
1.177264 -0.741550 -2.258009 0.000000000000000e+00 1634890835
1.429047 -0.464368 -2.305385 0.000000000000000e+00 1634890835
1.356456 -0.533367 -2.286089 0.000000000000000e+00 1634890835
1.221455 -0.665985 -2.267056 0.000000000000000e+00 1634890835
1.174424 -0.741339 -2.299526 0.000000000000000e+00 1634890835
1.406666 -0.455836 -2.311514 0.000000000000000e+00 1634890835
1.325756 -0.520640 -2.277076 0.000000000000000e+00 1634890835
1.209528 -0.660227 -2.290569 0.000000000000000e+00 1634890835
1.155789 -0.731180 -2.310694 0.000000000000000e+00 1634890835
1.379079 -0.445628 -2.308690 0.000000000000000e+00 1634890835
1.306855 -0.512552 -2.287897 0.000000000000000e+00 1634890835
1.192862 -0.651885 -2.305389 0.000000000000000e+00 1634890835
1.147038 -0.727285 -2.341994 0.000000000000000e+00 1634890835
1.353050 -0.435938 -2.307955 0.000000000000000e+00 1634890835
1.284478 -0.503104 -2.292469 0.000000000000000e+00 1634890835
1.142370 -0.625039 -2.253597 0.000000000000000e+00 1634890835
1.097666 -0.697599 -2.289390 0.000000000000000e+00 1634890835
1.320783 -0.424260 -2.295891 0.000000000000000e+00 1634890835
1.250131 -0.488979 -2.274971 0.000000000000000e+00 1634890835
1.150921 -0.630491 -2.318048 0.000000000000000e+00 1634890835
1.089534 -0.694095 -2.321862 0.000000000000000e+00 1634890835
1.285016 -0.411489 -2.276706 0.000000000000000e+00 1634890835
1.240760 -0.484627 -2.302668 0.000000000000000e+00 1634890835
1.130861 -0.620289 -2.325903 0.000000000000000e+00 1634890835
1.040842 -0.664717 -2.266914 0.000000000000000e+00 1634890835
1.269906 -0.405346 -2.293642 0.000000000000000e+00 1634890835
1.222852 -0.476935 -2.314862 0.000000000000000e+00 1634890835
1.092797 -0.600195 -2.295780 0.000000000000000e+00 1634890835
1.028291 -0.658379 -2.289472 0.000000000000000e+00 1634890835
1.228409 -0.390804 -2.262213 0.000000000000000e+00 1634890835
1.199037 -0.466943 -2.315687 0.000000000000000e+00 1634890835
1.069818 -0.588370 -2.296241 0.000000000000000e+00 1634890835
1.022757 -0.656565 -2.328534 0.000000000000000e+00 1634890835
1.226962 -0.389007 -2.304316 0.000000000000000e+00 1634890835
1.183981 -0.460362 -2.333354 0.000000000000000e+00 1634890835
1.061043 -0.584358 -2.327398 0.000000000000000e+00 1634890835
0.981768 -0.631971 -2.286314 0.000000000000000e+00 1634890835
1.191542 -0.376441 -2.282601 0.000000000000000e+00 1634890835
1.145189 -0.444563 -2.303560 0.000000000000000e+00 1634890835
1.030680 -0.568454 -2.311060 0.000000000000000e+00 1634890835
0.961572 -0.620718 -2.291184 0.000000000000000e+00 1634890835
1.181699 -0.371965 -2.309564 0.000000000000000e+00 1634890835
1.104508 -0.428058 -2.268194 0.000000000000000e+00 1634890835
0.992320 -0.548115 -2.275177 0.000000000000000e+00 1634890835
0.961492 -0.622478 -2.344854 0.000000000000000e+00 1634890835
1.156092 -0.362525 -2.305770 0.000000000000000e+00 1634890835
1.100802 -0.425887 -2.308429 0.000000000000000e+00 1634890835
0.994781 -0.550323 -2.332913 0.000000000000000e+00 1634890835
0.912558 -0.592584 -2.278611 0.000000000000000e+00 1634890835
1.120887 -0.350106 -2.281858 0.000000000000000e+00 1634890835
1.084560 -0.418855 -2.323112 0.000000000000000e+00 1634890835
0.964134 -0.534223 -2.313422 0.000000000000000e+00 1634890835
0.885091 -0.576550 -2.263571 0.000000000000000e+00 1634890835
1.107544 -0.344529 -2.301965 0.000000000000000e+00 1634890835
1.063437 -0.409939 -2.327320 0.000000000000000e+00 1634890835
0.932227 -0.517401 -2.289456 0.000000000000000e+00 1634890835
0.875261 -0.572000 -2.293527 0.000000000000000e+00 1634890835
1.079701 -0.334448 -2.291738 0.000000000000000e+00 1634890835
1.013724 -0.390026 -2.267336 0.000000000000000e+00 1634890835
0.922490 -0.512879 -2.319633 0.000000000000000e+00 1634890835
0.865953 -0.567828 -2.325915 0.000000000000000e+00 1634890835
1.046826 -0.322840 -2.269751 0.000000000000000e+00 1634890835
1.010457 -0.387996 -2.310451 0.000000000000000e+00 1634890835
0.919618 -0.512196 -2.368503 0.000000000000000e+00 1634890835
0.842731 -0.554540 -2.321155 0.000000000000000e+00 1634890835
1.033412 -0.317247 -2.289515 0.000000000000000e+00 1634890835
1.002702 -0.384221 -2.344609 0.000000000000000e+00 1634890835
0.871236 -0.486150 -2.299223 0.000000000000000e+00 1634890835
0.445098 -0.293956 -1.257706 0.000000000000000e+00 1936876886
1.033946 -0.315901 -2.341344 0.000000000000000e+00 1634890835
0.968446 -0.370297 -2.316532 0.000000000000000e+00 1634890835
0.861937 -0.481892 -2.331740 0.000000000000000e+00 1634890835
0.449058 -0.297699 -1.302380 0.000000000000000e+00 1936876886
0.999652 -0.303911 -2.314463 0.000000000000000e+00 1634890835
0.934129 -0.356376 -2.286574 0.000000000000000e+00 1634890835
0.817710 -0.458087 -2.268572 0.000000000000000e+00 1634890835
0.447863 -0.298082 -1.333848 0.000000000000000e+00 1936876886
0.974838 -0.294835 -2.308405 0.000000000000000e+00 1634890835
0.920529 -0.350367 -2.306700 0.000000000000000e+00 1634890835
0.455301 -0.255598 -1.295985 0.000000000000000e+00 1936876886
0.353824 -0.236466 -1.082682 0.000000000000000e+00 1953264973
0.946105 -0.284601 -2.292179 0.000000000000000e+00 1634890835
0.904010 -0.343243 -2.319902 0.000000000000000e+00 1634890835
0.443385 -0.249454 -1.295512 0.000000000000000e+00 1936876886
0.312874 -0.210001 -0.984185 0.000000000000000e+00 1953264973
0.501314 -0.149951 -1.243102 0.000000000000000e+00 1936876886
0.886768 -0.335841 -2.331446 0.000000000000000e+00 1634890835
0.383803 -0.216426 -1.151727 0.000000000000000e+00 1953264973
0.286591 -0.193228 -0.927290 0.000000000000000e+00 1953264973
0.489609 -0.145585 -1.243084 0.000000000000000e+00 1936876886
0.860028 -0.324847 -2.317566 0.000000000000000e+00 1634890835
0.338702 -0.191451 -1.044423 0.000000000000000e+00 1953264973
0.261274 -0.176990 -0.870090 0.000000000000000e+00 1953264973
0.477571 -0.141127 -1.241998 0.000000000000000e+00 1936876886
0.828702 -0.312144 -2.289909 0.000000000000000e+00 1634890835
0.318793 -0.180649 -1.010727 0.000000000000000e+00 1953264973
0.236073 -0.160711 -0.809685 0.000000000000000e+00 1953264973
