# .PCD v0.7 - Point Cloud Data file format
VERSION 0.7
FIELDS x y z rgb label
SIZE 4 4 4 4 4
TYPE F F F F U
COUNT 1 1 1 1 1
WIDTH 543
HEIGHT 1
VIEWPOINT 0 0 0 1 0 0 0
POINTS 543
DATA ascii
45.362801 -17.268682 10.042823 0.000000000000000e+00 1954047316
44.338165 -18.750612 10.304963 0.000000000000000e+00 1954047316
41.390537 -23.112398 9.967690 0.000000000000000e+00 1954047316
35.254459 -13.116988 -1.919832 0.000000000000000e+00 1851878480
33.506500 -14.020516 -1.729217 0.000000000000000e+00 1851878480
30.780491 -15.879232 -1.357556 0.000000000000000e+00 1851878480
29.985041 -17.014416 -1.179706 0.000000000000000e+00 1851878480
31.362873 -11.660227 -1.992615 0.000000000000000e+00 1851878480
30.410633 -12.720617 -1.853902 0.000000000000000e+00 1851878480
28.932158 -14.930306 -1.564516 0.000000000000000e+00 1851878480
28.204435 -16.013485 -1.400618 0.000000000000000e+00 1851878480
29.038567 -10.787900 -2.108747 0.000000000000000e+00 1851878480
28.583561 -11.952196 -2.010110 0.000000000000000e+00 1851878480
27.443701 -14.166588 -1.757948 0.000000000000000e+00 1851878480
26.296988 -14.939315 -1.577489 0.000000000000000e+00 1851878480
27.056032 -10.043746 -2.210793 0.000000000000000e+00 1851878480
26.567385 -11.105226 -2.117283 0.000000000000000e+00 1851878480
25.812916 -13.328895 -1.911433 0.000000000000000e+00 1851878480
24.695122 -14.037564 -1.736781 0.000000000000000e+00 1851878480
24.523766 -9.096800 -2.227107 0.000000000000000e+00 1851878480
24.616192 -10.286008 -2.192724 0.000000000000000e+00 1851878480
23.920069 -12.355314 -2.010620 0.000000000000000e+00 1851878480
23.146181 -13.164884 -1.867561 0.000000000000000e+00 1851878480
22.270571 -8.254711 -2.225441 0.000000000000000e+00 1851878480
22.484592 -9.392014 -2.214055 0.000000000000000e+00 1851878480
21.851437 -11.290329 -2.055715 0.000000000000000e+00 1851878480
21.447510 -12.205945 -1.952978 0.000000000000000e+00 1851878480
20.456476 -7.576529 -2.230834 0.000000000000000e+00 1851878480
20.602764 -8.602920 -2.222558 0.000000000000000e+00 1851878480
20.381992 -10.534352 -2.122054 0.000000000000000e+00 1851878480
19.890266 -11.326425 -2.017860 0.000000000000000e+00 1851878480
18.966724 -7.019397 -2.241709 0.000000000000000e+00 1851878480
18.996716 -7.929500 -2.228283 0.000000000000000e+00 1851878480
19.113739 -9.881943 -2.182209 0.000000000000000e+00 1851878480
18.736378 -10.675680 -2.095871 0.000000000000000e+00 1851878480
17.594090 -6.506409 -2.240530 0.000000000000000e+00 1851878480
17.683838 -7.378876 -2.241184 0.000000000000000e+00 1851878480
17.731668 -9.170261 -2.203069 0.000000000000000e+00 1851878480
17.821383 -10.160376 -2.179451 0.000000000000000e+00 1851878480
16.399456 -6.059974 -2.238788 0.000000000000000e+00 1851878480
16.423098 -6.850389 -2.236699 0.000000000000000e+00 1851878480
16.455759 -8.513064 -2.210692 0.000000000000000e+00 1851878480
16.524429 -9.426573 -2.193634 0.000000000000000e+00 1851878480
15.356063 -5.670059 -2.237438 0.000000000000000e+00 1851878480
15.414550 -6.427417 -2.245394 0.000000000000000e+00 1851878480
15.448369 -7.994413 -2.231686 0.000000000000000e+00 1851878480
15.371490 -8.774108 -2.201700 0.000000000000000e+00 1851878480
14.490897 -5.346475 -2.244797 0.000000000000000e+00 1851878480
14.522953 -6.053493 -2.253421 0.000000000000000e+00 1851878480
14.511491 -7.511945 -2.243546 0.000000000000000e+00 1851878480
14.438842 -8.246686 -2.219849 0.000000000000000e+00 1851878480
13.638173 -5.027976 -2.238547 0.000000000000000e+00 1851878480
13.639681 -5.683304 -2.246190 0.000000000000000e+00 1851878480
13.633155 -7.059496 -2.246403 0.000000000000000e+00 1851878480
13.603660 -7.774343 -2.234796 0.000000000000000e+00 1851878480
12.900983 -4.752511 -2.236874 0.000000000000000e+00 1851878480
12.882178 -5.365748 -2.244360 0.000000000000000e+00 1851878480
12.864246 -6.663444 -2.250899 0.000000000000000e+00 1851878480
12.854157 -7.350435 -2.247514 0.000000000000000e+00 1851878480
12.218769 -4.497694 -2.231892 0.000000000000000e+00 1851878480
12.212339 -5.084927 -2.244494 0.000000000000000e+00 1851878480
12.065733 -6.251810 -2.234590 0.000000000000000e+00 1851878480
12.110707 -6.929496 -2.245906 0.000000000000000e+00 1851878480
11.682928 -4.297101 -2.242639 0.000000000000000e+00 1851878480
11.580417 -4.820074 -2.239449 0.000000000000000e+00 1851878480
11.482946 -5.951730 -2.244464 0.000000000000000e+00 1851878480
11.418159 -6.537186 -2.238904 0.000000000000000e+00 1851878480
11.156466 -4.100252 -2.245603 0.000000000000000e+00 1851878480
11.071402 -4.606543 -2.247541 0.000000000000000e+00 1851878480
10.925018 -5.664349 -2.247855 0.000000000000000e+00 1851878480
10.853294 -6.217564 -2.243957 0.000000000000000e+00 1851878480
10.650285 -3.911148 -2.243316 0.000000000000000e+00 1851878480
10.554990 -4.390087 -2.244579 0.000000000000000e+00 1851878480
10.399521 -5.393613 -2.247131 0.000000000000000e+00 1851878480
10.292831 -5.900086 -2.238303 0.000000000000000e+00 1851878480
10.118579 -3.712965 -2.226246 0.000000000000000e+00 1851878480
10.111232 -4.203989 -2.248121 0.000000000000000e+00 1851878480
9.890723 -5.131382 -2.239700 0.000000000000000e+00 1851878480
9.839568 -5.643719 -2.245502 0.000000000000000e+00 1851878480
9.779047 -3.585539 -2.243582 0.000000000000000e+00 1851878480
9.690339 -4.027526 -2.248692 0.000000000000000e+00 1851878480
9.529401 -4.945514 -2.257010 0.000000000000000e+00 1851878480
9.344274 -5.362924 -2.233300 0.000000000000000e+00 1851878480
9.370081 -3.432866 -2.238247 0.000000000000000e+00 1851878480
9.265635 -3.849601 -2.240484 0.000000000000000e+00 1851878480
9.090768 -4.719400 -2.248055 0.000000000000000e+00 1851878480
8.999098 -5.168006 -2.248302 0.000000000000000e+00 1851878480
9.039066 -3.308955 -2.244849 0.000000000000000e+00 1851878480
8.936484 -3.711484 -2.248355 0.000000000000000e+00 1851878480
8.703592 -4.519865 -2.243568 0.000000000000000e+00 1851878480
8.642216 -4.966126 -2.253169 0.000000000000000e+00 1851878480
8.710580 -3.186161 -2.246139 0.000000000000000e+00 1851878480
8.559527 -3.553618 -2.237613 0.000000000000000e+00 1851878480
8.381855 -4.354201 -2.248887 0.000000000000000e+00 1851878480
8.249409 -4.743355 -2.240908 0.000000000000000e+00 1851878480
8.378592 -3.062268 -2.240553 0.000000000000000e+00 1851878480
8.310069 -3.448774 -2.254378 0.000000000000000e+00 1851878480
8.039371 -4.177657 -2.242017 0.000000000000000e+00 1851878480
7.906341 -4.548936 -2.234512 0.000000000000000e+00 1851878480
8.129326 -2.968767 -2.251852 0.000000000000000e+00 1851878480
7.987251 -3.313571 -2.245928 0.000000000000000e+00 1851878480
7.784244 -4.046404 -2.253563 0.000000000000000e+00 1851878480
7.661270 -4.410698 -2.249754 0.000000000000000e+00 1851878480
7.820629 -2.853716 -2.241651 0.000000000000000e+00 1851878480
7.722946 -3.202726 -2.248446 0.000000000000000e+00 1851878480
7.449605 -3.873733 -2.236196 0.000000000000000e+00 1851878480
7.349099 -4.233644 -2.239543 0.000000000000000e+00 1851878480
7.548116 -2.752037 -2.236542 0.000000000000000e+00 1851878480
7.473941 -3.098299 -2.250648 0.000000000000000e+00 1851878480
7.261017 -3.776922 -2.257464 0.000000000000000e+00 1851878480
7.139828 -4.115698 -2.255312 0.000000000000000e+00 1851878480
7.324580 -2.668351 -2.241468 0.000000000000000e+00 1851878480
7.221974 -2.992720 -2.247289 0.000000000000000e+00 1851878480
7.035188 -3.660671 -2.263088 0.000000000000000e+00 1851878480
6.874068 -3.965022 -2.248347 0.000000000000000e+00 1851878480
7.063982 -2.571305 -2.230673 0.000000000000000e+00 1851878480
6.977249 -2.890213 -2.241537 0.000000000000000e+00 1851878480
6.797846 -3.538359 -2.260401 0.000000000000000e+00 1851878480
6.608558 -3.814314 -2.235918 0.000000000000000e+00 1851878480
6.895271 -2.507818 -2.245025 0.000000000000000e+00 1851878480
6.766658 -2.801910 -2.242496 0.000000000000000e+00 1851878480
6.532736 -3.401510 -2.243414 0.000000000000000e+00 1851878480
6.437112 -3.717752 -2.250799 0.000000000000000e+00 1851878480
6.704857 -2.436538 -2.249117 0.000000000000000e+00 1851878480
6.543132 -2.708317 -2.235109 0.000000000000000e+00 1851878480
6.366895 -3.316285 -2.256209 0.000000000000000e+00 1851878480
6.262613 -3.619309 -2.261104 0.000000000000000e+00 1851878480
6.517010 -2.366297 -2.250674 0.000000000000000e+00 1851878480
6.422871 -2.657514 -2.259841 0.000000000000000e+00 1851878480
6.183760 -3.221992 -2.259440 0.000000000000000e+00 1851878480
6.019108 -3.480849 -2.242144 0.000000000000000e+00 1851878480
6.296446 -2.284292 -2.237217 0.000000000000000e+00 1851878480
6.188848 -2.559696 -2.241267 0.000000000000000e+00 1851878480
5.957514 -3.105172 -2.242797 0.000000000000000e+00 1851878480
5.821572 -3.368818 -2.235664 0.000000000000000e+00 1851878480
6.144103 -2.227139 -2.244622 0.000000000000000e+00 1851878480
6.001461 -2.481223 -2.235589 0.000000000000000e+00 1851878480
5.806247 -3.027370 -2.250589 0.000000000000000e+00 1851878480
5.704462 -3.303224 -2.256860 0.000000000000000e+00 1851878480
5.997579 -2.172179 -2.251496 0.000000000000000e+00 1851878480
5.870779 -2.426246 -2.248093 0.000000000000000e+00 1851878480
5.637825 -2.940575 -2.248559 0.000000000000000e+00 1851878480
5.483348 -3.177287 -2.233396 0.000000000000000e+00 1851878480
5.823279 -2.107250 -2.245054 0.000000000000000e+00 1851878480
5.734044 -2.368804 -2.255850 0.000000000000000e+00 1851878480
5.473976 -2.856109 -2.245019 0.000000000000000e+00 1851878480
5.316756 -3.082814 -2.228029 0.000000000000000e+00 1851878480
5.677985 -2.052904 -2.246898 0.000000000000000e+00 1851878480
5.588805 -2.307887 -2.257665 0.000000000000000e+00 1851878480
5.323643 -2.778647 -2.243872 0.000000000000000e+00 1851878480
5.217356 -3.027209 -2.248112 0.000000000000000e+00 1851878480
5.494020 -1.984670 -2.230428 0.000000000000000e+00 1851878480
5.421716 -2.237993 -2.247721 0.000000000000000e+00 1851878480
5.230017 -2.730744 -2.264257 0.000000000000000e+00 1851878480
5.056986 -2.936146 -2.239273 0.000000000000000e+00 1851878480
5.368659 -1.937694 -2.234927 0.000000000000000e+00 1851878480
5.255231 -2.168402 -2.234852 0.000000000000000e+00 1851878480
5.081332 -2.654056 -2.258439 0.000000000000000e+00 1851878480
4.913795 -2.854949 -2.234848 0.000000000000000e+00 1851878480
5.269169 -1.900115 -2.248226 0.000000000000000e+00 1851878480
5.158418 -2.127593 -2.249164 0.000000000000000e+00 1851878480
4.906921 -2.563876 -2.237866 0.000000000000000e+00 1851878480
4.797105 -2.789064 -2.239783 0.000000000000000e+00 1851878480
5.139254 -1.851627 -2.246515 0.000000000000000e+00 1851878480
5.026652 -2.072402 -2.246147 0.000000000000000e+00 1851878480
4.817730 -2.518183 -2.253510 0.000000000000000e+00 1851878480
4.684126 -2.725255 -2.244102 0.000000000000000e+00 1851878480
5.009044 -1.803107 -2.242312 0.000000000000000e+00 1851878480
4.948121 -2.039187 -2.265017 0.000000000000000e+00 1851878480
4.730918 -2.473703 -2.268624 0.000000000000000e+00 1851878480
4.593273 -2.674258 -2.256976 0.000000000000000e+00 1851878480
4.899050 -1.761932 -2.244991 0.000000000000000e+00 1851878480
4.795163 -1.975336 -2.247670 0.000000000000000e+00 1851878480
4.607384 -2.409993 -2.264069 0.000000000000000e+00 1851878480
4.483527 -2.612192 -2.258543 0.000000000000000e+00 1851878480
4.785972 -1.719705 -2.244256 0.000000000000000e+00 1851878480
4.662574 -1.919917 -2.237113 0.000000000000000e+00 1851878480
4.445766 -2.326313 -2.237833 0.000000000000000e+00 1851878480
4.337243 -2.528750 -2.238975 0.000000000000000e+00 1851878480
4.660036 -1.672929 -2.235303 0.000000000000000e+00 1851878480
4.585664 -1.887454 -2.251334 0.000000000000000e+00 1851878480
4.397488 -2.301908 -2.266561 0.000000000000000e+00 1851878480
4.225330 -2.465257 -2.234369 0.000000000000000e+00 1851878480
4.607016 -1.652375 -2.259774 0.000000000000000e+00 1851878480
4.513348 -1.856904 -2.266536 0.000000000000000e+00 1851878480
4.248628 -2.224819 -2.241492 0.000000000000000e+00 1851878480
4.181857 -2.441645 -2.264450 0.000000000000000e+00 1851878480
4.429597 -1.587273 -2.221099 0.000000000000000e+00 1851878480
4.404118 -1.811190 -2.261553 0.000000000000000e+00 1851878480
4.215639 -2.208378 -2.275778 0.000000000000000e+00 1851878480
4.079804 -2.383787 -2.261419 0.000000000000000e+00 1851878480
4.352938 -1.558346 -2.230547 0.000000000000000e+00 1851878480
4.307510 -1.770697 -2.261115 0.000000000000000e+00 1851878480
4.083176 -2.139802 -2.254769 0.000000000000000e+00 1851878480
3.937854 -2.302526 -2.233601 0.000000000000000e+00 1851878480
4.270453 -1.527379 -2.235636 0.000000000000000e+00 1851878480
4.223864 -1.735560 -2.265823 0.000000000000000e+00 1851878480
4.037501 -2.116681 -2.279923 0.000000000000000e+00 1851878480
3.913977 -2.290254 -2.271077 0.000000000000000e+00 1851878480
4.159205 -1.486175 -2.223896 0.000000000000000e+00 1851878480
4.101826 -1.684677 -2.247968 0.000000000000000e+00 1851878480
3.884168 -2.037085 -2.242238 0.000000000000000e+00 1851878480
3.797284 -2.223623 -2.253328 0.000000000000000e+00 1851878480
4.120358 -1.470884 -2.249578 0.000000000000000e+00 1851878480
4.058942 -1.666330 -2.271986 0.000000000000000e+00 1851878480
3.828993 -2.008935 -2.259038 0.000000000000000e+00 1851878480
3.754153 -2.200019 -2.277602 0.000000000000000e+00 1851878480
3.994793 -1.424681 -2.226447 0.000000000000000e+00 1851878480
3.935355 -1.614874 -2.249288 0.000000000000000e+00 1851878480
3.756688 -1.971778 -2.264563 0.000000000000000e+00 1851878480
3.651099 -2.141248 -2.264054 0.000000000000000e+00 1851878480
4.010185 -1.428776 -2.281023 0.000000000000000e+00 1634890835
3.881558 -1.592081 -2.264798 0.000000000000000e+00 1851878480
3.632795 -1.907512 -2.236924 0.000000000000000e+00 1851878480
3.541674 -2.078663 -2.244180 0.000000000000000e+00 1851878480
3.933012 -1.399898 -2.282643 0.000000000000000e+00 1634890835
3.749052 -1.537035 -2.232577 0.000000000000000e+00 1851878480
3.604235 -1.893275 -2.266472 0.000000000000000e+00 1851878480
3.429662 -2.014477 -2.220142 0.000000000000000e+00 1851878480
3.889558 -1.383054 -2.302848 0.000000000000000e+00 1634890835
3.769169 -1.544575 -2.290317 0.000000000000000e+00 1851878480
3.509093 -1.844048 -2.252994 0.000000000000000e+00 1851878480
3.367751 -1.979656 -2.226635 0.000000000000000e+00 1851878480
3.798968 -1.349487 -2.293994 0.000000000000000e+00 1634890835
3.646411 -1.493580 -2.260420 0.000000000000000e+00 1851878480
3.435915 -1.806337 -2.251862 0.000000000000000e+00 1851878480
3.331471 -1.959874 -2.249207 0.000000000000000e+00 1851878480
3.626970 -1.287081 -2.233293 0.000000000000000e+00 1634890835
3.572383 -1.462574 -2.258747 0.000000000000000e+00 1851878480
3.338375 -1.755787 -2.232950 0.000000000000000e+00 1851878480
3.254249 -1.915972 -2.243046 0.000000000000000e+00 1851878480
3.611190 -1.280169 -2.266967 0.000000000000000e+00 1634890835
3.534870 -1.446530 -2.279220 0.000000000000000e+00 1851878480
3.296410 -1.734442 -2.249806 0.000000000000000e+00 1851878480
3.169349 -1.867487 -2.229798 0.000000000000000e+00 1851878480
3.598791 -1.274451 -2.302852 0.000000000000000e+00 1634890835
3.487372 -1.426414 -2.292638 0.000000000000000e+00 1634890835
3.221462 -1.695725 -2.243036 0.000000000000000e+00 1851878480
3.153851 -1.859868 -2.264452 0.000000000000000e+00 1851878480
3.513322 -1.242880 -2.291222 0.000000000000000e+00 1634890835
3.416399 -1.396709 -2.289575 0.000000000000000e+00 1634890835
3.199125 -1.684688 -2.272048 0.000000000000000e+00 1851878480
3.041279 -1.794959 -2.228064 0.000000000000000e+00 1851878480
3.434640 -1.213761 -2.282441 0.000000000000000e+00 1634890835
3.373303 -1.378418 -2.304196 0.000000000000000e+00 1634890835
3.106236 -1.636480 -2.249838 0.000000000000000e+00 1851878480
3.031416 -1.790626 -2.265652 0.000000000000000e+00 1851878480
3.386250 -1.195380 -2.292658 0.000000000000000e+00 1634890835
3.285311 -1.341803 -2.286919 0.000000000000000e+00 1634890835
3.051095 -1.608135 -2.253382 0.000000000000000e+00 1851878480
3.038918 -1.796568 -2.316723 0.000000000000000e+00 1851878480
3.329050 -1.173913 -2.296034 0.000000000000000e+00 1634890835
3.270520 -1.335095 -2.319729 0.000000000000000e+00 1634890835
3.007607 -1.585916 -2.264631 0.000000000000000e+00 1851878480
2.884567 -1.706770 -2.242737 0.000000000000000e+00 1851878480
3.243180 -1.142382 -2.278276 0.000000000000000e+00 1634890835
3.125310 -1.275174 -2.258389 0.000000000000000e+00 1634890835
2.925095 -1.543099 -2.245188 0.000000000000000e+00 1851878480
2.877752 -1.704205 -2.281560 0.000000000000000e+00 1851878480
3.168415 -1.114809 -2.266715 0.000000000000000e+00 1634890835
3.128628 -1.275876 -2.302963 0.000000000000000e+00 1634890835
2.908384 -1.534979 -2.275321 0.000000000000000e+00 1851878480
2.779069 -1.647202 -2.246472 0.000000000000000e+00 1851878480
3.138659 -1.103100 -2.286461 0.000000000000000e+00 1634890835
3.044228 -1.240818 -2.282355 0.000000000000000e+00 1634890835
2.832613 -1.495677 -2.258406 0.000000000000000e+00 1851878480
2.754607 -1.634143 -2.270020 0.000000000000000e+00 1851878480
3.110287 -1.091888 -2.306928 0.000000000000000e+00 1634890835
2.977830 -1.213119 -2.273672 0.000000000000000e+00 1634890835
2.805609 -1.482106 -2.279370 0.000000000000000e+00 1851878480
0.840863 -0.499280 -0.706339 0.000000000000000e+00 1886740808
2.990294 -1.048556 -2.257941 0.000000000000000e+00 1634890835
2.939931 -1.197046 -2.285802 0.000000000000000e+00 1634890835
2.719951 -1.437534 -2.251510 0.000000000000000e+00 1851878480
0.826101 -0.490959 -0.707280 0.000000000000000e+00 1886740808
2.965196 -1.038546 -2.279142 0.000000000000000e+00 1634890835
2.879191 -1.171688 -2.279291 0.000000000000000e+00 1634890835
0.845571 -0.447110 -0.713088 0.000000000000000e+00 1886740808
0.821155 -0.488468 -0.716488 0.000000000000000e+00 1886740808
2.941820 -1.029143 -2.301496 0.000000000000000e+00 1634890835
2.845244 -1.157242 -2.293158 0.000000000000000e+00 1634890835
0.821763 -0.434730 -0.705955 0.000000000000000e+00 1886740808
0.769784 -0.458335 -0.684442 0.000000000000000e+00 1886740808
2.846217 -0.994508 -2.266199 0.000000000000000e+00 1634890835
2.801434 -1.138797 -2.298476 0.000000000000000e+00 1634890835
0.846719 -0.448152 -0.740916 0.000000000000000e+00 1886740808
0.782596 -0.466402 -0.709008 0.000000000000000e+00 1886740808
2.861124 -0.998506 -2.318274 0.000000000000000e+00 1634890835
2.772370 -1.126355 -2.315361 0.000000000000000e+00 1634890835
0.829630 -0.439326 -0.739397 0.000000000000000e+00 1886740808
0.774774 -0.462183 -0.715153 0.000000000000000e+00 1886740808
2.776345 -0.967728 -2.289098 0.000000000000000e+00 1634890835
0.848418 -0.344499 -0.721192 0.000000000000000e+00 1886740808
0.794918 -0.421156 -0.721515 0.000000000000000e+00 1886740808
0.774337 -0.462369 -0.728168 0.000000000000000e+00 1886740808
0.829199 -0.288667 -0.695632 0.000000000000000e+00 1886740808
0.883870 -0.358689 -0.764664 0.000000000000000e+00 1886740808
0.813016 -0.430964 -0.751487 0.000000000000000e+00 1886740808
0.771683 -0.461237 -0.739246 0.000000000000000e+00 1886740808
0.866979 -0.301438 -0.739996 0.000000000000000e+00 1886740808
0.867679 -0.351914 -0.763929 0.000000000000000e+00 1886740808
0.753584 -0.399667 -0.709292 0.000000000000000e+00 1886740808
0.738035 -0.441566 -0.720192 0.000000000000000e+00 1886740808
0.816944 -0.283678 -0.709389 0.000000000000000e+00 1886740808
0.798360 -0.323608 -0.715282 0.000000000000000e+00 1886740808
0.762095 -0.404393 -0.730380 0.000000000000000e+00 1886740808
0.743542 -0.445311 -0.739052 0.000000000000000e+00 1886740808
0.792028 -0.274668 -0.699647 0.000000000000000e+00 1886740808
0.778184 -0.315242 -0.709449 0.000000000000000e+00 1886740808
0.770591 -0.409119 -0.751948 0.000000000000000e+00 1886740808
0.777306 -0.466010 -0.786932 0.000000000000000e+00 1886740808
0.816102 -0.282644 -0.733342 0.000000000000000e+00 1886740808
0.755930 -0.306041 -0.701226 0.000000000000000e+00 1886740808
0.807029 -0.428697 -0.801783 0.000000000000000e+00 1886740808
0.750430 -0.450367 -0.773772 0.000000000000000e+00 1886740808
0.782091 -0.270501 -0.714860 0.000000000000000e+00 1886740808
0.791188 -0.320118 -0.746747 0.000000000000000e+00 1886740808
0.762122 -0.405064 -0.770865 0.000000000000000e+00 1886740808
0.761833 -0.457694 -0.800027 0.000000000000000e+00 1886740808
0.751454 -0.259551 -0.698633 0.000000000000000e+00 1886740808
0.754283 -0.304995 -0.724316 0.000000000000000e+00 1886740808
0.762567 -0.405527 -0.785241 0.000000000000000e+00 1886740808
0.687504 -0.413484 -0.735273 0.000000000000000e+00 1886740808
0.730864 -0.252090 -0.691114 0.000000000000000e+00 1886740808
0.766802 -0.309860 -0.749138 0.000000000000000e+00 1886740808
0.771002 -0.410245 -0.808238 0.000000000000000e+00 1886740808
2.087384 -1.256783 -2.273490 0.000000000000000e+00 1634890835
0.760639 -0.261991 -0.731550 0.000000000000000e+00 1886740808
0.750631 -0.303129 -0.746065 0.000000000000000e+00 1886740808
0.795275 -0.423405 -0.848692 0.000000000000000e+00 1886740808
2.106449 -1.269671 -2.336421 0.000000000000000e+00 1634890835
0.749958 -0.257944 -0.733572 0.000000000000000e+00 1886740808
0.817626 -0.329967 -0.826733 0.000000000000000e+00 1886740808
2.124075 -1.131520 -2.307512 0.000000000000000e+00 1634890835
2.022364 -1.220367 -2.284355 0.000000000000000e+00 1634890835
0.774284 -0.265923 -0.770257 0.000000000000000e+00 1886740808
0.716616 -0.289010 -0.737139 0.000000000000000e+00 1886740808
2.099593 -1.119145 -2.321910 0.000000000000000e+00 1634890835
0.848414 -0.512552 -0.975917 0.000000000000000e+00 1886740808
0.800031 -0.274360 -0.809402 0.000000000000000e+00 1886740808
0.766998 -0.309119 -0.802607 0.000000000000000e+00 1886740808
2.046257 -1.091375 -2.303584 0.000000000000000e+00 1634890835
0.800999 -0.484473 -0.938290 0.000000000000000e+00 1886740808
0.724649 -0.248135 -0.745592 0.000000000000000e+00 1886740808
0.753814 -0.303595 -0.802443 0.000000000000000e+00 1886740808
1.998876 -1.066761 -2.290672 0.000000000000000e+00 1634890835
0.757601 -0.458770 -0.903751 0.000000000000000e+00 1886740808
0.764091 -0.261241 -0.799524 0.000000000000000e+00 1886740808
2.129927 -0.857216 -2.306509 0.000000000000000e+00 1634890835
0.823761 -0.439902 -0.960980 0.000000000000000e+00 1886740808
0.784312 -0.475521 -0.952806 0.000000000000000e+00 1886740808
0.771453 -0.263347 -0.820932 0.000000000000000e+00 1886740808
2.058048 -0.827696 -2.267180 0.000000000000000e+00 1634890835
0.801814 -0.428455 -0.952196 0.000000000000000e+00 1886740808
0.755451 -0.458588 -0.934622 0.000000000000000e+00 1886740808
0.780104 -0.265878 -0.844231 0.000000000000000e+00 1886740808
2.083810 -0.837446 -2.335238 0.000000000000000e+00 1634890835
0.817081 -0.436897 -0.987791 0.000000000000000e+00 1886740808
1.794926 -1.090959 -2.261521 0.000000000000000e+00 1634890835
2.086708 -0.710051 -2.296596 0.000000000000000e+00 1634890835
2.018165 -0.810463 -2.300788 0.000000000000000e+00 1634890835
0.789743 -0.422560 -0.971947 0.000000000000000e+00 1886740808
1.775475 -1.080518 -2.278270 0.000000000000000e+00 1634890835
2.044777 -0.694638 -2.288694 0.000000000000000e+00 1634890835
1.968647 -0.789979 -2.283189 0.000000000000000e+00 1634890835
0.772862 -0.413806 -0.968338 0.000000000000000e+00 1886740808
0.775248 -0.472416 -1.013171 0.000000000000000e+00 1886740808
2.004249 -0.679726 -2.281494 0.000000000000000e+00 1634890835
1.922885 -0.771022 -2.268771 0.000000000000000e+00 1634890835
0.788740 -0.422598 -1.006102 0.000000000000000e+00 1886740808
1.714372 -1.046085 -2.282007 0.000000000000000e+00 1634890835
1.953039 -0.661224 -2.261066 0.000000000000000e+00 1634890835
0.814416 -0.326301 -0.977593 0.000000000000000e+00 1886740808
1.800273 -0.965244 -2.338013 0.000000000000000e+00 1634890835
1.692384 -1.034071 -2.294568 0.000000000000000e+00 1634890835
1.945262 -0.657441 -2.290480 0.000000000000000e+00 1634890835
0.823221 -0.329565 -1.005348 0.000000000000000e+00 1886740808
0.791848 -0.424866 -1.047056 0.000000000000000e+00 1886740808
1.694808 -1.036987 -2.340644 0.000000000000000e+00 1634890835
1.906839 -0.643308 -2.283609 0.000000000000000e+00 1634890835
0.793768 -0.317514 -0.986274 0.000000000000000e+00 1886740808
1.748944 -0.939078 -2.354752 0.000000000000000e+00 1634890835
1.655672 -1.014473 -2.329312 0.000000000000000e+00 1634890835
0.786791 -0.264956 -0.958389 0.000000000000000e+00 1886740808
0.776038 -0.310162 -0.981090 0.000000000000000e+00 1886740808
1.687244 -0.906625 -2.313202 0.000000000000000e+00 1634890835
1.632387 -1.001650 -2.339612 0.000000000000000e+00 1634890835
0.810901 -0.272568 -1.004716 0.000000000000000e+00 1886740808
0.782795 -0.312597 -1.006971 0.000000000000000e+00 1886740808
1.651679 -0.888191 -2.305976 0.000000000000000e+00 1634890835
1.573472 -0.966924 -2.297621 0.000000000000000e+00 1634890835
0.815548 -0.273609 -1.027867 0.000000000000000e+00 1886740808
0.786802 -0.313924 -1.029912 0.000000000000000e+00 1886740808
1.614438 -0.868840 -2.295483 0.000000000000000e+00 1634890835
1.530961 -0.942218 -2.277804 0.000000000000000e+00 1634890835
0.780294 -0.261274 -1.000415 0.000000000000000e+00 1886740808
1.757623 -0.700645 -2.341269 0.000000000000000e+00 1634890835
1.604891 -0.864388 -2.324099 0.000000000000000e+00 1634890835
1.507818 -0.929404 -2.285974 0.000000000000000e+00 1634890835
0.771647 -0.257867 -1.006467 0.000000000000000e+00 1886740808
1.726223 -0.687503 -2.340135 0.000000000000000e+00 1634890835
1.579735 -0.851531 -2.330155 0.000000000000000e+00 1634890835
1.473224 -0.909512 -2.276155 0.000000000000000e+00 1634890835
0.742122 -0.247496 -0.984787 0.000000000000000e+00 1886740808
0.766185 -0.304865 -1.057125 0.000000000000000e+00 1886740808
1.545183 -0.833599 -2.321724 0.000000000000000e+00 1634890835
1.442124 -0.891747 -2.270854 0.000000000000000e+00 1634890835
1.676130 -0.557826 -2.263026 0.000000000000000e+00 1634890835
1.632373 -0.648904 -2.292418 0.000000000000000e+00 1634890835
1.519665 -0.820529 -2.326215 0.000000000000000e+00 1634890835
1.429970 -0.885691 -2.295166 0.000000000000000e+00 1634890835
0.764801 -0.253989 -1.050696 0.000000000000000e+00 1886740808
1.624570 -0.645174 -2.322361 0.000000000000000e+00 1634890835
1.473357 -0.796221 -2.297871 0.000000000000000e+00 1634890835
1.390964 -0.862988 -2.275900 0.000000000000000e+00 1634890835
1.686933 -0.559009 -2.358344 0.000000000000000e+00 1634890835
1.609058 -0.638376 -2.341624 0.000000000000000e+00 1634890835
1.471292 -0.795812 -2.338186 0.000000000000000e+00 1634890835
1.391646 -0.864904 -2.321501 0.000000000000000e+00 1634890835
1.623228 -0.536700 -2.309438 0.000000000000000e+00 1634890835
1.517950 -0.601616 -2.249048 0.000000000000000e+00 1634890835
1.431814 -0.775167 -2.318891 0.000000000000000e+00 1634890835
1.352370 -0.841985 -2.300358 0.000000000000000e+00 1634890835
1.565852 -0.516547 -2.267432 0.000000000000000e+00 1634890835
1.506297 -0.596374 -2.272431 0.000000000000000e+00 1634890835
1.401353 -0.759385 -2.313174 0.000000000000000e+00 1634890835
1.298625 -0.809994 -2.252701 0.000000000000000e+00 1634890835
1.565413 -0.515190 -2.307334 0.000000000000000e+00 1634890835
1.494015 -0.590876 -2.295195 0.000000000000000e+00 1634890835
1.389744 -0.753818 -2.338404 0.000000000000000e+00 1634890835
1.316569 -0.822717 -2.329414 0.000000000000000e+00 1634890835
1.507972 -0.495092 -2.262650 0.000000000000000e+00 1634890835
1.469808 -0.580662 -2.299637 0.000000000000000e+00 1634890835
1.370420 -0.744068 -2.350839 0.000000000000000e+00 1634890835
1.278848 -0.800675 -2.308197 0.000000000000000e+00 1634890835
1.493628 -0.489170 -2.281690 0.000000000000000e+00 1634890835
1.449471 -0.571982 -2.309906 0.000000000000000e+00 1634890835
1.317055 -0.715816 -2.303676 0.000000000000000e+00 1634890835
1.231852 -0.772768 -2.268481 0.000000000000000e+00 1634890835
1.442992 -0.471389 -2.244494 0.000000000000000e+00 1634890835
1.407505 -0.554779 -2.284947 0.000000000000000e+00 1634890835
1.313436 -0.714591 -2.342841 0.000000000000000e+00 1634890835
1.223632 -0.769162 -2.299457 0.000000000000000e+00 1634890835
1.457101 -0.474757 -2.308007 0.000000000000000e+00 1634890835
1.387187 -0.546120 -2.294358 0.000000000000000e+00 1634890835
1.274401 -0.694093 -2.318609 0.000000000000000e+00 1634890835
1.208607 -0.761292 -2.318124 0.000000000000000e+00 1634890835
1.428480 -0.464184 -2.304470 0.000000000000000e+00 1634890835
1.385022 -0.544599 -2.334233 0.000000000000000e+00 1634890835
1.253503 -0.683459 -2.326538 0.000000000000000e+00 1634890835
1.183404 -0.747008 -2.317109 0.000000000000000e+00 1634890835
1.377746 -0.446464 -2.263991 0.000000000000000e+00 1634890835
1.340480 -0.526422 -2.302365 0.000000000000000e+00 1634890835
1.224966 -0.668654 -2.319805 0.000000000000000e+00 1634890835
1.160432 -0.734117 -2.319976 0.000000000000000e+00 1634890835
1.371622 -0.443218 -2.296207 0.000000000000000e+00 1634890835
1.321121 -0.518147 -2.312872 0.000000000000000e+00 1634890835
1.217584 -0.665394 -2.353167 0.000000000000000e+00 1634890835
1.144454 -0.725646 -2.336717 0.000000000000000e+00 1634890835
1.357838 -0.437480 -2.316122 0.000000000000000e+00 1634890835
1.286695 -0.503973 -2.296425 0.000000000000000e+00 1634890835
1.169965 -0.640137 -2.308033 0.000000000000000e+00 1634890835
1.093058 -0.694671 -2.279780 0.000000000000000e+00 1634890835
1.297790 -0.416874 -2.255922 0.000000000000000e+00 1634890835
1.252108 -0.489752 -2.278568 0.000000000000000e+00 1634890835
1.169550 -0.640697 -2.355569 0.000000000000000e+00 1634890835
1.065999 -0.679102 -2.271707 0.000000000000000e+00 1634890835
1.288817 -0.412706 -2.283442 0.000000000000000e+00 1634890835
1.242038 -0.485126 -2.305039 0.000000000000000e+00 1634890835
1.128700 -0.619103 -2.321457 0.000000000000000e+00 1634890835
1.051626 -0.671604 -2.290402 0.000000000000000e+00 1634890835
1.264712 -0.403688 -2.284261 0.000000000000000e+00 1634890835
1.218525 -0.475247 -2.306670 0.000000000000000e+00 1634890835
1.131613 -0.621514 -2.377326 0.000000000000000e+00 1634890835
1.028603 -0.658579 -2.290169 0.000000000000000e+00 1634890835
1.246037 -0.396412 -2.294677 0.000000000000000e+00 1634890835
1.212312 -0.472112 -2.341325 0.000000000000000e+00 1634890835
1.073406 -0.590343 -2.303942 0.000000000000000e+00 1634890835
1.001184 -0.642716 -2.279417 0.000000000000000e+00 1634890835
1.220832 -0.387064 -2.292803 0.000000000000000e+00 1634890835
1.175354 -0.457008 -2.316353 0.000000000000000e+00 1634890835
1.055576 -0.581347 -2.315405 0.000000000000000e+00 1634890835
0.982984 -0.632754 -2.289146 0.000000000000000e+00 1634890835
1.213850 -0.383489 -2.325336 0.000000000000000e+00 1634890835
1.153939 -0.447960 -2.321161 0.000000000000000e+00 1634890835
1.037959 -0.572469 -2.327381 0.000000000000000e+00 1634890835
0.969889 -0.626087 -2.311003 0.000000000000000e+00 1634890835
1.202430 -0.378491 -2.350083 0.000000000000000e+00 1634890835
1.119009 -0.433678 -2.297972 0.000000000000000e+00 1634890835
1.016034 -0.561214 -2.329546 0.000000000000000e+00 1634890835
0.939081 -0.607969 -2.290200 0.000000000000000e+00 1634890835
1.106164 -0.346869 -2.206191 0.000000000000000e+00 1634890835
1.100515 -0.425776 -2.307827 0.000000000000000e+00 1634890835
0.990094 -0.547730 -2.321919 0.000000000000000e+00 1634890835
0.936742 -0.608288 -2.338999 0.000000000000000e+00 1634890835
1.137956 -0.355437 -2.316606 0.000000000000000e+00 1634890835
1.077666 -0.416193 -2.308344 0.000000000000000e+00 1634890835
0.971860 -0.538504 -2.331961 0.000000000000000e+00 1634890835
0.913007 -0.594734 -2.334962 0.000000000000000e+00 1634890835
1.089039 -0.338772 -2.263503 0.000000000000000e+00 1634890835
1.055685 -0.406950 -2.310354 0.000000000000000e+00 1634890835
0.950560 -0.527576 -2.334481 0.000000000000000e+00 1634890835
0.893753 -0.584085 -2.341983 0.000000000000000e+00 1634890835
1.072058 -0.332080 -2.275515 0.000000000000000e+00 1634890835
1.041455 -0.400695 -2.329360 0.000000000000000e+00 1634890835
0.925253 -0.514415 -2.326581 0.000000000000000e+00 1634890835
0.859323 -0.563481 -2.308107 0.000000000000000e+00 1634890835
1.060302 -0.326996 -2.298969 0.000000000000000e+00 1634890835
1.014443 -0.389526 -2.319566 0.000000000000000e+00 1634890835
0.880698 -0.490519 -2.268264 0.000000000000000e+00 1634890835
0.856476 -0.563585 -2.359015 0.000000000000000e+00 1634890835
1.017735 -0.312435 -2.254784 0.000000000000000e+00 1634890835
0.993330 -0.380630 -2.322694 0.000000000000000e+00 1634890835
0.885451 -0.494082 -2.336738 0.000000000000000e+00 1634890835
0.457734 -0.302301 -1.293412 0.000000000000000e+00 1936876886
1.010294 -0.308675 -2.287784 0.000000000000000e+00 1634890835
0.955833 -0.365474 -2.286360 0.000000000000000e+00 1634890835
0.847997 -0.474099 -2.294031 0.000000000000000e+00 1634890835
0.438909 -0.290971 -1.272946 0.000000000000000e+00 1936876886
0.982859 -0.298805 -2.275582 0.000000000000000e+00 1634890835
0.942913 -0.359727 -2.308077 0.000000000000000e+00 1634890835
0.838732 -0.469863 -2.326892 0.000000000000000e+00 1634890835
0.434031 -0.288876 -1.292654 0.000000000000000e+00 1936876886
0.974706 -0.294795 -2.308093 0.000000000000000e+00 1634890835
0.917701 -0.349291 -2.299613 0.000000000000000e+00 1634890835
0.469311 -0.263463 -1.335863 0.000000000000000e+00 1936876886
0.331739 -0.221707 -1.015105 0.000000000000000e+00 1953264973
0.931029 -0.280066 -2.255652 0.000000000000000e+00 1634890835
0.891939 -0.338660 -2.288924 0.000000000000000e+00 1634890835
0.459955 -0.258776 -1.343928 0.000000000000000e+00 1936876886
0.330918 -0.222112 -1.040944 0.000000000000000e+00 1953264973
0.518556 -0.155108 -1.285855 0.000000000000000e+00 1936876886
0.868455 -0.328905 -2.283296 0.000000000000000e+00 1634890835
0.387416 -0.218463 -1.162569 0.000000000000000e+00 1953264973
0.284594 -0.191881 -0.920827 0.000000000000000e+00 1953264973
0.489691 -0.145609 -1.243295 0.000000000000000e+00 1936876886
0.864751 -0.326631 -2.330293 0.000000000000000e+00 1634890835
0.338905 -0.191565 -1.045047 0.000000000000000e+00 1953264973
0.259905 -0.176063 -0.865532 0.000000000000000e+00 1953264973
0.471666 -0.139383 -1.226642 0.000000000000000e+00 1936876886
0.815169 -0.307047 -2.252515 0.000000000000000e+00 1634890835
0.312973 -0.177351 -0.992275 0.000000000000000e+00 1953264973
0.249769 -0.170035 -0.856660 0.000000000000000e+00 1953264973
