# .PCD v0.7 - Point Cloud Data file format
VERSION 0.7
FIELDS x y z rgb label
SIZE 4 4 4 4 4
TYPE F F F F U
COUNT 1 1 1 1 1
WIDTH 528
HEIGHT 1
VIEWPOINT 0 0 0 1 0 0 0
POINTS 528
DATA ascii
33.238655 -16.964996 9.974972 0.000000000000000e+00 1954047316
30.953236 -11.499204 -2.247787 0.000000000000000e+00 1851878480
27.234604 -10.110036 -2.225385 0.000000000000000e+00 1851878480
27.690260 -11.574590 -2.206771 0.000000000000000e+00 1851878480
30.441086 -15.718721 -2.254145 0.000000000000000e+00 1851878480
24.357798 -9.035235 -2.212034 0.000000000000000e+00 1851878480
24.484371 -10.230927 -2.180982 0.000000000000000e+00 1851878480
24.013699 -12.403678 -2.018490 0.000000000000000e+00 1851878480
23.647047 -13.449762 -1.907973 0.000000000000000e+00 1851878480
22.173170 -8.218609 -2.215708 0.000000000000000e+00 1851878480
22.351521 -9.336429 -2.200953 0.000000000000000e+00 1851878480
21.998789 -11.366464 -2.069577 0.000000000000000e+00 1851878480
21.593746 -12.289171 -1.966294 0.000000000000000e+00 1851878480
20.368813 -7.544060 -2.221273 0.000000000000000e+00 1851878480
20.430407 -8.530950 -2.203964 0.000000000000000e+00 1851878480
20.363344 -10.524714 -2.120114 0.000000000000000e+00 1851878480
19.972536 -11.373274 -2.026206 0.000000000000000e+00 1851878480
18.884743 -6.989056 -2.232019 0.000000000000000e+00 1851878480
18.894794 -7.886955 -2.216327 0.000000000000000e+00 1851878480
18.957720 -9.801279 -2.164396 0.000000000000000e+00 1851878480
18.783825 -10.702712 -2.101178 0.000000000000000e+00 1851878480
17.592007 -6.505639 -2.240264 0.000000000000000e+00 1851878480
17.611530 -7.348703 -2.232021 0.000000000000000e+00 1851878480
17.632950 -9.119206 -2.190803 0.000000000000000e+00 1851878480
17.731762 -10.109281 -2.168491 0.000000000000000e+00 1851878480
16.437353 -6.073978 -2.243961 0.000000000000000e+00 1851878480
16.434950 -6.855333 -2.238313 0.000000000000000e+00 1851878480
16.516859 -8.544674 -2.218900 0.000000000000000e+00 1851878480
16.541178 -9.436128 -2.195858 0.000000000000000e+00 1851878480
15.398300 -5.685654 -2.243593 0.000000000000000e+00 1851878480
15.400980 -6.421759 -2.243418 0.000000000000000e+00 1851878480
15.400147 -7.969458 -2.224719 0.000000000000000e+00 1851878480
15.421614 -8.802718 -2.208880 0.000000000000000e+00 1851878480
14.440331 -5.327818 -2.236964 0.000000000000000e+00 1851878480
14.421406 -6.011166 -2.237665 0.000000000000000e+00 1851878480
14.480754 -7.496034 -2.238794 0.000000000000000e+00 1851878480
14.489974 -8.275889 -2.227710 0.000000000000000e+00 1851878480
13.650027 -5.032346 -2.240493 0.000000000000000e+00 1851878480
13.610439 -5.671119 -2.241375 0.000000000000000e+00 1851878480
13.627387 -7.056509 -2.245453 0.000000000000000e+00 1851878480
13.591494 -7.767390 -2.232797 0.000000000000000e+00 1851878480
12.909603 -4.755687 -2.238369 0.000000000000000e+00 1851878480
12.882949 -5.366069 -2.244494 0.000000000000000e+00 1851878480
12.837944 -6.649820 -2.246297 0.000000000000000e+00 1851878480
12.817880 -7.329690 -2.241170 0.000000000000000e+00 1851878480
12.231690 -4.502451 -2.234252 0.000000000000000e+00 1851878480
12.212080 -5.084819 -2.244447 0.000000000000000e+00 1851878480
12.114120 -6.276882 -2.243552 0.000000000000000e+00 1851878480
12.088569 -6.916829 -2.241800 0.000000000000000e+00 1851878480
11.678545 -4.295489 -2.241798 0.000000000000000e+00 1851878480
11.578969 -4.819471 -2.239170 0.000000000000000e+00 1851878480
11.523029 -5.972505 -2.252298 0.000000000000000e+00 1851878480
11.459070 -6.560608 -2.246925 0.000000000000000e+00 1851878480
11.188215 -4.111920 -2.251993 0.000000000000000e+00 1851878480
11.080108 -4.610165 -2.249308 0.000000000000000e+00 1851878480
10.952800 -5.678753 -2.253571 0.000000000000000e+00 1851878480
10.843982 -6.212229 -2.242032 0.000000000000000e+00 1851878480
10.650332 -3.911166 -2.243326 0.000000000000000e+00 1851878480
10.564672 -4.394114 -2.246638 0.000000000000000e+00 1851878480
10.436304 -5.412690 -2.255079 0.000000000000000e+00 1851878480
10.278665 -5.891965 -2.235223 0.000000000000000e+00 1851878480
10.184921 -3.737309 -2.240842 0.000000000000000e+00 1851878480
10.106591 -4.202059 -2.247089 0.000000000000000e+00 1851878480
9.949478 -5.161864 -2.253005 0.000000000000000e+00 1851878480
9.880968 -5.667464 -2.254949 0.000000000000000e+00 1851878480
9.802544 -3.594154 -2.248973 0.000000000000000e+00 1851878480
9.660878 -4.015282 -2.241855 0.000000000000000e+00 1851878480
9.489007 -4.924551 -2.247443 0.000000000000000e+00 1851878480
9.394127 -5.391537 -2.245215 0.000000000000000e+00 1851878480
9.383589 -3.437814 -2.241474 0.000000000000000e+00 1851878480
9.321259 -3.872711 -2.253934 0.000000000000000e+00 1851878480
9.081003 -4.714331 -2.245641 0.000000000000000e+00 1851878480
9.015056 -5.177170 -2.252289 0.000000000000000e+00 1851878480
9.008239 -3.297670 -2.237194 0.000000000000000e+00 1851878480
8.939249 -3.712632 -2.249051 0.000000000000000e+00 1851878480
8.718330 -4.527518 -2.247367 0.000000000000000e+00 1851878480
8.596783 -4.940018 -2.241323 0.000000000000000e+00 1851878480
8.692319 -3.179481 -2.241431 0.000000000000000e+00 1851878480
8.643569 -3.588509 -2.259583 0.000000000000000e+00 1851878480
8.392584 -4.359775 -2.251766 0.000000000000000e+00 1851878480
8.245328 -4.741009 -2.239799 0.000000000000000e+00 1851878480
8.407347 -3.072777 -2.248242 0.000000000000000e+00 1851878480
8.263995 -3.429653 -2.241879 0.000000000000000e+00 1851878480
8.052683 -4.184574 -2.245729 0.000000000000000e+00 1851878480
7.949558 -4.573802 -2.246726 0.000000000000000e+00 1851878480
8.059378 -2.943222 -2.232476 0.000000000000000e+00 1851878480
7.977744 -3.309627 -2.243255 0.000000000000000e+00 1851878480
7.802388 -4.055836 -2.258816 0.000000000000000e+00 1851878480
7.644643 -4.401126 -2.244872 0.000000000000000e+00 1851878480
7.829575 -2.856980 -2.244215 0.000000000000000e+00 1851878480
7.672949 -3.181992 -2.233891 0.000000000000000e+00 1851878480
7.501975 -3.900965 -2.251916 0.000000000000000e+00 1851878480
7.338647 -4.227623 -2.236358 0.000000000000000e+00 1851878480
7.585026 -2.765494 -2.247479 0.000000000000000e+00 1851878480
7.452527 -3.089422 -2.244200 0.000000000000000e+00 1851878480
7.225850 -3.758629 -2.246530 0.000000000000000e+00 1851878480
7.085735 -4.084517 -2.238225 0.000000000000000e+00 1851878480
7.323707 -2.668033 -2.241201 0.000000000000000e+00 1851878480
7.209210 -2.987431 -2.243317 0.000000000000000e+00 1851878480
7.050320 -3.668545 -2.267956 0.000000000000000e+00 1851878480
6.826106 -3.937357 -2.232660 0.000000000000000e+00 1851878480
7.087258 -2.579777 -2.238023 0.000000000000000e+00 1851878480
7.012485 -2.904809 -2.252857 0.000000000000000e+00 1851878480
6.739087 -3.507774 -2.240862 0.000000000000000e+00 1851878480
6.632814 -3.828314 -2.244125 0.000000000000000e+00 1851878480
6.872055 -2.499374 -2.237466 0.000000000000000e+00 1851878480
6.757988 -2.798320 -2.239623 0.000000000000000e+00 1851878480
6.616925 -3.445345 -2.272326 0.000000000000000e+00 1851878480
6.426692 -3.711734 -2.247155 0.000000000000000e+00 1851878480
6.714665 -2.440102 -2.252408 0.000000000000000e+00 1851878480
6.581151 -2.724053 -2.248096 0.000000000000000e+00 1851878480
6.373572 -3.319763 -2.258575 0.000000000000000e+00 1851878480
6.200224 -3.583253 -2.238579 0.000000000000000e+00 1851878480
6.476046 -2.351423 -2.236527 0.000000000000000e+00 1851878480
6.386049 -2.642279 -2.246886 0.000000000000000e+00 1851878480
6.202652 -3.231836 -2.266343 0.000000000000000e+00 1851878480
6.029113 -3.486635 -2.245871 0.000000000000000e+00 1851878480
6.294334 -2.283526 -2.236467 0.000000000000000e+00 1851878480
6.232698 -2.577833 -2.257147 0.000000000000000e+00 1851878480
5.985176 -3.119590 -2.253211 0.000000000000000e+00 1851878480
5.803629 -3.358435 -2.228773 0.000000000000000e+00 1851878480
6.168825 -2.236101 -2.253653 0.000000000000000e+00 1851878480
6.074905 -2.511588 -2.262948 0.000000000000000e+00 1851878480
5.791995 -3.019939 -2.245065 0.000000000000000e+00 1851878480
5.677389 -3.287547 -2.246149 0.000000000000000e+00 1851878480
5.982788 -2.166823 -2.245944 0.000000000000000e+00 1851878480
5.832314 -2.410349 -2.233363 0.000000000000000e+00 1851878480
5.655046 -2.949557 -2.255427 0.000000000000000e+00 1851878480
5.471760 -3.170573 -2.228676 0.000000000000000e+00 1851878480
5.853911 -2.118335 -2.256863 0.000000000000000e+00 1851878480
5.686734 -2.349259 -2.237237 0.000000000000000e+00 1851878480
5.458928 -2.848258 -2.238847 0.000000000000000e+00 1851878480
5.366168 -3.111464 -2.248735 0.000000000000000e+00 1851878480
5.650417 -2.042937 -2.235989 0.000000000000000e+00 1851878480
5.600054 -2.312533 -2.262210 0.000000000000000e+00 1851878480
5.353101 -2.794023 -2.256288 0.000000000000000e+00 1851878480
5.203259 -3.019029 -2.242038 0.000000000000000e+00 1851878480
5.448851 -1.968353 -2.212091 0.000000000000000e+00 1851878480
5.387846 -2.224012 -2.233680 0.000000000000000e+00 1851878480
5.212204 -2.721443 -2.256545 0.000000000000000e+00 1851878480
5.027250 -2.918880 -2.226106 0.000000000000000e+00 1851878480
5.394881 -1.947158 -2.245843 0.000000000000000e+00 1851878480
5.376698 -2.218522 -2.286507 0.000000000000000e+00 1851878480
5.131068 -2.680034 -2.280545 0.000000000000000e+00 1851878480
4.970629 -2.887970 -2.260696 0.000000000000000e+00 1851878480
5.260107 -1.896847 -2.244359 0.000000000000000e+00 1851878480
5.180022 -2.136504 -2.258584 0.000000000000000e+00 1851878480
4.948920 -2.585820 -2.257020 0.000000000000000e+00 1851878480
4.795384 -2.788063 -2.238979 0.000000000000000e+00 1851878480
5.128863 -1.847883 -2.241973 0.000000000000000e+00 1851878480
5.017466 -2.068615 -2.242042 0.000000000000000e+00 1851878480
4.808358 -2.513285 -2.249126 0.000000000000000e+00 1851878480
4.701986 -2.735647 -2.252659 0.000000000000000e+00 1851878480
5.011784 -1.804094 -2.243539 0.000000000000000e+00 1851878480
4.883533 -2.012570 -2.235452 0.000000000000000e+00 1851878480
4.749401 -2.483367 -2.277487 0.000000000000000e+00 1851878480
4.575831 -2.664103 -2.248406 0.000000000000000e+00 1851878480
4.923443 -1.770705 -2.256169 0.000000000000000e+00 1851878480
4.784127 -1.970789 -2.242497 0.000000000000000e+00 1851878480
4.616851 -2.414945 -2.268722 0.000000000000000e+00 1851878480
4.452541 -2.594140 -2.242934 0.000000000000000e+00 1851878480
4.789256 -1.720885 -2.245796 0.000000000000000e+00 1851878480
4.727005 -1.946448 -2.268027 0.000000000000000e+00 1851878480
4.470200 -2.339098 -2.250132 0.000000000000000e+00 1851878480
4.352736 -2.537783 -2.246973 0.000000000000000e+00 1851878480
4.687063 -1.682631 -2.248267 0.000000000000000e+00 1851878480
4.567924 -1.880152 -2.242625 0.000000000000000e+00 1851878480
4.410245 -2.308586 -2.273136 0.000000000000000e+00 1851878480
4.258103 -2.484378 -2.251700 0.000000000000000e+00 1851878480
4.556367 -1.634209 -2.234930 0.000000000000000e+00 1851878480
4.522426 -1.860638 -2.271095 0.000000000000000e+00 1851878480
4.258202 -2.229833 -2.246544 0.000000000000000e+00 1851878480
4.142453 -2.418639 -2.243114 0.000000000000000e+00 1851878480
4.472480 -1.602640 -2.242601 0.000000000000000e+00 1851878480
4.397454 -1.808450 -2.258131 0.000000000000000e+00 1851878480
4.131361 -2.164229 -2.230281 0.000000000000000e+00 1851878480
4.068104 -2.376951 -2.254933 0.000000000000000e+00 1851878480
4.381008 -1.568395 -2.244931 0.000000000000000e+00 1851878480
4.274763 -1.757236 -2.243926 0.000000000000000e+00 1851878480
4.071616 -2.133744 -2.248385 0.000000000000000e+00 1851878480
3.923879 -2.294355 -2.225675 0.000000000000000e+00 1851878480
4.286377 -1.533074 -2.243972 0.000000000000000e+00 1851878480
4.207914 -1.729006 -2.257267 0.000000000000000e+00 1851878480
3.992095 -2.092877 -2.254282 0.000000000000000e+00 1851878480
3.910314 -2.288111 -2.268952 0.000000000000000e+00 1851878480
4.221549 -1.508451 -2.257231 0.000000000000000e+00 1851878480
4.103584 -1.685400 -2.248931 0.000000000000000e+00 1851878480
3.894126 -2.042308 -2.247987 0.000000000000000e+00 1851878480
3.816620 -2.234946 -2.264802 0.000000000000000e+00 1851878480
4.139508 -1.477720 -2.260033 0.000000000000000e+00 1851878480
4.050740 -1.662962 -2.267394 0.000000000000000e+00 1851878480
3.839017 -2.014195 -2.264953 0.000000000000000e+00 1851878480
3.675830 -2.154120 -2.230085 0.000000000000000e+00 1851878480
4.109164 -1.465470 -2.290190 0.000000000000000e+00 1634890835
3.937215 -1.615637 -2.250351 0.000000000000000e+00 1851878480
3.754534 -1.970648 -2.263265 0.000000000000000e+00 1851878480
3.639139 -2.134234 -2.256638 0.000000000000000e+00 1851878480
4.043102 -1.440503 -2.299747 0.000000000000000e+00 1634890835
3.852959 -1.580351 -2.248112 0.000000000000000e+00 1851878480
3.701976 -1.943838 -2.279522 0.000000000000000e+00 1851878480
3.538041 -2.076530 -2.241878 0.000000000000000e+00 1851878480
3.959460 -1.409312 -2.297994 0.000000000000000e+00 1634890835
3.826732 -1.568882 -2.278836 0.000000000000000e+00 1851878480
3.594719 -1.888277 -2.260488 0.000000000000000e+00 1851878480
3.458447 -2.031384 -2.238775 0.000000000000000e+00 1851878480
3.812205 -1.355549 -2.257050 0.000000000000000e+00 1634890835
3.753140 -1.538006 -2.280577 0.000000000000000e+00 1851878480
3.520338 -1.849958 -2.260214 0.000000000000000e+00 1851878480
3.410213 -2.004616 -2.254710 0.000000000000000e+00 1851878480
3.794876 -1.348033 -2.291523 0.000000000000000e+00 1634890835
3.648408 -1.494398 -2.261658 0.000000000000000e+00 1851878480
3.502745 -1.841470 -2.295661 0.000000000000000e+00 1851878480
3.347831 -1.969498 -2.260252 0.000000000000000e+00 1851878480
3.690712 -1.309701 -2.272542 0.000000000000000e+00 1634890835
3.371730 -1.773329 -2.255261 0.000000000000000e+00 1851878480
3.272754 -1.926867 -2.255801 0.000000000000000e+00 1851878480
3.659634 -1.297342 -2.297378 0.000000000000000e+00 1634890835
3.560521 -1.457027 -2.295760 0.000000000000000e+00 1634890835
3.360626 -1.768229 -2.293634 0.000000000000000e+00 1851878480
3.199355 -1.885168 -2.250909 0.000000000000000e+00 1851878480
3.618992 -1.281605 -2.315778 0.000000000000000e+00 1634890835
3.445572 -1.409317 -2.265158 0.000000000000000e+00 1634890835
3.214072 -1.691836 -2.237891 0.000000000000000e+00 1851878480
3.154308 -1.860137 -2.264780 0.000000000000000e+00 1851878480
3.498023 -1.237468 -2.281245 0.000000000000000e+00 1634890835
3.478497 -1.422097 -2.331192 0.000000000000000e+00 1634890835
3.214909 -1.693000 -2.283258 0.000000000000000e+00 1851878480
3.042457 -1.795653 -2.228927 0.000000000000000e+00 1851878480
3.474047 -1.227687 -2.308629 0.000000000000000e+00 1634890835
3.356694 -1.371632 -2.292851 0.000000000000000e+00 1634890835
3.125958 -1.646871 -2.264123 0.000000000000000e+00 1851878480
2.983746 -1.762468 -2.230024 0.000000000000000e+00 1851878480
3.386056 -1.195312 -2.292527 0.000000000000000e+00 1634890835
3.275263 -1.337699 -2.279924 0.000000000000000e+00 1634890835
3.041996 -1.603339 -2.246661 0.000000000000000e+00 1851878480
2.952659 -1.745573 -2.250963 0.000000000000000e+00 1851878480
3.316300 -1.169417 -2.287241 0.000000000000000e+00 1634890835
3.271781 -1.335609 -2.320623 0.000000000000000e+00 1634890835
3.000643 -1.582244 -2.259388 0.000000000000000e+00 1851878480
2.869699 -1.697973 -2.231177 0.000000000000000e+00 1851878480
3.299830 -1.162336 -2.318071 0.000000000000000e+00 1634890835
3.168405 -1.292757 -2.289529 0.000000000000000e+00 1634890835
2.954127 -1.558415 -2.267471 0.000000000000000e+00 1851878480
2.839519 -1.681563 -2.251248 0.000000000000000e+00 1851878480
3.210249 -1.129529 -2.296643 0.000000000000000e+00 1634890835
3.118846 -1.271887 -2.295763 0.000000000000000e+00 1634890835
2.882240 -1.521180 -2.254867 0.000000000000000e+00 1851878480
2.759242 -1.635450 -2.230445 0.000000000000000e+00 1851878480
3.169836 -1.114058 -2.309173 0.000000000000000e+00 1634890835
3.000961 -1.223182 -2.249917 0.000000000000000e+00 1634890835
2.910270 -1.536682 -2.320322 0.000000000000000e+00 1851878480
2.700699 -1.602163 -2.225596 0.000000000000000e+00 1851878480
3.089263 -1.084507 -2.291333 0.000000000000000e+00 1634890835
2.982582 -1.215054 -2.277300 0.000000000000000e+00 1634890835
2.796830 -1.477468 -2.272238 0.000000000000000e+00 1851878480
0.828021 -0.491655 -0.695551 0.000000000000000e+00 1886740808
3.002713 -1.052911 -2.267318 0.000000000000000e+00 1634890835
2.969306 -1.209006 -2.308641 0.000000000000000e+00 1634890835
2.801218 -1.480484 -2.318781 0.000000000000000e+00 1634890835
0.813278 -0.483338 -0.696301 0.000000000000000e+00 1886740808
2.964731 -1.038383 -2.278785 0.000000000000000e+00 1634890835
2.869042 -1.167557 -2.271257 0.000000000000000e+00 1634890835
0.868918 -0.459455 -0.732776 0.000000000000000e+00 1886740808
0.802645 -0.477457 -0.700337 0.000000000000000e+00 1886740808
2.937245 -1.027543 -2.297917 0.000000000000000e+00 1634890835
2.859099 -1.162877 -2.304324 0.000000000000000e+00 1634890835
0.858455 -0.454141 -0.737476 0.000000000000000e+00 1886740808
0.848819 -0.505393 -0.754714 0.000000000000000e+00 1886740808
2.863030 -1.000382 -2.279585 0.000000000000000e+00 1634890835
2.806988 -1.141055 -2.303033 0.000000000000000e+00 1634890835
0.797956 -0.422343 -0.698246 0.000000000000000e+00 1886740808
0.791724 -0.471842 -0.717277 0.000000000000000e+00 1886740808
2.817443 -0.983262 -2.282881 0.000000000000000e+00 1634890835
2.734505 -1.110971 -2.283739 0.000000000000000e+00 1634890835
0.822836 -0.435728 -0.733342 0.000000000000000e+00 1886740808
0.781591 -0.466249 -0.721445 0.000000000000000e+00 1886740808
2.814140 -0.980901 -2.320260 0.000000000000000e+00 1634890835
0.828822 -0.336543 -0.704535 0.000000000000000e+00 1886740808
0.785393 -0.416110 -0.712870 0.000000000000000e+00 1886740808
0.775291 -0.462939 -0.729066 0.000000000000000e+00 1886740808
0.853414 -0.297097 -0.715947 0.000000000000000e+00 1886740808
0.845410 -0.343081 -0.731391 0.000000000000000e+00 1886740808
0.768587 -0.407413 -0.710420 0.000000000000000e+00 1886740808
0.740819 -0.442789 -0.709679 0.000000000000000e+00 1886740808
0.827632 -0.287758 -0.706412 0.000000000000000e+00 1886740808
0.799208 -0.324143 -0.703645 0.000000000000000e+00 1886740808
0.756094 -0.400998 -0.711655 0.000000000000000e+00 1886740808
0.766245 -0.458444 -0.747720 0.000000000000000e+00 1886740808
0.842383 -0.292512 -0.731480 0.000000000000000e+00 1886740808
0.807663 -0.327379 -0.723617 0.000000000000000e+00 1886740808
0.797833 -0.423357 -0.764631 0.000000000000000e+00 1886740808
0.765001 -0.458163 -0.760381 0.000000000000000e+00 1886740808
0.781955 -0.271175 -0.690749 0.000000000000000e+00 1886740808
0.789684 -0.319901 -0.719933 0.000000000000000e+00 1886740808
0.735254 -0.390358 -0.717466 0.000000000000000e+00 1886740808
0.730927 -0.438205 -0.739979 0.000000000000000e+00 1886740808
0.752654 -0.260669 -0.676328 0.000000000000000e+00 1886740808
0.742882 -0.300758 -0.689122 0.000000000000000e+00 1886740808
0.757625 -0.402453 -0.752700 0.000000000000000e+00 1886740808
0.747887 -0.448841 -0.771151 0.000000000000000e+00 1886740808
0.795920 -0.275284 -0.727500 0.000000000000000e+00 1886740808
0.775092 -0.313605 -0.731555 0.000000000000000e+00 1886740808
0.739353 -0.392963 -0.747834 0.000000000000000e+00 1886740808
0.724940 -0.435530 -0.761284 0.000000000000000e+00 1886740808
0.734662 -0.253751 -0.683022 0.000000000000000e+00 1886740808
0.759323 -0.307033 -0.729156 0.000000000000000e+00 1886740808
0.759521 -0.403907 -0.782104 0.000000000000000e+00 1886740808
0.751961 -0.452250 -0.804209 0.000000000000000e+00 1886740808
0.691864 -0.238638 -0.654235 0.000000000000000e+00 1886740808
0.728754 -0.294485 -0.711966 0.000000000000000e+00 1886740808
0.784590 -0.417475 -0.822483 0.000000000000000e+00 1886740808
2.070222 -1.246450 -2.254798 0.000000000000000e+00 1634890835
0.753658 -0.259587 -0.724836 0.000000000000000e+00 1886740808
0.771514 -0.311562 -0.766820 0.000000000000000e+00 1886740808
0.778819 -0.414644 -0.831131 0.000000000000000e+00 1886740808
2.065145 -1.244775 -2.290608 0.000000000000000e+00 1634890835
0.760648 -0.261620 -0.744028 0.000000000000000e+00 1886740808
0.795086 -0.320871 -0.803943 0.000000000000000e+00 1886740808
2.149405 -1.145013 -2.335029 0.000000000000000e+00 1634890835
2.008670 -1.212103 -2.268886 0.000000000000000e+00 1634890835
0.780428 -0.268033 -0.776369 0.000000000000000e+00 1886740808
0.807104 -0.325503 -0.830219 0.000000000000000e+00 1886740808
2.092065 -1.115132 -2.313585 0.000000000000000e+00 1634890835
0.811009 -0.489954 -0.932891 0.000000000000000e+00 1886740808
0.741068 -0.254140 -0.749748 0.000000000000000e+00 1886740808
0.783083 -0.315601 -0.819439 0.000000000000000e+00 1886740808
2.035501 -1.085639 -2.291475 0.000000000000000e+00 1634890835
0.795969 -0.481431 -0.932398 0.000000000000000e+00 1886740808
0.741356 -0.253856 -0.762782 0.000000000000000e+00 1886740808
0.765799 -0.308422 -0.815202 0.000000000000000e+00 1886740808
2.005211 -1.070142 -2.297931 0.000000000000000e+00 1634890835
0.808377 -0.489518 -0.964322 0.000000000000000e+00 1886740808
0.761247 -0.260269 -0.796548 0.000000000000000e+00 1886740808
2.139703 -0.861150 -2.317095 0.000000000000000e+00 1634890835
0.858102 -0.458240 -1.001040 0.000000000000000e+00 1886740808
0.778871 -0.472222 -0.946195 0.000000000000000e+00 1886740808
0.763731 -0.260711 -0.812714 0.000000000000000e+00 1886740808
2.093350 -0.841894 -2.306070 0.000000000000000e+00 1634890835
0.814803 -0.435396 -0.967621 0.000000000000000e+00 1886740808
0.770476 -0.467709 -0.953211 0.000000000000000e+00 1886740808
0.750337 -0.255733 -0.812017 0.000000000000000e+00 1886740808
2.054861 -0.825812 -2.302796 0.000000000000000e+00 1634890835
0.787866 -0.421276 -0.952473 0.000000000000000e+00 1886740808
1.820550 -1.106533 -2.293807 0.000000000000000e+00 1634890835
2.067267 -0.703435 -2.275200 0.000000000000000e+00 1634890835
2.036184 -0.817699 -2.321331 0.000000000000000e+00 1634890835
0.827289 -0.442649 -1.018155 0.000000000000000e+00 1886740808
1.805154 -1.098580 -2.316355 0.000000000000000e+00 1634890835
2.027179 -0.688659 -2.268996 0.000000000000000e+00 1634890835
1.966096 -0.788956 -2.280230 0.000000000000000e+00 1634890835
0.824080 -0.441229 -1.032510 0.000000000000000e+00 1886740808
0.765912 -0.466727 -1.000971 0.000000000000000e+00 1886740808
2.004310 -0.679747 -2.281563 0.000000000000000e+00 1634890835
1.943779 -0.779400 -2.293423 0.000000000000000e+00 1634890835
0.784181 -0.420155 -1.000286 0.000000000000000e+00 1886740808
1.720808 -1.050012 -2.290575 0.000000000000000e+00 1634890835
1.996412 -0.675909 -2.311280 0.000000000000000e+00 1634890835
0.798392 -0.319881 -0.958359 0.000000000000000e+00 1886740808
1.775436 -0.951927 -2.305758 0.000000000000000e+00 1634890835
1.690396 -1.032856 -2.291872 0.000000000000000e+00 1634890835
1.935877 -0.654270 -2.279429 0.000000000000000e+00 1634890835
0.788491 -0.315661 -0.962934 0.000000000000000e+00 1886740808
0.777810 -0.417334 -1.028494 0.000000000000000e+00 1886740808
1.668689 -1.021006 -2.304571 0.000000000000000e+00 1634890835
1.920835 -0.648030 -2.300370 0.000000000000000e+00 1634890835
0.780976 -0.312397 -0.970379 0.000000000000000e+00 1886740808
1.737029 -0.932680 -2.338710 0.000000000000000e+00 1634890835
1.641128 -1.005562 -2.308850 0.000000000000000e+00 1634890835
0.813464 -0.273938 -0.990880 0.000000000000000e+00 1886740808
0.781955 -0.312527 -0.988571 0.000000000000000e+00 1886740808
1.676750 -0.900987 -2.298815 0.000000000000000e+00 1634890835
1.609943 -0.987878 -2.307444 0.000000000000000e+00 1634890835
0.800715 -0.269144 -0.992095 0.000000000000000e+00 1886740808
0.758973 -0.303084 -0.976327 0.000000000000000e+00 1886740808
1.648914 -0.886704 -2.302117 0.000000000000000e+00 1634890835
1.573957 -0.967222 -2.298329 0.000000000000000e+00 1634890835
0.748945 -0.251264 -0.943924 0.000000000000000e+00 1886740808
0.769398 -0.306980 -1.007130 0.000000000000000e+00 1886740808
1.651224 -0.888637 -2.347787 0.000000000000000e+00 1634890835
1.539076 -0.947212 -2.289877 0.000000000000000e+00 1634890835
0.795705 -0.266434 -1.020174 0.000000000000000e+00 1886740808
1.724764 -0.687546 -2.297498 0.000000000000000e+00 1634890835
1.608352 -0.866252 -2.329110 0.000000000000000e+00 1634890835
1.524227 -0.939519 -2.310852 0.000000000000000e+00 1634890835
0.756298 -0.252737 -0.986447 0.000000000000000e+00 1886740808
1.692985 -0.674265 -2.295075 0.000000000000000e+00 1634890835
1.572043 -0.847385 -2.318810 0.000000000000000e+00 1634890835
1.479059 -0.913115 -2.285170 0.000000000000000e+00 1634890835
0.786443 -0.262277 -1.043600 0.000000000000000e+00 1886740808
0.774414 -0.308140 -1.068479 0.000000000000000e+00 1886740808
1.558128 -0.840582 -2.341173 0.000000000000000e+00 1634890835
1.442702 -0.892104 -2.271763 0.000000000000000e+00 1634890835
1.729797 -0.575686 -2.335485 0.000000000000000e+00 1634890835
1.645217 -0.654010 -2.310455 0.000000000000000e+00 1634890835
1.520236 -0.820838 -2.327089 0.000000000000000e+00 1634890835
1.426256 -0.883390 -2.289204 0.000000000000000e+00 1634890835
0.756014 -0.251071 -1.038624 0.000000000000000e+00 1886740808
1.599661 -0.635282 -2.286753 0.000000000000000e+00 1634890835
1.493361 -0.807031 -2.329070 0.000000000000000e+00 1634890835
1.381911 -0.857371 -2.261088 0.000000000000000e+00 1634890835
1.647546 -0.545957 -2.303281 0.000000000000000e+00 1634890835
1.585664 -0.629095 -2.307580 0.000000000000000e+00 1634890835
1.448323 -0.783389 -2.301684 0.000000000000000e+00 1634890835
1.369124 -0.850907 -2.283931 0.000000000000000e+00 1634890835
1.628117 -0.538317 -2.316395 0.000000000000000e+00 1634890835
1.570628 -0.622494 -2.327097 0.000000000000000e+00 1634890835
1.436794 -0.777863 -2.326956 0.000000000000000e+00 1634890835
1.332028 -0.829319 -2.265756 0.000000000000000e+00 1634890835
1.558996 -0.514285 -2.257504 0.000000000000000e+00 1634890835
1.488892 -0.589483 -2.246173 0.000000000000000e+00 1634890835
1.400230 -0.758777 -2.311320 0.000000000000000e+00 1634890835
1.318367 -0.822307 -2.286947 0.000000000000000e+00 1634890835
1.584937 -0.521616 -2.336112 0.000000000000000e+00 1634890835
1.509261 -0.596906 -2.318618 0.000000000000000e+00 1634890835
1.388054 -0.752901 -2.335560 0.000000000000000e+00 1634890835
1.310595 -0.818984 -2.318844 0.000000000000000e+00 1634890835
1.558649 -0.511730 -2.338690 0.000000000000000e+00 1634890835
1.468431 -0.580118 -2.297482 0.000000000000000e+00 1634890835
1.344899 -0.730212 -2.307061 0.000000000000000e+00 1634890835
1.249083 -0.782040 -2.254475 0.000000000000000e+00 1634890835
1.502737 -0.492153 -2.295605 0.000000000000000e+00 1634890835
1.426335 -0.562852 -2.273036 0.000000000000000e+00 1634890835
1.332225 -0.724061 -2.330210 0.000000000000000e+00 1634890835
1.240568 -0.778236 -2.284531 0.000000000000000e+00 1634890835
1.464094 -0.478282 -2.277317 0.000000000000000e+00 1634890835
1.417990 -0.558912 -2.301969 0.000000000000000e+00 1634890835
1.330964 -0.724127 -2.374106 0.000000000000000e+00 1634890835
1.201465 -0.755228 -2.257802 0.000000000000000e+00 1634890835
1.432545 -0.466756 -2.269111 0.000000000000000e+00 1634890835
1.372278 -0.540250 -2.269698 0.000000000000000e+00 1634890835
1.269674 -0.691518 -2.310009 0.000000000000000e+00 1634890835
1.188873 -0.748862 -2.280275 0.000000000000000e+00 1634890835
1.439887 -0.467890 -2.322872 0.000000000000000e+00 1634890835
1.367517 -0.537716 -2.304730 0.000000000000000e+00 1634890835
1.268346 -0.691551 -2.354086 0.000000000000000e+00 1634890835
1.168592 -0.737658 -2.288107 0.000000000000000e+00 1634890835
1.431122 -0.463761 -2.351701 0.000000000000000e+00 1634890835
1.345299 -0.528315 -2.310643 0.000000000000000e+00 1634890835
1.208835 -0.659849 -2.289258 0.000000000000000e+00 1634890835
1.156929 -0.731901 -2.312974 0.000000000000000e+00 1634890835
1.378704 -0.445507 -2.308063 0.000000000000000e+00 1634890835
1.315914 -0.516105 -2.303756 0.000000000000000e+00 1634890835
1.201611 -0.656666 -2.322298 0.000000000000000e+00 1634890835
1.112573 -0.705432 -2.271623 0.000000000000000e+00 1634890835
1.370294 -0.441493 -2.337368 0.000000000000000e+00 1634890835
1.301309 -0.509697 -2.322508 0.000000000000000e+00 1634890835
1.180135 -0.645702 -2.328096 0.000000000000000e+00 1634890835
1.103386 -0.701235 -2.301321 0.000000000000000e+00 1634890835
1.329548 -0.427075 -2.311126 0.000000000000000e+00 1634890835
1.260690 -0.493109 -2.294185 0.000000000000000e+00 1634890835
1.157699 -0.634205 -2.331699 0.000000000000000e+00 1634890835
1.066966 -0.679718 -2.273768 0.000000000000000e+00 1634890835
1.293659 -0.414256 -2.292020 0.000000000000000e+00 1634890835
1.250601 -0.488470 -2.320930 0.000000000000000e+00 1634890835
1.130073 -0.619856 -2.324282 0.000000000000000e+00 1634890835
1.046089 -0.668068 -2.278342 0.000000000000000e+00 1634890835
1.266281 -0.404189 -2.287095 0.000000000000000e+00 1634890835
1.190269 -0.464227 -2.253182 0.000000000000000e+00 1634890835
1.099655 -0.603962 -2.310189 0.000000000000000e+00 1634890835
1.032984 -0.661384 -2.299922 0.000000000000000e+00 1634890835
1.221766 -0.388690 -2.249980 0.000000000000000e+00 1634890835
1.179746 -0.459430 -2.278431 0.000000000000000e+00 1634890835
1.087740 -0.598226 -2.334707 0.000000000000000e+00 1634890835
1.005777 -0.645665 -2.289876 0.000000000000000e+00 1634890835
1.234187 -0.391298 -2.317886 0.000000000000000e+00 1634890835
1.172156 -0.455764 -2.310050 0.000000000000000e+00 1634890835
1.060713 -0.584176 -2.326674 0.000000000000000e+00 1634890835
0.989175 -0.636739 -2.303564 0.000000000000000e+00 1634890835
1.201227 -0.379501 -2.301153 0.000000000000000e+00 1634890835
1.158233 -0.449626 -2.329798 0.000000000000000e+00 1634890835
1.034985 -0.570828 -2.320712 0.000000000000000e+00 1634890835
1.000246 -0.645683 -2.383335 0.000000000000000e+00 1634890835
1.184111 -0.372725 -2.314279 0.000000000000000e+00 1634890835
1.129759 -0.437844 -2.320049 0.000000000000000e+00 1634890835
1.009679 -0.557704 -2.314977 0.000000000000000e+00 1634890835
0.958055 -0.620253 -2.336473 0.000000000000000e+00 1634890835
1.133907 -0.355569 -2.261524 0.000000000000000e+00 1634890835
1.106354 -0.428035 -2.320072 0.000000000000000e+00 1634890835
0.979069 -0.541631 -2.296065 0.000000000000000e+00 1634890835
0.936701 -0.608261 -2.338895 0.000000000000000e+00 1634890835
1.142292 -0.356792 -2.325433 0.000000000000000e+00 1634890835
1.092751 -0.422019 -2.340657 0.000000000000000e+00 1634890835
0.941599 -0.521736 -2.259350 0.000000000000000e+00 1634890835
0.892006 -0.581054 -2.281253 0.000000000000000e+00 1634890835
1.103775 -0.343356 -2.294130 0.000000000000000e+00 1634890835
1.052866 -0.405864 -2.304186 0.000000000000000e+00 1634890835
0.930614 -0.516505 -2.285495 0.000000000000000e+00 1634890835
0.898824 -0.587399 -2.355271 0.000000000000000e+00 1634890835
1.067238 -0.330587 -2.265285 0.000000000000000e+00 1634890835
1.037602 -0.399213 -2.320743 0.000000000000000e+00 1634890835
0.927840 -0.515853 -2.333087 0.000000000000000e+00 1634890835
0.854272 -0.560169 -2.294541 0.000000000000000e+00 1634890835
1.051287 -0.324216 -2.279423 0.000000000000000e+00 1634890835
1.001638 -0.384610 -2.290286 0.000000000000000e+00 1634890835
0.903185 -0.503043 -2.326180 0.000000000000000e+00 1634890835
0.823290 -0.541748 -2.267610 0.000000000000000e+00 1634890835
1.011013 -0.310371 -2.239890 0.000000000000000e+00 1634890835
0.971175 -0.372141 -2.270890 0.000000000000000e+00 1634890835
0.886041 -0.494411 -2.338294 0.000000000000000e+00 1634890835
0.470658 -0.310836 -1.329932 0.000000000000000e+00 1936876886
1.024000 -0.312862 -2.318820 0.000000000000000e+00 1634890835
0.954481 -0.364957 -2.283127 0.000000000000000e+00 1634890835
0.868766 -0.485711 -2.350215 0.000000000000000e+00 1634890835
0.458971 -0.304270 -1.331128 0.000000000000000e+00 1936876886
0.975202 -0.296478 -2.257855 0.000000000000000e+00 1634890835
0.928687 -0.354300 -2.273253 0.000000000000000e+00 1634890835
0.827921 -0.463807 -2.296900 0.000000000000000e+00 1634890835
0.417188 -0.277666 -1.242489 0.000000000000000e+00 1936876886
0.969465 -0.293209 -2.295681 0.000000000000000e+00 1634890835
0.922432 -0.351092 -2.311467 0.000000000000000e+00 1634890835
0.453072 -0.254347 -1.289641 0.000000000000000e+00 1936876886
0.335934 -0.224510 -1.027942 0.000000000000000e+00 1953264973
0.941509 -0.283218 -2.281043 0.000000000000000e+00 1634890835
0.903512 -0.343054 -2.318623 0.000000000000000e+00 1634890835
0.445845 -0.250838 -1.302699 0.000000000000000e+00 1936876886
0.305668 -0.205164 -0.961515 0.000000000000000e+00 1953264973
0.506253 -0.151428 -1.255348 0.000000000000000e+00 1936876886
0.874773 -0.331298 -2.299908 0.000000000000000e+00 1634890835
0.372175 -0.209869 -1.116834 0.000000000000000e+00 1953264973
0.284477 -0.191803 -0.920450 0.000000000000000e+00 1953264973
0.490022 -0.145708 -1.244135 0.000000000000000e+00 1936876886
0.834688 -0.315276 -2.249280 0.000000000000000e+00 1634890835
0.356148 -0.201312 -1.098219 0.000000000000000e+00 1953264973
0.252397 -0.170977 -0.840529 0.000000000000000e+00 1953264973
0.482448 -0.142569 -1.254682 0.000000000000000e+00 1936876886
0.837179 -0.315337 -2.313334 0.000000000000000e+00 1634890835
0.323978 -0.183587 -1.027165 0.000000000000000e+00 1953264973
0.239692 -0.163174 -0.822097 0.000000000000000e+00 1953264973
