# .PCD v0.7 - Point Cloud Data file format
VERSION 0.7
FIELDS x y z rgb label
SIZE 4 4 4 4 4
TYPE F F F F U
COUNT 1 1 1 1 1
WIDTH 530
HEIGHT 1
VIEWPOINT 0 0 0 1 0 0 0
POINTS 530
DATA ascii
35.405220 -18.076763 10.250822 0.000000000000000e+00 1954047316
30.508036 -11.333811 -2.215458 0.000000000000000e+00 1851878480
31.439665 -13.146474 -2.210963 0.000000000000000e+00 1851878480
26.868137 -9.973996 -2.195440 0.000000000000000e+00 1851878480
26.590313 -11.114810 -2.119110 0.000000000000000e+00 1851878480
25.674562 -13.257455 -1.901187 0.000000000000000e+00 1851878480
24.848564 -14.124786 -1.747573 0.000000000000000e+00 1851878480
24.195353 -8.974977 -2.197281 0.000000000000000e+00 1851878480
24.305813 -10.156315 -2.165076 0.000000000000000e+00 1851878480
23.227369 -11.997519 -1.952394 0.000000000000000e+00 1851878480
22.819405 -12.979023 -1.841195 0.000000000000000e+00 1851878480
22.143429 -8.207585 -2.212736 0.000000000000000e+00 1851878480
22.189053 -9.268563 -2.184954 0.000000000000000e+00 1851878480
21.754547 -11.240268 -2.046600 0.000000000000000e+00 1851878480
21.234234 -12.084568 -1.933557 0.000000000000000e+00 1851878480
20.426983 -7.565605 -2.227617 0.000000000000000e+00 1851878480
20.347532 -8.496344 -2.195023 0.000000000000000e+00 1851878480
20.432953 -10.560689 -2.127360 0.000000000000000e+00 1851878480
20.048071 -11.416286 -2.033870 0.000000000000000e+00 1851878480
18.870281 -6.983705 -2.230310 0.000000000000000e+00 1851878480
18.940199 -7.905909 -2.221653 0.000000000000000e+00 1851878480
19.181055 -9.916745 -2.189894 0.000000000000000e+00 1851878480
18.951742 -10.798389 -2.119961 0.000000000000000e+00 1851878480
17.592743 -6.505911 -2.240358 0.000000000000000e+00 1851878480
17.639887 -7.360536 -2.235615 0.000000000000000e+00 1851878480
17.840477 -9.226534 -2.216588 0.000000000000000e+00 1851878480
17.984486 -10.253365 -2.199398 0.000000000000000e+00 1851878480
16.408010 -6.063135 -2.239956 0.000000000000000e+00 1851878480
16.443213 -6.858780 -2.239438 0.000000000000000e+00 1851878480
16.664991 -8.621307 -2.238801 0.000000000000000e+00 1851878480
16.795025 -9.580937 -2.229556 0.000000000000000e+00 1851878480
15.365027 -5.673369 -2.238744 0.000000000000000e+00 1851878480
15.371179 -6.409332 -2.239076 0.000000000000000e+00 1851878480
15.495132 -8.018613 -2.238441 0.000000000000000e+00 1851878480
15.547055 -8.874320 -2.226847 0.000000000000000e+00 1851878480
14.526768 -5.359709 -2.250353 0.000000000000000e+00 1851878480
14.538424 -6.059942 -2.255822 0.000000000000000e+00 1851878480
14.513704 -7.513091 -2.243888 0.000000000000000e+00 1851878480
14.551188 -8.310852 -2.237122 0.000000000000000e+00 1851878480
13.702101 -5.051543 -2.249040 0.000000000000000e+00 1851878480
13.629436 -5.679035 -2.244503 0.000000000000000e+00 1851878480
13.623410 -7.054451 -2.244798 0.000000000000000e+00 1851878480
13.599926 -7.772208 -2.234182 0.000000000000000e+00 1851878480
12.935583 -4.765257 -2.242873 0.000000000000000e+00 1851878480
12.869996 -5.360674 -2.242238 0.000000000000000e+00 1851878480
12.822897 -6.642026 -2.243664 0.000000000000000e+00 1851878480
12.774953 -7.305142 -2.233665 0.000000000000000e+00 1851878480
12.306936 -4.530149 -2.247997 0.000000000000000e+00 1851878480
12.216248 -5.086554 -2.245212 0.000000000000000e+00 1851878480
12.128613 -6.284391 -2.246236 0.000000000000000e+00 1851878480
12.091260 -6.918369 -2.242300 0.000000000000000e+00 1851878480
11.721789 -4.311395 -2.250099 0.000000000000000e+00 1851878480
11.561774 -4.812315 -2.235844 0.000000000000000e+00 1851878480
11.459633 -5.939646 -2.239907 0.000000000000000e+00 1851878480
11.454650 -6.558077 -2.246059 0.000000000000000e+00 1851878480
11.167695 -4.104379 -2.247863 0.000000000000000e+00 1851878480
11.078103 -4.609331 -2.248901 0.000000000000000e+00 1851878480
10.907431 -5.655230 -2.244236 0.000000000000000e+00 1851878480
10.855194 -6.218652 -2.244350 0.000000000000000e+00 1851878480
10.646686 -3.909827 -2.242558 0.000000000000000e+00 1851878480
10.558558 -4.391572 -2.245337 0.000000000000000e+00 1851878480
10.375052 -5.380923 -2.241844 0.000000000000000e+00 1851878480
10.302172 -5.905440 -2.240335 0.000000000000000e+00 1851878480
10.204741 -3.744581 -2.245203 0.000000000000000e+00 1851878480
10.128221 -4.211052 -2.251898 0.000000000000000e+00 1851878480
9.943325 -5.158672 -2.251612 0.000000000000000e+00 1851878480
9.829605 -5.638004 -2.243228 0.000000000000000e+00 1851878480
9.743964 -3.572675 -2.235533 0.000000000000000e+00 1851878480
9.640952 -4.007000 -2.237231 0.000000000000000e+00 1851878480
9.508363 -4.934597 -2.252027 0.000000000000000e+00 1851878480
9.375455 -5.380820 -2.240752 0.000000000000000e+00 1851878480
9.398010 -3.443098 -2.244919 0.000000000000000e+00 1851878480
9.291063 -3.860166 -2.246633 0.000000000000000e+00 1851878480
9.085586 -4.716710 -2.246773 0.000000000000000e+00 1851878480
8.962186 -5.146809 -2.239080 0.000000000000000e+00 1851878480
8.999812 -3.294585 -2.235101 0.000000000000000e+00 1851878480
8.968399 -3.724738 -2.256384 0.000000000000000e+00 1851878480
8.701957 -4.519015 -2.243146 0.000000000000000e+00 1851878480
8.630594 -4.959448 -2.250139 0.000000000000000e+00 1851878480
8.647231 -3.162989 -2.229804 0.000000000000000e+00 1851878480
8.632767 -3.584024 -2.256760 0.000000000000000e+00 1851878480
8.388882 -4.357851 -2.250772 0.000000000000000e+00 1851878480
8.274497 -4.757781 -2.247723 0.000000000000000e+00 1851878480
8.350980 -3.052176 -2.233169 0.000000000000000e+00 1851878480
8.235578 -3.417859 -2.234169 0.000000000000000e+00 1851878480
8.081423 -4.199509 -2.253744 0.000000000000000e+00 1851878480
8.001098 -4.603456 -2.261292 0.000000000000000e+00 1851878480
8.072638 -2.948065 -2.236149 0.000000000000000e+00 1851878480
7.938395 -3.293303 -2.232190 0.000000000000000e+00 1851878480
7.728356 -4.017353 -2.237383 0.000000000000000e+00 1851878480
7.607031 -4.379472 -2.233827 0.000000000000000e+00 1851878480
7.804967 -2.848001 -2.237162 0.000000000000000e+00 1851878480
7.749557 -3.213762 -2.256194 0.000000000000000e+00 1851878480
7.503509 -3.901763 -2.252377 0.000000000000000e+00 1851878480
7.362805 -4.241540 -2.243720 0.000000000000000e+00 1851878480
7.566327 -2.758677 -2.241938 0.000000000000000e+00 1851878480
7.444254 -3.085993 -2.241709 0.000000000000000e+00 1851878480
7.302921 -3.798719 -2.270492 0.000000000000000e+00 1851878480
7.089917 -4.086927 -2.239547 0.000000000000000e+00 1851878480
7.321486 -2.667224 -2.240522 0.000000000000000e+00 1851878480
7.149784 -2.962805 -2.224825 0.000000000000000e+00 1851878480
6.980507 -3.632219 -2.245498 0.000000000000000e+00 1851878480
6.919881 -3.991447 -2.263331 0.000000000000000e+00 1851878480
7.065596 -2.571892 -2.231182 0.000000000000000e+00 1851878480
6.981521 -2.891983 -2.242909 0.000000000000000e+00 1851878480
6.743695 -3.510173 -2.242395 0.000000000000000e+00 1851878480
6.652235 -3.839524 -2.250696 0.000000000000000e+00 1851878480
6.856105 -2.493573 -2.232273 0.000000000000000e+00 1851878480
6.777440 -2.806375 -2.246069 0.000000000000000e+00 1851878480
6.569070 -3.420428 -2.255892 0.000000000000000e+00 1851878480
6.441120 -3.720067 -2.252200 0.000000000000000e+00 1851878480
6.691343 -2.431627 -2.244584 0.000000000000000e+00 1851878480
6.600837 -2.732202 -2.254821 0.000000000000000e+00 1851878480
6.386199 -3.326340 -2.263050 0.000000000000000e+00 1851878480
6.215428 -3.592040 -2.244068 0.000000000000000e+00 1851878480
6.511352 -2.364242 -2.248720 0.000000000000000e+00 1851878480
6.388034 -2.643101 -2.247585 0.000000000000000e+00 1851878480
6.172090 -3.215912 -2.255176 0.000000000000000e+00 1851878480
6.026948 -3.485383 -2.245064 0.000000000000000e+00 1851878480
6.305879 -2.287714 -2.240568 0.000000000000000e+00 1851878480
6.147593 -2.542633 -2.226326 0.000000000000000e+00 1851878480
5.982102 -3.117988 -2.252054 0.000000000000000e+00 1851878480
5.831549 -3.374591 -2.239495 0.000000000000000e+00 1851878480
6.175989 -2.238698 -2.256271 0.000000000000000e+00 1851878480
6.045911 -2.499600 -2.252148 0.000000000000000e+00 1851878480
5.779834 -3.013598 -2.240351 0.000000000000000e+00 1851878480
5.667101 -3.281590 -2.242079 0.000000000000000e+00 1851878480
6.032402 -2.184792 -2.264569 0.000000000000000e+00 1851878480
5.837754 -2.412597 -2.235446 0.000000000000000e+00 1851878480
5.652368 -2.948160 -2.254359 0.000000000000000e+00 1851878480
5.530962 -3.204877 -2.252789 0.000000000000000e+00 1851878480
5.817652 -2.105214 -2.242884 0.000000000000000e+00 1851878480
5.727749 -2.366203 -2.253373 0.000000000000000e+00 1851878480
5.499796 -2.869582 -2.255609 0.000000000000000e+00 1851878480
5.351120 -3.102739 -2.242429 0.000000000000000e+00 1851878480
5.663820 -2.047782 -2.241293 0.000000000000000e+00 1851878480
5.615286 -2.318823 -2.268363 0.000000000000000e+00 1851878480
5.338712 -2.786513 -2.250224 0.000000000000000e+00 1851878480
5.205371 -3.020255 -2.242948 0.000000000000000e+00 1851878480
5.520247 -1.994144 -2.241076 0.000000000000000e+00 1851878480
5.416874 -2.235994 -2.245714 0.000000000000000e+00 1851878480
5.176445 -2.702772 -2.241064 0.000000000000000e+00 1851878480
5.056761 -2.936015 -2.239174 0.000000000000000e+00 1851878480
5.381757 -1.942421 -2.240380 0.000000000000000e+00 1851878480
5.300659 -2.187146 -2.254170 0.000000000000000e+00 1851878480
5.075328 -2.650920 -2.255770 0.000000000000000e+00 1851878480
4.919306 -2.858151 -2.237355 0.000000000000000e+00 1851878480
5.264602 -1.898468 -2.246277 0.000000000000000e+00 1851878480
5.193793 -2.142184 -2.264588 0.000000000000000e+00 1851878480
4.948438 -2.585569 -2.256801 0.000000000000000e+00 1851878480
4.792176 -2.786198 -2.237481 0.000000000000000e+00 1851878480
5.134550 -1.849933 -2.244459 0.000000000000000e+00 1851878480
5.087690 -2.097567 -2.273422 0.000000000000000e+00 1851878480
4.820643 -2.519706 -2.254873 0.000000000000000e+00 1851878480
4.699616 -2.734268 -2.251523 0.000000000000000e+00 1851878480
5.019039 -1.806705 -2.246786 0.000000000000000e+00 1851878480
4.913077 -2.024745 -2.248976 0.000000000000000e+00 1851878480
4.714468 -2.465102 -2.260736 0.000000000000000e+00 1851878480
4.609391 -2.683642 -2.264896 0.000000000000000e+00 1851878480
4.895113 -1.760517 -2.243187 0.000000000000000e+00 1851878480
4.780133 -1.969144 -2.240625 0.000000000000000e+00 1851878480
4.569813 -2.390340 -2.245607 0.000000000000000e+00 1851878480
4.477157 -2.608481 -2.255334 0.000000000000000e+00 1851878480
4.816774 -1.730773 -2.258700 0.000000000000000e+00 1851878480
4.712423 -1.940443 -2.261031 0.000000000000000e+00 1851878480
4.492833 -2.350941 -2.261525 0.000000000000000e+00 1851878480
4.340833 -2.530843 -2.240829 0.000000000000000e+00 1851878480
4.647272 -1.668347 -2.229181 0.000000000000000e+00 1851878480
4.579468 -1.884904 -2.248292 0.000000000000000e+00 1851878480
4.353186 -2.278717 -2.243727 0.000000000000000e+00 1851878480
4.249071 -2.479108 -2.246924 0.000000000000000e+00 1851878480
4.582560 -1.643604 -2.247778 0.000000000000000e+00 1851878480
4.490811 -1.847631 -2.255219 0.000000000000000e+00 1851878480
4.268284 -2.235113 -2.251863 0.000000000000000e+00 1851878480
4.196217 -2.450030 -2.272227 0.000000000000000e+00 1851878480
4.465097 -1.599994 -2.238900 0.000000000000000e+00 1851878480
4.411144 -1.814080 -2.265161 0.000000000000000e+00 1851878480
4.134326 -2.165781 -2.231881 0.000000000000000e+00 1851878480
4.053638 -2.368498 -2.246915 0.000000000000000e+00 1851878480
4.353216 -1.558445 -2.230689 0.000000000000000e+00 1851878480
4.274916 -1.757299 -2.244006 0.000000000000000e+00 1851878480
4.145152 -2.172281 -2.288993 0.000000000000000e+00 1851878480
3.970269 -2.321481 -2.251988 0.000000000000000e+00 1851878480
4.291158 -1.534784 -2.246475 0.000000000000000e+00 1851878480
4.141488 -1.701712 -2.221634 0.000000000000000e+00 1851878480
4.014552 -2.104650 -2.266964 0.000000000000000e+00 1851878480
3.894996 -2.279148 -2.260064 0.000000000000000e+00 1851878480
4.166268 -1.488698 -2.227673 0.000000000000000e+00 1851878480
4.082721 -1.676831 -2.237497 0.000000000000000e+00 1851878480
3.867384 -2.028283 -2.232549 0.000000000000000e+00 1851878480
3.772838 -2.209308 -2.238822 0.000000000000000e+00 1851878480
4.093238 -1.461203 -2.234771 0.000000000000000e+00 1851878480
4.023922 -1.651953 -2.252383 0.000000000000000e+00 1851878480
3.822511 -2.005535 -2.255214 0.000000000000000e+00 1851878480
3.718543 -2.179151 -2.255998 0.000000000000000e+00 1851878480
4.139050 -1.476128 -2.306846 0.000000000000000e+00 1634890835
3.940252 -1.616883 -2.252087 0.000000000000000e+00 1851878480
3.770474 -1.979015 -2.272874 0.000000000000000e+00 1851878480
3.621089 -2.123648 -2.245444 0.000000000000000e+00 1851878480
4.048697 -1.442496 -2.302928 0.000000000000000e+00 1634890835
3.885745 -1.593799 -2.267241 0.000000000000000e+00 1851878480
3.668181 -1.926093 -2.258713 0.000000000000000e+00 1851878480
3.542083 -2.078903 -2.244439 0.000000000000000e+00 1851878480
3.934984 -1.400600 -2.283788 0.000000000000000e+00 1634890835
3.796499 -1.556487 -2.260832 0.000000000000000e+00 1851878480
3.569661 -1.875114 -2.244731 0.000000000000000e+00 1851878480
3.510257 -2.061816 -2.272314 0.000000000000000e+00 1851878480
3.835616 -1.363874 -2.270911 0.000000000000000e+00 1634890835
3.696923 -1.514969 -2.246418 0.000000000000000e+00 1851878480
3.509827 -1.844434 -2.253465 0.000000000000000e+00 1851878480
3.404439 -2.001222 -2.250892 0.000000000000000e+00 1851878480
3.808148 -1.352748 -2.299537 0.000000000000000e+00 1634890835
3.624634 -1.484660 -2.246920 0.000000000000000e+00 1851878480
3.425760 -1.800997 -2.245206 0.000000000000000e+00 1851878480
3.347286 -1.969177 -2.259885 0.000000000000000e+00 1851878480
3.734319 -1.325176 -2.299393 0.000000000000000e+00 1634890835
3.402745 -1.789641 -2.276006 0.000000000000000e+00 1851878480
3.218606 -1.894987 -2.218479 0.000000000000000e+00 1851878480
3.644351 -1.291925 -2.287784 0.000000000000000e+00 1634890835
3.588317 -1.468402 -2.313682 0.000000000000000e+00 1634890835
3.318986 -1.746320 -2.265215 0.000000000000000e+00 1851878480
3.235370 -1.906389 -2.276246 0.000000000000000e+00 1851878480
3.567668 -1.263430 -2.282937 0.000000000000000e+00 1634890835
3.460572 -1.415452 -2.275019 0.000000000000000e+00 1634890835
3.234356 -1.702513 -2.252015 0.000000000000000e+00 1851878480
3.145409 -1.854889 -2.258391 0.000000000000000e+00 1851878480
3.482788 -1.232078 -2.271309 0.000000000000000e+00 1634890835
3.439189 -1.406027 -2.304848 0.000000000000000e+00 1634890835
3.183482 -1.676450 -2.260938 0.000000000000000e+00 1851878480
3.116247 -1.839204 -2.282986 0.000000000000000e+00 1851878480
3.475343 -1.228145 -2.309490 0.000000000000000e+00 1634890835
3.353693 -1.370406 -2.290801 0.000000000000000e+00 1634890835
3.121581 -1.644565 -2.260952 0.000000000000000e+00 1851878480
3.017739 -1.782547 -2.255430 0.000000000000000e+00 1851878480
3.392134 -1.197457 -2.296642 0.000000000000000e+00 1634890835
3.334842 -1.362033 -2.321398 0.000000000000000e+00 1634890835
3.034851 -1.599573 -2.241385 0.000000000000000e+00 1851878480
2.961752 -1.750949 -2.257896 0.000000000000000e+00 1851878480
3.308900 -1.166808 -2.282137 0.000000000000000e+00 1634890835
3.236861 -1.321354 -2.295855 0.000000000000000e+00 1634890835
3.022997 -1.594031 -2.276220 0.000000000000000e+00 1851878480
2.866471 -1.696063 -2.228667 0.000000000000000e+00 1851878480
3.240151 -1.141315 -2.276148 0.000000000000000e+00 1634890835
3.187248 -1.300445 -2.303145 0.000000000000000e+00 1634890835
2.973068 -1.568407 -2.282010 0.000000000000000e+00 1851878480
2.845936 -1.685364 -2.256335 0.000000000000000e+00 1851878480
3.232911 -1.137502 -2.312856 0.000000000000000e+00 1634890835
3.100379 -1.264356 -2.282169 0.000000000000000e+00 1634890835
2.867677 -1.513495 -2.243475 0.000000000000000e+00 1851878480
2.789555 -1.653417 -2.254948 0.000000000000000e+00 1851878480
3.151262 -1.107530 -2.295643 0.000000000000000e+00 1634890835
3.084622 -1.257282 -2.312640 0.000000000000000e+00 1634890835
2.838284 -1.498671 -2.262928 0.000000000000000e+00 1851878480
2.695125 -1.598856 -2.221003 0.000000000000000e+00 1851878480
3.062594 -1.075145 -2.271553 0.000000000000000e+00 1634890835
3.039842 -1.238381 -2.321020 0.000000000000000e+00 1634890835
2.780969 -1.469090 -2.259352 0.000000000000000e+00 1851878480
0.852995 -0.506484 -0.716530 0.000000000000000e+00 1886740808
3.025688 -1.060967 -2.284667 0.000000000000000e+00 1634890835
2.971231 -1.209790 -2.310138 0.000000000000000e+00 1634890835
2.810037 -1.485145 -2.326081 0.000000000000000e+00 1634890835
0.810964 -0.481962 -0.694319 0.000000000000000e+00 1886740808
2.986610 -1.046046 -2.295602 0.000000000000000e+00 1634890835
2.867193 -1.166805 -2.269793 0.000000000000000e+00 1634890835
0.895019 -0.473256 -0.754788 0.000000000000000e+00 1886740808
0.835173 -0.496806 -0.728719 0.000000000000000e+00 1886740808
2.924518 -1.023090 -2.287960 0.000000000000000e+00 1634890835
2.851024 -1.159593 -2.297816 0.000000000000000e+00 1634890835
0.861140 -0.455562 -0.739783 0.000000000000000e+00 1886740808
0.787254 -0.468737 -0.699975 0.000000000000000e+00 1886740808
2.942733 -1.028232 -2.343046 0.000000000000000e+00 1634890835
2.821038 -1.146766 -2.314560 0.000000000000000e+00 1634890835
0.818442 -0.433186 -0.716173 0.000000000000000e+00 1886740808
0.789061 -0.470255 -0.714865 0.000000000000000e+00 1886740808
2.809946 -0.980646 -2.276806 0.000000000000000e+00 1634890835
2.735923 -1.111547 -2.284922 0.000000000000000e+00 1634890835
0.753793 -0.399166 -0.671808 0.000000000000000e+00 1886740808
0.760075 -0.453414 -0.701585 0.000000000000000e+00 1886740808
2.762533 -0.962913 -2.277710 0.000000000000000e+00 1634890835
0.885465 -0.359543 -0.752684 0.000000000000000e+00 1886740808
0.822446 -0.435740 -0.746501 0.000000000000000e+00 1886740808
0.808546 -0.482796 -0.760338 0.000000000000000e+00 1886740808
0.838520 -0.291912 -0.703451 0.000000000000000e+00 1886740808
0.854809 -0.346896 -0.739523 0.000000000000000e+00 1886740808
0.819283 -0.434286 -0.757280 0.000000000000000e+00 1886740808
0.710934 -0.424927 -0.681050 0.000000000000000e+00 1886740808
0.847567 -0.294689 -0.723427 0.000000000000000e+00 1886740808
0.829367 -0.336375 -0.730198 0.000000000000000e+00 1886740808
0.760061 -0.403102 -0.715389 0.000000000000000e+00 1886740808
0.766964 -0.458874 -0.748423 0.000000000000000e+00 1886740808
0.805351 -0.279652 -0.699323 0.000000000000000e+00 1886740808
0.815424 -0.330525 -0.730570 0.000000000000000e+00 1886740808
0.768100 -0.407579 -0.736135 0.000000000000000e+00 1886740808
0.733668 -0.439397 -0.729237 0.000000000000000e+00 1886740808
0.780024 -0.270505 -0.689044 0.000000000000000e+00 1886740808
0.787145 -0.318872 -0.717618 0.000000000000000e+00 1886740808
0.772166 -0.409956 -0.753485 0.000000000000000e+00 1886740808
0.742567 -0.445184 -0.751764 0.000000000000000e+00 1886740808
0.812731 -0.281476 -0.730313 0.000000000000000e+00 1886740808
0.781644 -0.316451 -0.725079 0.000000000000000e+00 1886740808
0.789664 -0.419473 -0.784531 0.000000000000000e+00 1886740808
0.769770 -0.461974 -0.793715 0.000000000000000e+00 1886740808
0.783583 -0.271017 -0.716224 0.000000000000000e+00 1886740808
0.785635 -0.317871 -0.741506 0.000000000000000e+00 1886740808
0.773447 -0.411084 -0.782320 0.000000000000000e+00 1886740808
0.762627 -0.458172 -0.800861 0.000000000000000e+00 1886740808
0.739132 -0.255295 -0.687177 0.000000000000000e+00 1886740808
0.770609 -0.311596 -0.739993 0.000000000000000e+00 1886740808
0.771676 -0.410371 -0.794621 0.000000000000000e+00 1886740808
0.745868 -0.448585 -0.797692 0.000000000000000e+00 1886740808
0.770786 -0.265860 -0.728865 0.000000000000000e+00 1886740808
0.755614 -0.305339 -0.738207 0.000000000000000e+00 1886740808
0.742722 -0.395197 -0.778592 0.000000000000000e+00 1886740808
2.063856 -1.242617 -2.247864 0.000000000000000e+00 1634890835
0.743608 -0.256125 -0.715170 0.000000000000000e+00 1886740808
0.769781 -0.310863 -0.765098 0.000000000000000e+00 1886740808
0.734557 -0.391078 -0.783895 0.000000000000000e+00 1886740808
2.068671 -1.246900 -2.294518 0.000000000000000e+00 1634890835
0.764700 -0.263014 -0.747991 0.000000000000000e+00 1886740808
0.739059 -0.298260 -0.747291 0.000000000000000e+00 1886740808
2.128937 -1.134110 -2.312794 0.000000000000000e+00 1634890835
2.068624 -1.248282 -2.336608 0.000000000000000e+00 1634890835
0.763935 -0.262369 -0.759962 0.000000000000000e+00 1886740808
0.739441 -0.298215 -0.760618 0.000000000000000e+00 1886740808
2.091312 -1.114731 -2.312752 0.000000000000000e+00 1634890835
0.806267 -0.487089 -0.927436 0.000000000000000e+00 1886740808
0.763213 -0.261734 -0.772153 0.000000000000000e+00 1886740808
0.768409 -0.309688 -0.804084 0.000000000000000e+00 1886740808
2.037090 -1.086486 -2.293264 0.000000000000000e+00 1634890835
0.773443 -0.467807 -0.906012 0.000000000000000e+00 1886740808
0.761875 -0.260882 -0.783894 0.000000000000000e+00 1886740808
0.742114 -0.298884 -0.789990 0.000000000000000e+00 1886740808
1.980316 -1.056856 -2.269402 0.000000000000000e+00 1634890835
0.792820 -0.480097 -0.945764 0.000000000000000e+00 1886740808
0.727673 -0.248790 -0.761417 0.000000000000000e+00 1886740808
2.129108 -0.856887 -2.305622 0.000000000000000e+00 1634890835
0.831099 -0.443820 -0.969539 0.000000000000000e+00 1886740808
0.797854 -0.483731 -0.969257 0.000000000000000e+00 1886740808
0.774887 -0.264520 -0.824586 0.000000000000000e+00 1886740808
2.126187 -0.855100 -2.342242 0.000000000000000e+00 1634890835
0.821012 -0.438713 -0.974994 0.000000000000000e+00 1886740808
0.760801 -0.461836 -0.941242 0.000000000000000e+00 1886740808
0.761953 -0.259692 -0.824588 0.000000000000000e+00 1886740808
2.037740 -0.818931 -2.283608 0.000000000000000e+00 1634890835
0.762111 -0.407504 -0.921336 0.000000000000000e+00 1886740808
1.822233 -1.107556 -2.295927 0.000000000000000e+00 1634890835
2.082251 -0.708534 -2.291690 0.000000000000000e+00 1634890835
2.005399 -0.805336 -2.286234 0.000000000000000e+00 1634890835
0.809318 -0.433033 -0.996038 0.000000000000000e+00 1886740808
1.782099 -1.084550 -2.286770 0.000000000000000e+00 1634890835
2.087152 -0.709033 -2.336124 0.000000000000000e+00 1634890835
1.974958 -0.792512 -2.290508 0.000000000000000e+00 1634890835
0.793857 -0.425047 -0.994643 0.000000000000000e+00 1886740808
0.731132 -0.445533 -0.955517 0.000000000000000e+00 1886740808
2.024756 -0.686681 -2.304837 0.000000000000000e+00 1634890835
1.991986 -0.798729 -2.350301 0.000000000000000e+00 1634890835
0.783410 -0.419742 -0.999304 0.000000000000000e+00 1886740808
1.743156 -1.063649 -2.320323 0.000000000000000e+00 1634890835
1.982326 -0.671140 -2.294973 0.000000000000000e+00 1634890835
0.831093 -0.332983 -0.997612 0.000000000000000e+00 1886740808
1.780997 -0.954909 -2.312979 0.000000000000000e+00 1634890835
1.702806 -1.040439 -2.308697 0.000000000000000e+00 1634890835
1.924695 -0.650490 -2.266263 0.000000000000000e+00 1634890835
0.776462 -0.310845 -0.948244 0.000000000000000e+00 1886740808
0.778695 -0.417808 -1.029663 0.000000000000000e+00 1886740808
1.667885 -1.020513 -2.303461 0.000000000000000e+00 1634890835
1.924329 -0.649208 -2.304554 0.000000000000000e+00 1634890835
0.787816 -0.315133 -0.978878 0.000000000000000e+00 1886740808
1.723869 -0.925614 -2.320991 0.000000000000000e+00 1634890835
1.631149 -0.999447 -2.294811 0.000000000000000e+00 1634890835
0.813780 -0.274044 -0.991265 0.000000000000000e+00 1886740808
0.799709 -0.319623 -1.011016 0.000000000000000e+00 1886740808
1.665148 -0.894753 -2.282909 0.000000000000000e+00 1634890835
1.608391 -0.986926 -2.305219 0.000000000000000e+00 1634890835
0.805038 -0.270597 -0.997451 0.000000000000000e+00 1886740808
0.781198 -0.311959 -1.004917 0.000000000000000e+00 1886740808
1.688436 -0.907957 -2.357295 0.000000000000000e+00 1634890835
1.559641 -0.958425 -2.277424 0.000000000000000e+00 1634890835
0.791669 -0.265598 -0.997771 0.000000000000000e+00 1886740808
0.825193 -0.329241 -1.080165 0.000000000000000e+00 1886740808
1.615718 -0.869529 -2.297304 0.000000000000000e+00 1634890835
1.586521 -0.976412 -2.360468 0.000000000000000e+00 1634890835
0.806713 -0.270120 -1.034287 0.000000000000000e+00 1886740808
1.758016 -0.700802 -2.341793 0.000000000000000e+00 1634890835
1.566456 -0.843687 -2.268440 0.000000000000000e+00 1634890835
1.500194 -0.924705 -2.274416 0.000000000000000e+00 1634890835
0.821336 -0.274472 -1.071278 0.000000000000000e+00 1886740808
1.665666 -0.663385 -2.258041 0.000000000000000e+00 1634890835
1.580897 -0.852157 -2.331868 0.000000000000000e+00 1634890835
1.473500 -0.909683 -2.276581 0.000000000000000e+00 1634890835
0.800340 -0.266912 -1.062041 0.000000000000000e+00 1886740808
0.781095 -0.310798 -1.077697 0.000000000000000e+00 1886740808
1.513748 -0.816640 -2.274490 0.000000000000000e+00 1634890835
1.486302 -0.919064 -2.340418 0.000000000000000e+00 1634890835
1.685570 -0.560967 -2.275772 0.000000000000000e+00 1634890835
1.631510 -0.648561 -2.291206 0.000000000000000e+00 1634890835
1.509934 -0.815275 -2.311318 0.000000000000000e+00 1634890835
1.453996 -0.900571 -2.333728 0.000000000000000e+00 1634890835
0.803519 -0.266848 -1.103888 0.000000000000000e+00 1886740808
1.584195 -0.629139 -2.264643 0.000000000000000e+00 1634890835
1.477959 -0.798708 -2.305048 0.000000000000000e+00 1634890835
1.403398 -0.870702 -2.296244 0.000000000000000e+00 1634890835
1.651523 -0.547275 -2.308841 0.000000000000000e+00 1634890835
1.587428 -0.629794 -2.310147 0.000000000000000e+00 1634890835
1.473827 -0.797184 -2.342215 0.000000000000000e+00 1634890835
1.374661 -0.854348 -2.293167 0.000000000000000e+00 1634890835
1.608438 -0.531810 -2.288396 0.000000000000000e+00 1634890835
1.555404 -0.616460 -2.304540 0.000000000000000e+00 1634890835
1.429262 -0.773785 -2.314757 0.000000000000000e+00 1634890835
1.336866 -0.832332 -2.273986 0.000000000000000e+00 1634890835
1.580393 -0.521344 -2.288488 0.000000000000000e+00 1634890835
1.523158 -0.603049 -2.297867 0.000000000000000e+00 1634890835
1.405632 -0.761704 -2.320237 0.000000000000000e+00 1634890835
1.322948 -0.825165 -2.294895 0.000000000000000e+00 1634890835
1.557253 -0.512505 -2.295306 0.000000000000000e+00 1634890835
1.524870 -0.603079 -2.342597 0.000000000000000e+00 1634890835
1.376057 -0.746394 -2.315374 0.000000000000000e+00 1634890835
1.320097 -0.824922 -2.335657 0.000000000000000e+00 1634890835
1.534335 -0.503748 -2.302208 0.000000000000000e+00 1634890835
1.483478 -0.586063 -2.321025 0.000000000000000e+00 1634890835
1.337201 -0.726032 -2.293855 0.000000000000000e+00 1634890835
1.279240 -0.800921 -2.308906 0.000000000000000e+00 1634890835
1.510935 -0.494838 -2.308129 0.000000000000000e+00 1634890835
1.427802 -0.563431 -2.275374 0.000000000000000e+00 1634890835
1.308791 -0.711325 -2.289221 0.000000000000000e+00 1634890835
1.253009 -0.786040 -2.307441 0.000000000000000e+00 1634890835
1.477418 -0.482635 -2.298042 0.000000000000000e+00 1634890835
1.424879 -0.561627 -2.313152 0.000000000000000e+00 1634890835
1.290368 -0.702040 -2.301692 0.000000000000000e+00 1634890835
1.261192 -0.792772 -2.370041 0.000000000000000e+00 1634890835
1.485939 -0.484153 -2.353686 0.000000000000000e+00 1634890835
1.408072 -0.554342 -2.328900 0.000000000000000e+00 1634890835
1.268433 -0.690842 -2.307750 0.000000000000000e+00 1634890835
1.214441 -0.764967 -2.329314 0.000000000000000e+00 1634890835
1.436265 -0.466713 -2.317028 0.000000000000000e+00 1634890835
1.369056 -0.538321 -2.307325 0.000000000000000e+00 1634890835
1.221353 -0.665929 -2.266867 0.000000000000000e+00 1634890835
1.184736 -0.747849 -2.319717 0.000000000000000e+00 1634890835
1.392763 -0.451331 -2.288668 0.000000000000000e+00 1634890835
1.350515 -0.530363 -2.319602 0.000000000000000e+00 1634890835
1.206141 -0.658378 -2.284155 0.000000000000000e+00 1634890835
1.157627 -0.732343 -2.314368 0.000000000000000e+00 1634890835
1.361881 -0.440071 -2.279899 0.000000000000000e+00 1634890835
1.322886 -0.518839 -2.315962 0.000000000000000e+00 1634890835
1.193330 -0.652140 -2.306294 0.000000000000000e+00 1634890835
1.136062 -0.720325 -2.319583 0.000000000000000e+00 1634890835
1.353929 -0.436221 -2.309454 0.000000000000000e+00 1634890835
1.288349 -0.504620 -2.299376 0.000000000000000e+00 1634890835
1.174104 -0.642402 -2.316199 0.000000000000000e+00 1634890835
1.107123 -0.703610 -2.309116 0.000000000000000e+00 1634890835
1.310016 -0.420801 -2.277174 0.000000000000000e+00 1634890835
1.259762 -0.492745 -2.292495 0.000000000000000e+00 1634890835
1.153999 -0.632178 -2.324247 0.000000000000000e+00 1634890835
1.089214 -0.693891 -2.321180 0.000000000000000e+00 1634890835
1.283910 -0.411134 -2.274747 0.000000000000000e+00 1634890835
1.210117 -0.472658 -2.245800 0.000000000000000e+00 1634890835
1.128801 -0.619159 -2.321666 0.000000000000000e+00 1634890835
1.038384 -0.663147 -2.261560 0.000000000000000e+00 1634890835
1.247226 -0.398107 -2.252678 0.000000000000000e+00 1634890835
1.230752 -0.480016 -2.329817 0.000000000000000e+00 1634890835
1.093825 -0.600760 -2.297940 0.000000000000000e+00 1634890835
1.041297 -0.666707 -2.318432 0.000000000000000e+00 1634890835
1.282031 -0.407863 -2.360962 0.000000000000000e+00 1634890835
1.165568 -0.453909 -2.251049 0.000000000000000e+00 1634890835
1.072999 -0.590119 -2.303068 0.000000000000000e+00 1634890835
1.008885 -0.647660 -2.296950 0.000000000000000e+00 1634890835
1.218152 -0.386214 -2.287770 0.000000000000000e+00 1634890835
1.167493 -0.453951 -2.300860 0.000000000000000e+00 1634890835
1.054417 -0.580709 -2.312865 0.000000000000000e+00 1634890835
0.986978 -0.635325 -2.298448 0.000000000000000e+00 1634890835
1.191616 -0.376465 -2.282742 0.000000000000000e+00 1634890835
1.150739 -0.446717 -2.314724 0.000000000000000e+00 1634890835
1.005388 -0.554505 -2.254349 0.000000000000000e+00 1634890835
0.962650 -0.621414 -2.293753 0.000000000000000e+00 1634890835
1.163409 -0.366208 -2.273819 0.000000000000000e+00 1634890835
1.106443 -0.428808 -2.272168 0.000000000000000e+00 1634890835
1.003534 -0.554309 -2.300887 0.000000000000000e+00 1634890835
0.939841 -0.608461 -2.292053 0.000000000000000e+00 1634890835
1.156881 -0.362773 -2.307345 0.000000000000000e+00 1634890835
1.108171 -0.428738 -2.323882 0.000000000000000e+00 1634890835
0.974889 -0.539318 -2.286261 0.000000000000000e+00 1634890835
0.944376 -0.613245 -2.358059 0.000000000000000e+00 1634890835
1.124281 -0.351166 -2.288767 0.000000000000000e+00 1634890835
1.069141 -0.412900 -2.290083 0.000000000000000e+00 1634890835
0.968666 -0.536734 -2.324296 0.000000000000000e+00 1634890835
0.908245 -0.591632 -2.322784 0.000000000000000e+00 1634890835
1.087293 -0.338229 -2.259874 0.000000000000000e+00 1634890835
1.076959 -0.415151 -2.356914 0.000000000000000e+00 1634890835
0.935581 -0.519262 -2.297693 0.000000000000000e+00 1634890835
0.873273 -0.570701 -2.288317 0.000000000000000e+00 1634890835
1.072006 -0.332064 -2.275404 0.000000000000000e+00 1634890835
1.030119 -0.396334 -2.304006 0.000000000000000e+00 1634890835
0.934376 -0.519487 -2.349520 0.000000000000000e+00 1634890835
0.858132 -0.562700 -2.304909 0.000000000000000e+00 1634890835
1.074659 -0.331424 -2.330098 0.000000000000000e+00 1634890835
1.022069 -0.392455 -2.337003 0.000000000000000e+00 1634890835
0.923039 -0.514101 -2.377313 0.000000000000000e+00 1634890835
0.826323 -0.543744 -2.275964 0.000000000000000e+00 1634890835
1.015732 -0.311819 -2.250345 0.000000000000000e+00 1634890835
0.983101 -0.376711 -2.298777 0.000000000000000e+00 1634890835
0.890452 -0.496873 -2.349936 0.000000000000000e+00 1634890835
0.460874 -0.304375 -1.302285 0.000000000000000e+00 1936876886
1.019549 -0.311502 -2.308740 0.000000000000000e+00 1634890835
0.956585 -0.365762 -2.288160 0.000000000000000e+00 1634890835
0.858312 -0.479866 -2.321934 0.000000000000000e+00 1634890835
0.439849 -0.291594 -1.275671 0.000000000000000e+00 1936876886
1.000324 -0.304115 -2.316018 0.000000000000000e+00 1634890835
0.939404 -0.358389 -2.299486 0.000000000000000e+00 1634890835
0.846623 -0.474284 -2.348785 0.000000000000000e+00 1634890835
0.412981 -0.274866 -1.229961 0.000000000000000e+00 1936876886
0.961121 -0.290686 -2.275922 0.000000000000000e+00 1634890835
0.921284 -0.350655 -2.308592 0.000000000000000e+00 1634890835
0.462853 -0.259838 -1.317482 0.000000000000000e+00 1936876886
0.351692 -0.235041 -1.076158 0.000000000000000e+00 1953264973
0.939694 -0.282672 -2.276645 0.000000000000000e+00 1634890835
0.896919 -0.340550 -2.301703 0.000000000000000e+00 1634890835
0.437263 -0.246009 -1.277623 0.000000000000000e+00 1936876886
0.326887 -0.219406 -1.028261 0.000000000000000e+00 1953264973
0.491623 -0.147052 -1.219072 0.000000000000000e+00 1936876886
0.867882 -0.328688 -2.281791 0.000000000000000e+00 1634890835
0.366301 -0.206557 -1.099207 0.000000000000000e+00 1953264973
0.287522 -0.193856 -0.930303 0.000000000000000e+00 1953264973
0.477650 -0.142029 -1.212722 0.000000000000000e+00 1936876886
0.872202 -0.329445 -2.350371 0.000000000000000e+00 1634890835
0.338539 -0.191358 -1.043918 0.000000000000000e+00 1953264973
0.267246 -0.181036 -0.889979 0.000000000000000e+00 1953264973
0.482100 -0.142466 -1.253775 0.000000000000000e+00 1936876886
0.832878 -0.313717 -2.301450 0.000000000000000e+00 1634890835
0.297163 -0.168392 -0.942147 0.000000000000000e+00 1953264973
0.236882 -0.161262 -0.812460 0.000000000000000e+00 1953264973
