# .PCD v0.7 - Point Cloud Data file format
VERSION 0.7
FIELDS x y z rgb label
SIZE 4 4 4 4 4
TYPE F F F F U
COUNT 1 1 1 1 1
WIDTH 543
HEIGHT 1
VIEWPOINT 0 0 0 1 0 0 0
POINTS 543
DATA ascii
45.203957 -17.208212 10.007655 0.000000000000000e+00 1954047316
44.242016 -18.703154 9.849709 0.000000000000000e+00 1954047316
42.241199 -21.602055 10.024471 0.000000000000000e+00 1954047316
35.335651 -13.147198 -1.924254 0.000000000000000e+00 1851878480
33.516037 -14.024508 -1.729710 0.000000000000000e+00 1851878480
30.782846 -15.880447 -1.357660 0.000000000000000e+00 1851878480
30.015947 -17.031954 -1.180922 0.000000000000000e+00 1851878480
31.358519 -11.658609 -1.992339 0.000000000000000e+00 1851878480
30.490078 -12.753849 -1.858744 0.000000000000000e+00 1851878480
28.903097 -14.915310 -1.562945 0.000000000000000e+00 1851878480
28.174475 -15.996477 -1.399131 0.000000000000000e+00 1851878480
29.041945 -10.789155 -2.108992 0.000000000000000e+00 1851878480
28.574070 -11.948227 -2.009442 0.000000000000000e+00 1851878480
27.479527 -14.185081 -1.760244 0.000000000000000e+00 1851878480
26.316719 -14.950524 -1.578673 0.000000000000000e+00 1851878480
26.967836 -10.011006 -2.203587 0.000000000000000e+00 1851878480
26.608238 -11.122302 -2.120539 0.000000000000000e+00 1851878480
25.882681 -13.364920 -1.916600 0.000000000000000e+00 1851878480
24.780510 -14.086102 -1.742785 0.000000000000000e+00 1851878480
24.530926 -9.099456 -2.227756 0.000000000000000e+00 1851878480
24.675268 -10.310694 -2.197986 0.000000000000000e+00 1851878480
23.914366 -12.352368 -2.010140 0.000000000000000e+00 1851878480
23.197794 -13.194240 -1.871724 0.000000000000000e+00 1851878480
22.251305 -8.247570 -2.223516 0.000000000000000e+00 1851878480
22.500113 -9.398497 -2.215585 0.000000000000000e+00 1851878480
21.917366 -11.324393 -2.061918 0.000000000000000e+00 1851878480
21.520508 -12.247490 -1.959626 0.000000000000000e+00 1851878480
20.470572 -7.581749 -2.232371 0.000000000000000e+00 1851878480
20.556271 -8.583506 -2.217542 0.000000000000000e+00 1851878480
20.370571 -10.528449 -2.120866 0.000000000000000e+00 1851878480
19.923273 -11.345221 -2.021209 0.000000000000000e+00 1851878480
18.960085 -7.016940 -2.240924 0.000000000000000e+00 1851878480
18.956205 -7.912590 -2.223531 0.000000000000000e+00 1851878480
19.163717 -9.907781 -2.187915 0.000000000000000e+00 1851878480
18.743019 -10.679462 -2.096614 0.000000000000000e+00 1851878480
17.652088 -6.527858 -2.247916 0.000000000000000e+00 1851878480
17.646141 -7.363146 -2.236407 0.000000000000000e+00 1851878480
17.708256 -9.158153 -2.200160 0.000000000000000e+00 1851878480
17.780146 -10.136866 -2.174409 0.000000000000000e+00 1851878480
16.379400 -6.052563 -2.236050 0.000000000000000e+00 1851878480
16.446980 -6.860351 -2.239952 0.000000000000000e+00 1851878480
16.525824 -8.549312 -2.220104 0.000000000000000e+00 1851878480
16.544136 -9.437817 -2.196251 0.000000000000000e+00 1851878480
15.423493 -5.694957 -2.247263 0.000000000000000e+00 1851878480
15.416232 -6.428119 -2.245639 0.000000000000000e+00 1851878480
15.443964 -7.992133 -2.231049 0.000000000000000e+00 1851878480
15.382132 -8.780181 -2.203225 0.000000000000000e+00 1851878480
14.491841 -5.346823 -2.244943 0.000000000000000e+00 1851878480
14.426977 -6.013488 -2.238529 0.000000000000000e+00 1851878480
14.521417 -7.517083 -2.245080 0.000000000000000e+00 1851878480
14.426121 -8.239420 -2.217893 0.000000000000000e+00 1851878480
13.671715 -5.040341 -2.244053 0.000000000000000e+00 1851878480
13.659963 -5.691754 -2.249530 0.000000000000000e+00 1851878480
13.576551 -7.030186 -2.237077 0.000000000000000e+00 1851878480
13.592629 -7.768039 -2.232983 0.000000000000000e+00 1851878480
12.908287 -4.755202 -2.238141 0.000000000000000e+00 1851878480
12.853394 -5.353758 -2.239345 0.000000000000000e+00 1851878480
12.808811 -6.634729 -2.241199 0.000000000000000e+00 1851878480
12.813766 -7.327337 -2.240451 0.000000000000000e+00 1851878480
12.309203 -4.530982 -2.248410 0.000000000000000e+00 1851878480
12.179497 -5.071252 -2.238457 0.000000000000000e+00 1851878480
12.121381 -6.280644 -2.244897 0.000000000000000e+00 1851878480
12.162926 -6.959374 -2.255590 0.000000000000000e+00 1851878480
11.667961 -4.291596 -2.239766 0.000000000000000e+00 1851878480
11.573506 -4.817198 -2.238113 0.000000000000000e+00 1851878480
11.466564 -5.943238 -2.241261 0.000000000000000e+00 1851878480
11.438210 -6.548665 -2.242835 0.000000000000000e+00 1851878480
11.156557 -4.100286 -2.245621 0.000000000000000e+00 1851878480
11.075903 -4.608416 -2.248455 0.000000000000000e+00 1851878480
10.954206 -5.679482 -2.253861 0.000000000000000e+00 1851878480
10.885568 -6.236052 -2.250630 0.000000000000000e+00 1851878480
10.650095 -3.911078 -2.243276 0.000000000000000e+00 1851878480
10.577850 -4.399595 -2.249440 0.000000000000000e+00 1851878480
10.387968 -5.387620 -2.244634 0.000000000000000e+00 1851878480
10.311420 -5.910742 -2.242346 0.000000000000000e+00 1851878480
10.220284 -3.750284 -2.248623 0.000000000000000e+00 1851878480
10.115467 -4.205750 -2.249063 0.000000000000000e+00 1851878480
9.925677 -5.149516 -2.247615 0.000000000000000e+00 1851878480
9.822545 -5.633955 -2.241617 0.000000000000000e+00 1851878480
9.783570 -3.587197 -2.244620 0.000000000000000e+00 1851878480
9.695338 -4.029604 -2.249852 0.000000000000000e+00 1851878480
9.469199 -4.914271 -2.242752 0.000000000000000e+00 1851878480
9.348990 -5.365632 -2.234427 0.000000000000000e+00 1851878480
9.398070 -3.443120 -2.244933 0.000000000000000e+00 1851878480
9.294373 -3.861541 -2.247433 0.000000000000000e+00 1851878480
9.115061 -4.732012 -2.254063 0.000000000000000e+00 1851878480
8.947889 -5.138598 -2.235509 0.000000000000000e+00 1851878480
9.038462 -3.308734 -2.244700 0.000000000000000e+00 1851878480
8.889633 -3.692025 -2.236567 0.000000000000000e+00 1851878480
8.715164 -4.525874 -2.246551 0.000000000000000e+00 1851878480
8.604844 -4.944651 -2.243425 0.000000000000000e+00 1851878480
8.715758 -3.188055 -2.247475 0.000000000000000e+00 1851878480
8.589769 -3.566173 -2.245519 0.000000000000000e+00 1851878480
8.389906 -4.358384 -2.251047 0.000000000000000e+00 1851878480
8.257639 -4.748087 -2.243143 0.000000000000000e+00 1851878480
8.371194 -3.059563 -2.238574 0.000000000000000e+00 1851878480
8.267553 -3.431129 -2.242844 0.000000000000000e+00 1851878480
8.098975 -4.208630 -2.258639 0.000000000000000e+00 1851878480
7.971002 -4.586139 -2.252786 0.000000000000000e+00 1851878480
8.087793 -2.953599 -2.240347 0.000000000000000e+00 1851878480
8.005135 -3.320990 -2.250957 0.000000000000000e+00 1851878480
7.745499 -4.026264 -2.242346 0.000000000000000e+00 1851878480
7.685323 -4.424546 -2.256818 0.000000000000000e+00 1851878480
7.874106 -2.873229 -2.256979 0.000000000000000e+00 1851878480
7.713427 -3.198779 -2.245676 0.000000000000000e+00 1851878480
7.517129 -3.908846 -2.256465 0.000000000000000e+00 1851878480
7.369893 -4.245623 -2.245880 0.000000000000000e+00 1851878480
7.562106 -2.757138 -2.240688 0.000000000000000e+00 1851878480
7.426281 -3.078542 -2.236296 0.000000000000000e+00 1851878480
7.258596 -3.775663 -2.256711 0.000000000000000e+00 1851878480
7.111171 -4.099179 -2.246260 0.000000000000000e+00 1851878480
7.341948 -2.674678 -2.246783 0.000000000000000e+00 1851878480
7.208642 -2.987195 -2.243140 0.000000000000000e+00 1851878480
6.981267 -3.632614 -2.245743 0.000000000000000e+00 1851878480
6.864619 -3.959572 -2.245256 0.000000000000000e+00 1851878480
7.092872 -2.581820 -2.239795 0.000000000000000e+00 1851878480
6.981916 -2.892146 -2.243036 0.000000000000000e+00 1851878480
6.771439 -3.524614 -2.251620 0.000000000000000e+00 1851878480
6.632399 -3.828075 -2.243984 0.000000000000000e+00 1851878480
6.858100 -2.494299 -2.232923 0.000000000000000e+00 1851878480
6.733097 -2.788013 -2.231373 0.000000000000000e+00 1851878480
6.557300 -3.414300 -2.251850 0.000000000000000e+00 1851878480
6.419271 -3.707448 -2.244560 0.000000000000000e+00 1851878480
6.666051 -2.422436 -2.236100 0.000000000000000e+00 1851878480
6.577167 -2.722404 -2.246735 0.000000000000000e+00 1851878480
6.313093 -3.288262 -2.237144 0.000000000000000e+00 1851878480
6.253520 -3.614055 -2.257822 0.000000000000000e+00 1851878480
6.435930 -2.336857 -2.222673 0.000000000000000e+00 1851878480
6.405650 -2.650389 -2.253783 0.000000000000000e+00 1851878480
6.134561 -3.196357 -2.241464 0.000000000000000e+00 1851878480
6.056454 -3.502446 -2.256056 0.000000000000000e+00 1851878480
6.318874 -2.292429 -2.245186 0.000000000000000e+00 1851878480
6.204795 -2.566292 -2.247042 0.000000000000000e+00 1851878480
5.947755 -3.100086 -2.239123 0.000000000000000e+00 1851878480
5.844053 -3.381827 -2.244297 0.000000000000000e+00 1851878480
6.103632 -2.212470 -2.229836 0.000000000000000e+00 1851878480
6.065671 -2.507770 -2.259508 0.000000000000000e+00 1851878480
5.847234 -3.048741 -2.266476 0.000000000000000e+00 1851878480
5.678329 -3.288091 -2.246521 0.000000000000000e+00 1851878480
5.946921 -2.153833 -2.232479 0.000000000000000e+00 1851878480
5.901416 -2.438908 -2.259825 0.000000000000000e+00 1851878480
5.691985 -2.968824 -2.270159 0.000000000000000e+00 1851878480
5.489868 -3.181066 -2.236052 0.000000000000000e+00 1851878480
5.833252 -2.110859 -2.248898 0.000000000000000e+00 1851878480
5.755475 -2.377657 -2.264281 0.000000000000000e+00 1851878480
5.472182 -2.855173 -2.244283 0.000000000000000e+00 1851878480
5.377772 -3.118193 -2.253598 0.000000000000000e+00 1851878480
5.682925 -2.054690 -2.248853 0.000000000000000e+00 1851878480
5.579604 -2.304088 -2.253949 0.000000000000000e+00 1851878480
5.339470 -2.786908 -2.250543 0.000000000000000e+00 1851878480
5.220129 -3.028818 -2.249308 0.000000000000000e+00 1851878480
5.527409 -1.996731 -2.243983 0.000000000000000e+00 1851878480
5.467987 -2.257093 -2.266904 0.000000000000000e+00 1851878480
5.234953 -2.733321 -2.266394 0.000000000000000e+00 1851878480
5.075318 -2.946790 -2.247391 0.000000000000000e+00 1851878480
5.384884 -1.943550 -2.241682 0.000000000000000e+00 1851878480
5.311104 -2.191456 -2.258612 0.000000000000000e+00 1851878480
5.070609 -2.648455 -2.253673 0.000000000000000e+00 1851878480
4.963233 -2.883673 -2.257333 0.000000000000000e+00 1851878480
5.295019 -1.909437 -2.259256 0.000000000000000e+00 1851878480
5.159478 -2.128030 -2.249626 0.000000000000000e+00 1851878480
4.961665 -2.592480 -2.262833 0.000000000000000e+00 1851878480
4.786669 -2.782996 -2.234910 0.000000000000000e+00 1851878480
5.149085 -1.855169 -2.250812 0.000000000000000e+00 1851878480
4.966447 -2.047581 -2.219245 0.000000000000000e+00 1851878480
4.861138 -2.540872 -2.273814 0.000000000000000e+00 1851878480
4.670539 -2.717351 -2.237593 0.000000000000000e+00 1851878480
5.031794 -1.811296 -2.252496 0.000000000000000e+00 1851878480
4.867629 -2.006015 -2.228172 0.000000000000000e+00 1851878480
4.701921 -2.458541 -2.254719 0.000000000000000e+00 1851878480
4.530022 -2.637433 -2.225897 0.000000000000000e+00 1851878480
4.889968 -1.758666 -2.240829 0.000000000000000e+00 1851878480
4.759397 -1.960602 -2.230905 0.000000000000000e+00 1851878480
4.545545 -2.377647 -2.233682 0.000000000000000e+00 1851878480
4.478522 -2.609276 -2.256021 0.000000000000000e+00 1851878480
4.741941 -1.703884 -2.223609 0.000000000000000e+00 1851878480
4.668789 -1.922476 -2.240095 0.000000000000000e+00 1851878480
4.485583 -2.347148 -2.257876 0.000000000000000e+00 1851878480
4.383340 -2.555626 -2.262772 0.000000000000000e+00 1851878480
4.680514 -1.680281 -2.245126 0.000000000000000e+00 1851878480
4.548793 -1.872278 -2.233232 0.000000000000000e+00 1851878480
4.399865 -2.303152 -2.267786 0.000000000000000e+00 1851878480
4.264996 -2.488399 -2.255345 0.000000000000000e+00 1851878480
4.539648 -1.628213 -2.226729 0.000000000000000e+00 1851878480
4.479904 -1.843144 -2.249741 0.000000000000000e+00 1851878480
4.266421 -2.234137 -2.250880 0.000000000000000e+00 1851878480
4.168602 -2.433907 -2.257273 0.000000000000000e+00 1851878480
4.512786 -1.617083 -2.262811 0.000000000000000e+00 1851878480
4.379908 -1.801234 -2.249121 0.000000000000000e+00 1851878480
4.139787 -2.168643 -2.234830 0.000000000000000e+00 1851878480
4.074791 -2.380858 -2.258640 0.000000000000000e+00 1851878480
4.331309 -1.550603 -2.219464 0.000000000000000e+00 1851878480
4.259762 -1.751069 -2.236051 0.000000000000000e+00 1851878480
4.088903 -2.142803 -2.257931 0.000000000000000e+00 1851878480
3.991884 -2.334119 -2.264247 0.000000000000000e+00 1851878480
4.266343 -1.525909 -2.233484 0.000000000000000e+00 1851878480
4.197077 -1.724553 -2.251453 0.000000000000000e+00 1851878480
3.970133 -2.081363 -2.241880 0.000000000000000e+00 1851878480
3.884722 -2.273136 -2.254102 0.000000000000000e+00 1851878480
4.169163 -1.489733 -2.229220 0.000000000000000e+00 1851878480
4.111697 -1.688732 -2.253378 0.000000000000000e+00 1851878480
3.877327 -2.033497 -2.238289 0.000000000000000e+00 1851878480
3.768496 -2.206766 -2.236246 0.000000000000000e+00 1851878480
4.078063 -1.455786 -2.226486 0.000000000000000e+00 1851878480
4.017155 -1.649175 -2.248595 0.000000000000000e+00 1851878480
3.853812 -2.021957 -2.273681 0.000000000000000e+00 1851878480
3.727604 -2.184460 -2.261495 0.000000000000000e+00 1851878480
4.065439 -1.449876 -2.265820 0.000000000000000e+00 1851878480
3.929811 -1.612599 -2.246119 0.000000000000000e+00 1851878480
3.723330 -1.954270 -2.244455 0.000000000000000e+00 1851878480
3.648927 -2.139974 -2.262707 0.000000000000000e+00 1851878480
4.061618 -1.447100 -2.310278 0.000000000000000e+00 1634890835
3.836441 -1.573576 -2.238474 0.000000000000000e+00 1851878480
3.645419 -1.914141 -2.244697 0.000000000000000e+00 1851878480
3.573292 -2.097220 -2.264215 0.000000000000000e+00 1851878480
3.952731 -1.406917 -2.294088 0.000000000000000e+00 1634890835
3.771237 -1.546131 -2.245789 0.000000000000000e+00 1851878480
3.583455 -1.882360 -2.253405 0.000000000000000e+00 1851878480
3.441159 -2.021230 -2.227584 0.000000000000000e+00 1851878480
3.857769 -1.371751 -2.284027 0.000000000000000e+00 1634890835
3.736617 -1.531235 -2.270537 0.000000000000000e+00 1851878480
3.541832 -1.861253 -2.274014 0.000000000000000e+00 1851878480
3.418043 -2.009219 -2.259887 0.000000000000000e+00 1851878480
3.809359 -1.353178 -2.300268 0.000000000000000e+00 1634890835
3.593161 -1.471768 -2.227410 0.000000000000000e+00 1851878480
3.447314 -1.812329 -2.259332 0.000000000000000e+00 1851878480
3.354283 -1.973294 -2.264609 0.000000000000000e+00 1851878480
3.691616 -1.310022 -2.273098 0.000000000000000e+00 1634890835
3.532650 -1.446307 -2.233625 0.000000000000000e+00 1851878480
3.344838 -1.759186 -2.237273 0.000000000000000e+00 1851878480
3.252616 -1.915011 -2.241920 0.000000000000000e+00 1851878480
3.644120 -1.291843 -2.287639 0.000000000000000e+00 1634890835
3.516315 -1.438937 -2.267256 0.000000000000000e+00 1851878480
3.325881 -1.749948 -2.269921 0.000000000000000e+00 1851878480
3.181346 -1.874556 -2.238238 0.000000000000000e+00 1851878480
3.554811 -1.258877 -2.274709 0.000000000000000e+00 1634890835
3.483376 -1.424780 -2.290011 0.000000000000000e+00 1634890835
3.222638 -1.696344 -2.243855 0.000000000000000e+00 1851878480
3.120394 -1.840137 -2.240430 0.000000000000000e+00 1851878480
3.504094 -1.239615 -2.285204 0.000000000000000e+00 1634890835
3.401238 -1.390511 -2.279414 0.000000000000000e+00 1634890835
3.201272 -1.685819 -2.273573 0.000000000000000e+00 1851878480
3.085357 -1.820974 -2.260356 0.000000000000000e+00 1851878480
3.455723 -1.221211 -2.296452 0.000000000000000e+00 1634890835
3.370433 -1.377246 -2.302235 0.000000000000000e+00 1634890835
3.124893 -1.646309 -2.263351 0.000000000000000e+00 1851878480
3.005561 -1.775354 -2.246329 0.000000000000000e+00 1851878480
3.391939 -1.197388 -2.296510 0.000000000000000e+00 1634890835
3.333815 -1.361613 -2.320683 0.000000000000000e+00 1634890835
3.071600 -1.618943 -2.268526 0.000000000000000e+00 1851878480
2.950466 -1.744277 -2.249291 0.000000000000000e+00 1851878480
3.291068 -1.160520 -2.269838 0.000000000000000e+00 1634890835
3.228659 -1.318006 -2.290037 0.000000000000000e+00 1634890835
3.013393 -1.588967 -2.268988 0.000000000000000e+00 1851878480
2.866876 -1.696303 -2.228982 0.000000000000000e+00 1851878480
3.235987 -1.139848 -2.273223 0.000000000000000e+00 1634890835
3.181334 -1.298033 -2.298872 0.000000000000000e+00 1634890835
2.917233 -1.538952 -2.239153 0.000000000000000e+00 1851878480
2.800667 -1.658555 -2.220445 0.000000000000000e+00 1851878480
3.182475 -1.119756 -2.276774 0.000000000000000e+00 1634890835
3.080866 -1.256399 -2.267806 0.000000000000000e+00 1634890835
2.875895 -1.517831 -2.249903 0.000000000000000e+00 1851878480
2.777479 -1.646259 -2.245187 0.000000000000000e+00 1851878480
3.122456 -1.097406 -2.274658 0.000000000000000e+00 1634890835
3.061702 -1.247940 -2.295457 0.000000000000000e+00 1634890835
2.843766 -1.501566 -2.267299 0.000000000000000e+00 1851878480
2.719277 -1.613184 -2.240906 0.000000000000000e+00 1851878480
3.071277 -1.078193 -2.277993 0.000000000000000e+00 1634890835
3.019055 -1.229913 -2.305148 0.000000000000000e+00 1634890835
2.781823 -1.469540 -2.260045 0.000000000000000e+00 1851878480
0.858782 -0.509920 -0.721392 0.000000000000000e+00 1886740808
3.037384 -1.065068 -2.293498 0.000000000000000e+00 1634890835
2.971347 -1.209837 -2.310228 0.000000000000000e+00 1634890835
2.712064 -1.433365 -2.244981 0.000000000000000e+00 1851878480
0.872142 -0.518321 -0.746699 0.000000000000000e+00 1886740808
2.967501 -1.039353 -2.280914 0.000000000000000e+00 1634890835
2.915323 -1.186391 -2.307895 0.000000000000000e+00 1634890835
0.856128 -0.452692 -0.721990 0.000000000000000e+00 1886740808
0.845805 -0.503131 -0.737996 0.000000000000000e+00 1886740808
2.920555 -1.021704 -2.284860 0.000000000000000e+00 1634890835
2.792073 -1.135616 -2.250304 0.000000000000000e+00 1634890835
0.829038 -0.438579 -0.712206 0.000000000000000e+00 1886740808
0.814546 -0.484986 -0.724241 0.000000000000000e+00 1886740808
2.878135 -1.005660 -2.291612 0.000000000000000e+00 1634890835
2.804768 -1.140153 -2.301212 0.000000000000000e+00 1634890835
0.832875 -0.440825 -0.728802 0.000000000000000e+00 1886740808
0.779050 -0.464289 -0.705795 0.000000000000000e+00 1886740808
2.801274 -0.977619 -2.269779 0.000000000000000e+00 1634890835
2.731807 -1.109875 -2.281485 0.000000000000000e+00 1634890835
0.825537 -0.437158 -0.735749 0.000000000000000e+00 1886740808
0.773650 -0.461512 -0.714115 0.000000000000000e+00 1886740808
2.829766 -0.986348 -2.333144 0.000000000000000e+00 1634890835
0.881887 -0.358090 -0.749643 0.000000000000000e+00 1886740808
0.805073 -0.426536 -0.730732 0.000000000000000e+00 1886740808
0.756311 -0.451606 -0.711217 0.000000000000000e+00 1886740808
0.845412 -0.294311 -0.709234 0.000000000000000e+00 1886740808
0.835338 -0.338994 -0.722677 0.000000000000000e+00 1886740808
0.780670 -0.413818 -0.721589 0.000000000000000e+00 1886740808
0.778695 -0.465428 -0.745963 0.000000000000000e+00 1886740808
0.820902 -0.285418 -0.700667 0.000000000000000e+00 1886740808
0.824918 -0.334571 -0.726281 0.000000000000000e+00 1886740808
0.806027 -0.427480 -0.758653 0.000000000000000e+00 1886740808
0.781863 -0.467788 -0.762961 0.000000000000000e+00 1886740808
0.850208 -0.295229 -0.738275 0.000000000000000e+00 1886740808
0.814689 -0.330227 -0.729912 0.000000000000000e+00 1886740808
0.763640 -0.405212 -0.731860 0.000000000000000e+00 1886740808
0.770949 -0.461725 -0.766293 0.000000000000000e+00 1886740808
0.793319 -0.275116 -0.700788 0.000000000000000e+00 1886740808
0.816181 -0.330635 -0.744090 0.000000000000000e+00 1886740808
0.780151 -0.414195 -0.761276 0.000000000000000e+00 1886740808
0.778937 -0.466988 -0.788584 0.000000000000000e+00 1886740808
0.821923 -0.284660 -0.738573 0.000000000000000e+00 1886740808
0.788804 -0.319350 -0.731720 0.000000000000000e+00 1886740808
0.802141 -0.426100 -0.796926 0.000000000000000e+00 1886740808
0.755860 -0.453626 -0.779372 0.000000000000000e+00 1886740808
0.814772 -0.281804 -0.744732 0.000000000000000e+00 1886740808
0.795315 -0.321788 -0.750642 0.000000000000000e+00 1886740808
0.763484 -0.405788 -0.772243 0.000000000000000e+00 1886740808
0.778718 -0.467838 -0.817758 0.000000000000000e+00 1886740808
0.744284 -0.257075 -0.691967 0.000000000000000e+00 1886740808
0.735529 -0.297412 -0.706307 0.000000000000000e+00 1886740808
0.771410 -0.410230 -0.794347 0.000000000000000e+00 1886740808
0.739711 -0.444882 -0.791107 0.000000000000000e+00 1886740808
0.755010 -0.260418 -0.713947 0.000000000000000e+00 1886740808
0.741965 -0.299823 -0.724873 0.000000000000000e+00 1886740808
0.749436 -0.398770 -0.785630 0.000000000000000e+00 1886740808
2.114117 -1.272879 -2.302606 0.000000000000000e+00 1634890835
0.741005 -0.255228 -0.712667 0.000000000000000e+00 1886740808
0.757168 -0.305769 -0.752561 0.000000000000000e+00 1886740808
0.767562 -0.408650 -0.819117 0.000000000000000e+00 1886740808
2.070304 -1.247885 -2.296329 0.000000000000000e+00 1634890835
0.767631 -0.264022 -0.750858 0.000000000000000e+00 1886740808
0.765844 -0.309070 -0.774375 0.000000000000000e+00 1886740808
2.124078 -1.131521 -2.307515 0.000000000000000e+00 1634890835
2.024786 -1.221829 -2.287091 0.000000000000000e+00 1634890835
0.736619 -0.252987 -0.732788 0.000000000000000e+00 1886740808
0.747929 -0.301638 -0.769349 0.000000000000000e+00 1886740808
2.077403 -1.107317 -2.297370 0.000000000000000e+00 1634890835
0.804228 -0.485858 -0.925091 0.000000000000000e+00 1886740808
0.737006 -0.252747 -0.745639 0.000000000000000e+00 1886740808
0.777032 -0.313163 -0.813108 0.000000000000000e+00 1886740808
2.078368 -1.108502 -2.339732 0.000000000000000e+00 1634890835
0.807247 -0.488253 -0.945610 0.000000000000000e+00 1886740808
0.722674 -0.247459 -0.743560 0.000000000000000e+00 1886740808
0.763603 -0.307538 -0.812864 0.000000000000000e+00 1886740808
2.008559 -1.071929 -2.301768 0.000000000000000e+00 1634890835
0.793709 -0.480635 -0.946824 0.000000000000000e+00 1886740808
0.784635 -0.268265 -0.821021 0.000000000000000e+00 1886740808
2.133035 -0.858467 -2.309875 0.000000000000000e+00 1634890835
0.820252 -0.438028 -0.956885 0.000000000000000e+00 1886740808
0.793189 -0.480903 -0.963590 0.000000000000000e+00 1886740808
0.740158 -0.252664 -0.787629 0.000000000000000e+00 1886740808
2.104223 -0.846267 -2.318047 0.000000000000000e+00 1634890835
0.860301 -0.459708 -1.021653 0.000000000000000e+00 1886740808
0.771943 -0.468599 -0.955026 0.000000000000000e+00 1886740808
0.780143 -0.265891 -0.844273 0.000000000000000e+00 1886740808
2.008993 -0.807379 -2.251393 0.000000000000000e+00 1634890835
0.807325 -0.431680 -0.975996 0.000000000000000e+00 1886740808
1.838487 -1.117435 -2.316406 0.000000000000000e+00 1634890835
2.054749 -0.699176 -2.261423 0.000000000000000e+00 1634890835
2.033164 -0.816486 -2.317887 0.000000000000000e+00 1634890835
0.762244 -0.407846 -0.938104 0.000000000000000e+00 1886740808
1.814277 -1.104133 -2.328061 0.000000000000000e+00 1634890835
2.047570 -0.695586 -2.291820 0.000000000000000e+00 1634890835
1.993232 -0.799845 -2.311701 0.000000000000000e+00 1634890835
0.784204 -0.419878 -0.982549 0.000000000000000e+00 1886740808
0.753931 -0.459426 -0.985312 0.000000000000000e+00 1886740808
2.018494 -0.684557 -2.297710 0.000000000000000e+00 1634890835
1.946396 -0.780449 -2.296510 0.000000000000000e+00 1634890835
0.799883 -0.428568 -1.020317 0.000000000000000e+00 1886740808
1.688689 -1.030414 -2.247821 0.000000000000000e+00 1634890835
1.992827 -0.674695 -2.307130 0.000000000000000e+00 1634890835
0.816758 -0.327240 -0.980404 0.000000000000000e+00 1886740808
1.777167 -0.952855 -2.308005 0.000000000000000e+00 1634890835
1.680389 -1.026742 -2.278304 0.000000000000000e+00 1634890835
1.935228 -0.654050 -2.278666 0.000000000000000e+00 1634890835
0.774129 -0.309911 -0.945395 0.000000000000000e+00 1886740808
0.804129 -0.431454 -1.063294 0.000000000000000e+00 1886740808
1.678036 -1.026725 -2.317480 0.000000000000000e+00 1634890835
1.930520 -0.651297 -2.311969 0.000000000000000e+00 1634890835
0.802170 -0.320875 -0.996714 0.000000000000000e+00 1886740808
1.707304 -0.916720 -2.298689 0.000000000000000e+00 1634890835
1.634435 -1.001461 -2.299433 0.000000000000000e+00 1634890835
0.797346 -0.268510 -0.971247 0.000000000000000e+00 1886740808
0.766368 -0.306297 -0.968865 0.000000000000000e+00 1886740808
1.718286 -0.923306 -2.355761 0.000000000000000e+00 1634890835
1.582180 -0.970843 -2.267653 0.000000000000000e+00 1634890835
0.763184 -0.256529 -0.945594 0.000000000000000e+00 1886740808
0.759524 -0.303304 -0.977035 0.000000000000000e+00 1886740808
1.671037 -0.898600 -2.333003 0.000000000000000e+00 1634890835
1.580402 -0.971183 -2.307740 0.000000000000000e+00 1634890835
0.785358 -0.263481 -0.989818 0.000000000000000e+00 1886740808
0.803780 -0.320697 -1.052135 0.000000000000000e+00 1886740808
1.636063 -0.880478 -2.326230 0.000000000000000e+00 1634890835
1.528443 -0.940668 -2.274057 0.000000000000000e+00 1634890835
0.797530 -0.267045 -1.022513 0.000000000000000e+00 1886740808
1.727564 -0.688662 -2.301228 0.000000000000000e+00 1634890835
1.614243 -0.869425 -2.337641 0.000000000000000e+00 1634890835
1.540637 -0.949634 -2.335732 0.000000000000000e+00 1634890835
0.791498 -0.264500 -1.032360 0.000000000000000e+00 1886740808
1.688398 -0.672438 -2.288858 0.000000000000000e+00 1634890835
1.572063 -0.847395 -2.318838 0.000000000000000e+00 1634890835
1.493016 -0.921731 -2.306733 0.000000000000000e+00 1634890835
0.791194 -0.263862 -1.049904 0.000000000000000e+00 1886740808
0.796374 -0.316877 -1.098777 0.000000000000000e+00 1886740808
1.545055 -0.833530 -2.321531 0.000000000000000e+00 1634890835
1.435826 -0.887852 -2.260936 0.000000000000000e+00 1634890835
1.701132 -0.566147 -2.296784 0.000000000000000e+00 1634890835
1.633037 -0.649168 -2.293351 0.000000000000000e+00 1634890835
1.523643 -0.822677 -2.332304 0.000000000000000e+00 1634890835
1.415997 -0.877036 -2.272738 0.000000000000000e+00 1634890835
0.751977 -0.249731 -1.033079 0.000000000000000e+00 1886740808
1.603109 -0.636651 -2.291682 0.000000000000000e+00 1634890835
1.485435 -0.802748 -2.316707 0.000000000000000e+00 1634890835
1.422148 -0.882335 -2.326924 0.000000000000000e+00 1634890835
1.625493 -0.538649 -2.272450 0.000000000000000e+00 1634890835
1.579801 -0.626769 -2.299048 0.000000000000000e+00 1634890835
1.433910 -0.775593 -2.278779 0.000000000000000e+00 1634890835
1.356331 -0.842956 -2.262590 0.000000000000000e+00 1634890835
1.634592 -0.540458 -2.325608 0.000000000000000e+00 1634890835
1.567038 -0.621072 -2.321778 0.000000000000000e+00 1634890835
1.411603 -0.764224 -2.286158 0.000000000000000e+00 1634890835
1.360341 -0.846947 -2.313917 0.000000000000000e+00 1634890835
1.602540 -0.528650 -2.320558 0.000000000000000e+00 1634890835
1.525702 -0.604056 -2.301706 0.000000000000000e+00 1634890835
1.390326 -0.753410 -2.294972 0.000000000000000e+00 1634890835
1.325323 -0.826646 -2.299014 0.000000000000000e+00 1634890835
1.536528 -0.505684 -2.264759 0.000000000000000e+00 1634890835
1.498236 -0.592545 -2.301680 0.000000000000000e+00 1634890835
1.373735 -0.745134 -2.311467 0.000000000000000e+00 1634890835
1.309340 -0.818200 -2.316625 0.000000000000000e+00 1634890835
1.533060 -0.503329 -2.300294 0.000000000000000e+00 1634890835
1.471556 -0.581353 -2.302371 0.000000000000000e+00 1634890835
1.346280 -0.730962 -2.309429 0.000000000000000e+00 1634890835
1.276911 -0.799463 -2.304703 0.000000000000000e+00 1634890835
1.519022 -0.497487 -2.320482 0.000000000000000e+00 1634890835
1.468845 -0.579627 -2.340780 0.000000000000000e+00 1634890835
1.322282 -0.718657 -2.312819 0.000000000000000e+00 1634890835
1.245831 -0.781537 -2.294223 0.000000000000000e+00 1634890835
1.454963 -0.475300 -2.263114 0.000000000000000e+00 1634890835
1.448089 -0.570775 -2.350831 0.000000000000000e+00 1634890835
1.318105 -0.717131 -2.351168 0.000000000000000e+00 1634890835
1.215133 -0.763820 -2.283486 0.000000000000000e+00 1634890835
1.461191 -0.476090 -2.314485 0.000000000000000e+00 1634890835
1.396561 -0.549810 -2.309860 0.000000000000000e+00 1634890835
1.290489 -0.702855 -2.347880 0.000000000000000e+00 1634890835
1.180828 -0.743794 -2.264844 0.000000000000000e+00 1634890835
1.434123 -0.466018 -2.313574 0.000000000000000e+00 1634890835
1.393323 -0.547863 -2.348222 0.000000000000000e+00 1634890835
1.244841 -0.678736 -2.310462 0.000000000000000e+00 1634890835
1.182881 -0.746678 -2.316085 0.000000000000000e+00 1634890835
1.410357 -0.457032 -2.317580 0.000000000000000e+00 1634890835
1.332692 -0.523363 -2.288989 0.000000000000000e+00 1634890835
1.213793 -0.662555 -2.298645 0.000000000000000e+00 1634890835
1.150319 -0.727719 -2.299758 0.000000000000000e+00 1634890835
1.356454 -0.438317 -2.270814 0.000000000000000e+00 1634890835
1.323154 -0.518945 -2.316432 0.000000000000000e+00 1634890835
1.200090 -0.655835 -2.319359 0.000000000000000e+00 1634890835
1.147328 -0.727469 -2.342585 0.000000000000000e+00 1634890835
1.335948 -0.430427 -2.278783 0.000000000000000e+00 1634890835
1.297288 -0.508122 -2.315331 0.000000000000000e+00 1634890835
1.185303 -0.648529 -2.338291 0.000000000000000e+00 1634890835
1.097553 -0.697528 -2.289156 0.000000000000000e+00 1634890835
1.330336 -0.427328 -2.312497 0.000000000000000e+00 1634890835
1.276408 -0.499256 -2.322788 0.000000000000000e+00 1634890835
1.148880 -0.629374 -2.313938 0.000000000000000e+00 1634890835
1.103845 -0.703212 -2.352359 0.000000000000000e+00 1634890835
1.298198 -0.415710 -2.300062 0.000000000000000e+00 1634890835
1.255951 -0.490560 -2.330861 0.000000000000000e+00 1634890835
1.103032 -0.605024 -2.268666 0.000000000000000e+00 1634890835
1.055262 -0.673926 -2.298321 0.000000000000000e+00 1634890835
1.283556 -0.409703 -2.318297 0.000000000000000e+00 1634890835
1.217492 -0.474844 -2.304715 0.000000000000000e+00 1634890835
1.079003 -0.592619 -2.266802 0.000000000000000e+00 1634890835
1.032842 -0.661293 -2.299606 0.000000000000000e+00 1634890835
1.248926 -0.397331 -2.299998 0.000000000000000e+00 1634890835
1.205008 -0.469268 -2.327218 0.000000000000000e+00 1634890835
1.095225 -0.602342 -2.350774 0.000000000000000e+00 1634890835
1.027169 -0.659397 -2.338577 0.000000000000000e+00 1634890835
1.202907 -0.381381 -2.259139 0.000000000000000e+00 1634890835
1.174774 -0.456782 -2.315209 0.000000000000000e+00 1634890835
1.045414 -0.575751 -2.293116 0.000000000000000e+00 1634890835
0.981193 -0.631601 -2.284975 0.000000000000000e+00 1634890835
1.186339 -0.374797 -2.272633 0.000000000000000e+00 1634890835
1.138892 -0.442118 -2.290894 0.000000000000000e+00 1634890835
1.025637 -0.565673 -2.299751 0.000000000000000e+00 1634890835
0.988181 -0.637895 -2.354588 0.000000000000000e+00 1634890835
1.162849 -0.366032 -2.272724 0.000000000000000e+00 1634890835
1.111437 -0.430743 -2.282423 0.000000000000000e+00 1634890835
1.021481 -0.564222 -2.342036 0.000000000000000e+00 1634890835
0.925497 -0.599174 -2.257071 0.000000000000000e+00 1634890835
1.146147 -0.359407 -2.285936 0.000000000000000e+00 1634890835
1.088971 -0.421309 -2.283619 0.000000000000000e+00 1634890835
0.983300 -0.543972 -2.305987 0.000000000000000e+00 1634890835
0.920689 -0.597864 -2.298914 0.000000000000000e+00 1634890835
1.115944 -0.348562 -2.271796 0.000000000000000e+00 1634890835
1.071447 -0.413791 -2.295024 0.000000000000000e+00 1634890835
0.974662 -0.540056 -2.338684 0.000000000000000e+00 1634890835
0.915910 -0.596626 -2.342388 0.000000000000000e+00 1634890835
1.107947 -0.344654 -2.302801 0.000000000000000e+00 1634890835
1.055035 -0.406700 -2.308931 0.000000000000000e+00 1634890835
0.949912 -0.527216 -2.332888 0.000000000000000e+00 1634890835
0.887714 -0.580139 -2.326158 0.000000000000000e+00 1634890835
1.091582 -0.338128 -2.316957 0.000000000000000e+00 1634890835
1.033897 -0.397787 -2.312456 0.000000000000000e+00 1634890835
0.901599 -0.501264 -2.267102 0.000000000000000e+00 1634890835
0.857340 -0.562181 -2.302781 0.000000000000000e+00 1634890835
1.067097 -0.329092 -2.313702 0.000000000000000e+00 1634890835
0.995338 -0.382190 -2.275880 0.000000000000000e+00 1634890835
0.885629 -0.493265 -2.280963 0.000000000000000e+00 1634890835
0.848410 -0.558278 -2.336799 0.000000000000000e+00 1634890835
1.048998 -0.322032 -2.324046 0.000000000000000e+00 1634890835
0.970550 -0.371901 -2.269428 0.000000000000000e+00 1634890835
0.889642 -0.496421 -2.347797 0.000000000000000e+00 1634890835
0.465953 -0.307729 -1.316635 0.000000000000000e+00 1936876886
1.009799 -0.308523 -2.286662 0.000000000000000e+00 1634890835
0.975903 -0.373149 -2.334370 0.000000000000000e+00 1634890835
0.868867 -0.485767 -2.350488 0.000000000000000e+00 1634890835
0.453860 -0.300882 -1.316307 0.000000000000000e+00 1936876886
0.990141 -0.301019 -2.292443 0.000000000000000e+00 1634890835
0.939214 -0.358316 -2.299022 0.000000000000000e+00 1634890835
0.835156 -0.467860 -2.316970 0.000000000000000e+00 1634890835
0.432102 -0.287592 -1.286907 0.000000000000000e+00 1936876886
0.968923 -0.293045 -2.294398 0.000000000000000e+00 1634890835
0.908106 -0.345639 -2.275570 0.000000000000000e+00 1634890835
0.468847 -0.263203 -1.334544 0.000000000000000e+00 1936876886
0.345912 -0.231178 -1.058471 0.000000000000000e+00 1953264973
0.947367 -0.284980 -2.295235 0.000000000000000e+00 1634890835
0.891388 -0.338450 -2.287510 0.000000000000000e+00 1634890835
0.440523 -0.247843 -1.287148 0.000000000000000e+00 1936876886
0.305373 -0.204966 -0.960588 0.000000000000000e+00 1953264973
0.510320 -0.152645 -1.265434 0.000000000000000e+00 1936876886
0.863979 -0.327210 -2.271528 0.000000000000000e+00 1634890835
0.387692 -0.218619 -1.163398 0.000000000000000e+00 1953264973
0.277471 -0.187079 -0.897781 0.000000000000000e+00 1953264973
0.507382 -0.150870 -1.288210 0.000000000000000e+00 1936876886
0.856120 -0.323371 -2.307034 0.000000000000000e+00 1634890835
0.347724 -0.196550 -1.072242 0.000000000000000e+00 1953264973
0.254574 -0.172452 -0.847779 0.000000000000000e+00 1953264973
0.475200 -0.140427 -1.235831 0.000000000000000e+00 1936876886
0.832490 -0.313571 -2.300378 0.000000000000000e+00 1634890835
0.324343 -0.183794 -1.028321 0.000000000000000e+00 1953264973
0.242336 -0.164974 -0.831164 0.000000000000000e+00 1953264973
