# .PCD v0.7 - Point Cloud Data file format
VERSION 0.7
FIELDS x y z rgb label
SIZE 4 4 4 4 4
TYPE F F F F U
COUNT 1 1 1 1 1
WIDTH 536
HEIGHT 1
VIEWPOINT 0 0 0 1 0 0 0
POINTS 536
DATA ascii
32.478813 -12.075117 -2.063516 0.000000000000000e+00 1851878480
31.873096 -13.332359 -1.943057 0.000000000000000e+00 1851878480
29.297983 -15.119088 -1.584297 0.000000000000000e+00 1851878480
27.749624 -15.755260 -1.378032 0.000000000000000e+00 1851878480
29.033066 -10.785856 -2.108347 0.000000000000000e+00 1851878480
28.205006 -11.793904 -1.983489 0.000000000000000e+00 1851878480
26.724251 -13.795204 -1.711863 0.000000000000000e+00 1851878480
25.878040 -14.701311 -1.552357 0.000000000000000e+00 1851878480
26.509548 -9.840880 -2.166139 0.000000000000000e+00 1851878480
26.058655 -10.892574 -2.076741 0.000000000000000e+00 1851878480
24.979918 -12.898764 -1.849749 0.000000000000000e+00 1851878480
24.548624 -13.954290 -1.726478 0.000000000000000e+00 1851878480
24.182573 -8.970238 -2.196121 0.000000000000000e+00 1851878480
24.389872 -10.191439 -2.172564 0.000000000000000e+00 1851878480
23.639881 -12.210592 -1.987069 0.000000000000000e+00 1851878480
23.431707 -13.327284 -1.890599 0.000000000000000e+00 1851878480
22.199787 -8.228476 -2.218368 0.000000000000000e+00 1851878480
22.416563 -9.363598 -2.207358 0.000000000000000e+00 1851878480
22.153059 -11.446173 -2.084091 0.000000000000000e+00 1851878480
21.886971 -12.456046 -1.992995 0.000000000000000e+00 1851878480
20.484371 -7.586860 -2.233876 0.000000000000000e+00 1851878480
20.648737 -8.622115 -2.227517 0.000000000000000e+00 1851878480
20.740900 -10.719852 -2.159422 0.000000000000000e+00 1851878480
20.453129 -11.646945 -2.074962 0.000000000000000e+00 1851878480
18.929640 -7.005672 -2.237326 0.000000000000000e+00 1851878480
19.020010 -7.939223 -2.231015 0.000000000000000e+00 1851878480
19.372528 -10.015738 -2.211755 0.000000000000000e+00 1851878480
19.076891 -10.869698 -2.133961 0.000000000000000e+00 1851878480
17.577673 -6.500339 -2.238439 0.000000000000000e+00 1851878480
17.634588 -7.358325 -2.234943 0.000000000000000e+00 1851878480
17.830639 -9.221445 -2.215366 0.000000000000000e+00 1851878480
17.853621 -10.178756 -2.183394 0.000000000000000e+00 1851878480
16.396896 -6.059028 -2.238438 0.000000000000000e+00 1851878480
16.435871 -6.855718 -2.238439 0.000000000000000e+00 1851878480
16.516342 -8.544406 -2.218831 0.000000000000000e+00 1851878480
16.618713 -9.480359 -2.206151 0.000000000000000e+00 1851878480
15.362929 -5.672594 -2.238439 0.000000000000000e+00 1851878480
15.366802 -6.407507 -2.238439 0.000000000000000e+00 1851878480
15.389405 -7.963899 -2.223168 0.000000000000000e+00 1851878480
15.423654 -8.803882 -2.209172 0.000000000000000e+00 1851878480
14.449850 -5.331330 -2.238438 0.000000000000000e+00 1851878480
14.426387 -6.013242 -2.238438 0.000000000000000e+00 1851878480
14.425376 -7.467367 -2.230232 0.000000000000000e+00 1851878480
14.417060 -8.234245 -2.216500 0.000000000000000e+00 1851878480
13.637502 -5.027728 -2.238437 0.000000000000000e+00 1851878480
13.592611 -5.663691 -2.238439 0.000000000000000e+00 1851878480
13.584818 -7.034466 -2.238439 0.000000000000000e+00 1851878480
13.561873 -7.750463 -2.227931 0.000000000000000e+00 1851878480
12.910007 -4.755836 -2.238439 0.000000000000000e+00 1851878480
12.848191 -5.351592 -2.238438 0.000000000000000e+00 1851878480
12.793031 -6.626556 -2.238438 0.000000000000000e+00 1851878480
12.799944 -7.319433 -2.238034 0.000000000000000e+00 1851878480
12.254610 -4.510887 -2.238438 0.000000000000000e+00 1851878480
12.179394 -5.071209 -2.238439 0.000000000000000e+00 1851878480
12.086512 -6.262576 -2.238438 0.000000000000000e+00 1851878480
12.070440 -6.906456 -2.238439 0.000000000000000e+00 1851878480
6.661455 -2.450152 -1.278724 1.880790849211783e-38 1684957512
6.612407 -2.752258 -1.278724 1.880790849211783e-38 1684957512
6.542104 -3.390840 -1.278724 1.880790849211783e-38 1684957512
11.415786 -6.535827 -2.238438 0.000000000000000e+00 1851878480
6.352878 -2.334825 -1.278724 1.880790849211783e-38 1684957512
6.299002 -2.620863 -1.278724 1.880790849211783e-38 1684957512
6.214849 -3.222243 -1.278724 1.880790849211783e-38 1684957512
10.826600 -6.202271 -2.238438 0.000000000000000e+00 1851878480
6.070822 -2.229413 -1.278724 1.880790849211783e-38 1684957512
6.013119 -2.501008 -1.278724 1.880790849211783e-38 1684957512
5.917820 -3.069221 -1.278724 1.880790849211783e-38 1684957512
5.880207 -3.370669 -1.278724 1.880790849211783e-38 1684957512
5.811966 -2.132674 -1.278724 1.880790849211783e-38 1684957512
5.751235 -2.391215 -1.278724 1.880790849211783e-38 1684957512
5.646962 -2.929687 -1.278724 1.880790849211783e-38 1684957512
5.603242 -3.213873 -1.278723 1.880790849211783e-38 1684957512
5.573541 -2.043568 -1.278723 1.880790849211783e-38 1684957512
5.510433 -2.290262 -1.278723 1.880790849211783e-38 1684957512
5.398944 -2.801913 -1.278724 1.880790849211783e-38 1684957512
5.350264 -3.070657 -1.278724 1.880790849211783e-38 1684957512
5.353181 -1.961216 -1.278723 1.880790849211783e-38 1684957512
5.288226 -2.197104 -1.278724 1.880790849211783e-38 1684957512
5.170949 -2.684457 -1.278723 1.880790849211783e-38 1684957512
5.118244 -2.939308 -1.278724 1.880790849211783e-38 1684957512
5.148883 -1.884865 -1.278724 1.880790849211783e-38 1684957512
5.082513 -2.110860 -1.278724 1.880790849211783e-38 1684957512
4.960620 -2.576101 -1.278724 1.880790849211783e-38 1684957512
4.904651 -2.818388 -1.278724 1.880790849211783e-38 1684957512
4.958920 -1.813876 -1.278724 1.880790849211783e-38 1684957512
4.891494 -2.030778 -1.278724 1.880790849211783e-38 1684957512
4.865242 -2.527393 -1.305365 1.880790849211783e-38 1684957512
4.865242 -2.797482 -1.321617 1.880790849211783e-38 1684957512
4.865241 -1.778183 -1.301033 1.880790849211783e-38 1684957512
4.865242 -2.019131 -1.319856 1.880790849211783e-38 1684957512
4.865241 -2.528221 -1.356817 1.880790849211783e-38 1684957512
4.865242 -2.799231 -1.375028 1.880790849211783e-38 1684957512
4.865242 -1.776748 -1.347689 1.880790849211783e-38 1684957512
4.865242 -2.018382 -1.368053 1.880790849211783e-38 1684957512
4.865242 -2.529049 -1.408502 1.880790849211783e-38 1684957512
4.865241 -2.800986 -1.428692 1.880790849211783e-38 1684957512
4.865241 -1.775307 -1.394539 1.880790849211783e-38 1684957512
4.865240 -2.017628 -1.416459 1.880790849211783e-38 1684957512
4.865241 -2.529885 -1.460431 1.880790849211783e-38 1684957512
4.865242 -2.802752 -1.482620 1.880790849211783e-38 1684957512
4.865241 -1.773863 -1.441594 1.880790849211783e-38 1684957512
4.865242 -2.016871 -1.465083 1.880790849211783e-38 1684957512
4.865241 -2.530725 -1.512612 1.880790849211783e-38 1684957512
4.865241 -2.804530 -1.536821 1.880790849211783e-38 1684957512
4.865241 -1.772412 -1.488861 1.880790849211783e-38 1684957512
4.865242 -2.016112 -1.513936 1.880790849211783e-38 1684957512
4.865242 -2.531567 -1.565057 1.880790849211783e-38 1684957512
4.865241 -2.806313 -1.591306 1.880790849211783e-38 1684957512
4.865241 -1.770958 -1.536352 1.880790849211783e-38 1684957512
4.865242 -2.015348 -1.563025 1.880790849211783e-38 1684957512
4.865241 -2.532415 -1.617776 1.880790849211783e-38 1684957512
4.865242 -2.808111 -1.646090 1.880790849211783e-38 1684957512
4.865242 -1.769494 -1.584069 1.880790849211783e-38 1684957512
4.865242 -2.014579 -1.612359 1.880790849211783e-38 1684957512
4.865241 -2.533267 -1.670778 1.880790849211783e-38 1684957512
4.865242 -2.809919 -1.701179 1.880790849211783e-38 1684957512
4.865242 -1.768023 -1.632026 1.880790849211783e-38 1684957512
4.865241 -2.013808 -1.661948 1.880790849211783e-38 1684957512
4.865242 -2.534128 -1.724075 1.880790849211783e-38 1684957512
4.865242 -2.811736 -1.756586 1.880790849211783e-38 1684957512
4.865241 -1.766547 -1.680229 1.880790849211783e-38 1684957512
4.865242 -2.013033 -1.711801 1.880790849211783e-38 1684957512
4.865242 -2.534990 -1.777676 1.880790849211783e-38 1684957512
4.865241 -2.813568 -1.812323 1.880790849211783e-38 1684957512
4.865242 -1.765064 -1.728690 1.880790849211783e-38 1684957512
4.865242 -2.012255 -1.761928 1.880790849211783e-38 1684957512
4.865242 -2.535859 -1.831595 1.880790849211783e-38 1684957512
4.865241 -2.815410 -1.868403 1.880790849211783e-38 1684957512
4.865241 -1.763573 -1.777416 1.880790849211783e-38 1684957512
4.865242 -2.011469 -1.812339 1.880790849211783e-38 1684957512
4.865241 -2.536731 -1.885841 1.880790849211783e-38 1684957512
4.865241 -2.817265 -1.924838 1.880790849211783e-38 1684957512
4.865242 -1.762074 -1.826416 1.880790849211783e-38 1684957512
4.865242 -2.010683 -1.863043 1.880790849211783e-38 1684957512
4.865241 -2.537611 -1.940426 1.880790849211783e-38 1684957512
4.865241 -2.819129 -1.981638 1.880790849211783e-38 1684957512
4.865242 -1.760568 -1.875700 1.880790849211783e-38 1684957512
4.865242 -2.009891 -1.914051 1.880790849211783e-38 1684957512
4.865242 -2.538495 -1.995361 1.880790849211783e-38 1684957512
4.865242 -2.821012 -2.038818 1.880790849211783e-38 1684957512
4.865241 -1.759053 -1.925279 1.880790849211783e-38 1684957512
4.865241 -2.009093 -1.965373 1.880790849211783e-38 1684957512
4.865241 -2.539387 -2.050659 1.880790849211783e-38 1684957512
4.865241 -2.822905 -2.096389 1.880790849211783e-38 1684957512
4.865241 -1.757528 -1.975160 1.880790849211783e-38 1684957512
4.865242 -2.008289 -2.017020 1.880790849211783e-38 1684957512
4.865242 -2.540284 -2.106333 1.880790849211783e-38 1684957512
4.865241 -2.824816 -2.154367 1.880790849211783e-38 1684957512
4.865242 -1.755997 -2.025359 1.880790849211783e-38 1684957512
4.865241 -2.007485 -2.069004 1.880790849211783e-38 1684957512
4.865242 -2.541189 -2.162396 1.880790849211783e-38 1684957512
4.865240 -2.826739 -2.212765 1.880790849211783e-38 1684957512
4.865242 -1.754454 -2.075880 1.880790849211783e-38 1684957512
4.865241 -2.006672 -2.121333 1.880790849211783e-38 1684957512
4.865241 -2.542099 -2.218858 1.880790849211783e-38 1684957512
4.794226 -2.787390 -2.238438 0.000000000000000e+00 1851878480
4.865241 -1.752903 -2.126736 1.880790849211783e-38 1684957512
4.865242 -2.005855 -2.174021 1.880790849211783e-38 1684957512
4.785508 -2.501341 -2.238438 0.000000000000000e+00 1851878480
4.672304 -2.718377 -2.238438 0.000000000000000e+00 1851878480
4.865242 -1.751343 -2.177939 1.880790849211783e-38 1684957512
4.865241 -2.005032 -2.227079 1.880790849211783e-38 1684957512
4.667970 -2.440789 -2.238438 0.000000000000000e+00 1851878480
4.555545 -2.652293 -2.238438 0.000000000000000e+00 1851878480
4.865242 -1.749773 -2.229498 1.880790849211783e-38 1684957512
4.775468 -1.967223 -2.238438 0.000000000000000e+00 1851878480
4.555225 -2.382710 -2.238438 0.000000000000000e+00 1851878480
4.443617 -2.588940 -2.238438 0.000000000000000e+00 1851878480
4.773566 -1.715247 -2.238438 0.000000000000000e+00 1851878480
4.665337 -1.921054 -2.238439 0.000000000000000e+00 1851878480
4.446968 -2.326942 -2.238438 0.000000000000000e+00 1851878480
4.336202 -2.528143 -2.238438 0.000000000000000e+00 1851878480
4.666572 -1.675275 -2.238438 0.000000000000000e+00 1851878480
4.559397 -1.876643 -2.238439 0.000000000000000e+00 1851878480
4.342926 -2.273347 -2.238438 0.000000000000000e+00 1851878480
4.233025 -2.469746 -2.238438 0.000000000000000e+00 1851878480
4.563519 -1.636774 -2.238438 0.000000000000000e+00 1851878480
4.457397 -1.833884 -2.238438 0.000000000000000e+00 1851878480
4.242839 -2.221788 -2.238438 0.000000000000000e+00 1851878480
4.133820 -2.413598 -2.238439 0.000000000000000e+00 1851878480
4.464178 -1.599664 -2.238438 0.000000000000000e+00 1851878480
4.359105 -1.792679 -2.238438 0.000000000000000e+00 1851878480
4.146472 -2.172144 -2.238438 0.000000000000000e+00 1851878480
4.038346 -2.359563 -2.238439 0.000000000000000e+00 1851878480
4.368338 -1.563859 -2.238438 0.000000000000000e+00 1851878480
4.264309 -1.752939 -2.238439 0.000000000000000e+00 1851878480
4.053603 -2.124304 -2.238438 0.000000000000000e+00 1851878480
3.946382 -2.307513 -2.238438 0.000000000000000e+00 1851878480
4.275806 -1.529294 -2.238438 0.000000000000000e+00 1851878480
4.172814 -1.714584 -2.238438 0.000000000000000e+00 1851878480
3.964038 -2.078167 -2.238439 0.000000000000000e+00 1851878480
3.857727 -2.257339 -2.238438 0.000000000000000e+00 1851878480
4.186402 -1.495893 -2.238438 0.000000000000000e+00 1851878480
4.084438 -1.677536 -2.238438 0.000000000000000e+00 1851878480
3.877585 -2.033633 -2.238438 0.000000000000000e+00 1851878480
3.772191 -2.208930 -2.238438 0.000000000000000e+00 1851878480
4.099955 -1.463601 -2.238438 0.000000000000000e+00 1851878480
3.999008 -1.641725 -2.238438 0.000000000000000e+00 1851878480
3.794076 -1.990616 -2.238438 0.000000000000000e+00 1851878480
3.689600 -2.162189 -2.238438 0.000000000000000e+00 1851878480
4.016309 -1.432354 -2.238438 0.000000000000000e+00 1851878480
3.916372 -1.607084 -2.238438 0.000000000000000e+00 1851878480
3.713349 -1.949031 -2.238438 0.000000000000000e+00 1851878480
3.609791 -2.117022 -2.238438 0.000000000000000e+00 1851878480
4.006146 -1.427336 -2.278726 0.000000000000000e+00 1634890835
3.836381 -1.573551 -2.238438 0.000000000000000e+00 1851878480
3.635254 -1.908803 -2.238438 0.000000000000000e+00 1851878480
3.532613 -2.073345 -2.238438 0.000000000000000e+00 1851878480
3.926262 -1.397496 -2.278725 0.000000000000000e+00 1634890835
3.758894 -1.541070 -2.238438 0.000000000000000e+00 1851878480
3.559654 -1.869857 -2.238438 0.000000000000000e+00 1851878480
3.457926 -2.031078 -2.238438 0.000000000000000e+00 1851878480
3.848816 -1.368567 -2.278726 0.000000000000000e+00 1634890835
3.683792 -1.509588 -2.238438 0.000000000000000e+00 1851878480
3.486422 -1.832134 -2.238438 0.000000000000000e+00 1851878480
3.385603 -1.990150 -2.238438 0.000000000000000e+00 1851878480
3.773684 -1.340505 -2.278726 0.000000000000000e+00 1634890835
3.610951 -1.479055 -2.238438 0.000000000000000e+00 1851878480
3.415433 -1.795569 -2.238438 0.000000000000000e+00 1851878480
3.315520 -1.950490 -2.238438 0.000000000000000e+00 1851878480
3.700755 -1.313265 -2.278726 0.000000000000000e+00 1634890835
3.540262 -1.449423 -2.238438 0.000000000000000e+00 1851878480
3.346580 -1.760102 -2.238438 0.000000000000000e+00 1851878480
3.247564 -1.912036 -2.238438 0.000000000000000e+00 1851878480
3.629922 -1.286809 -2.278726 0.000000000000000e+00 1634890835
3.471620 -1.420647 -2.238438 0.000000000000000e+00 1851878480
3.279752 -1.725677 -2.238438 0.000000000000000e+00 1851878480
3.181630 -1.874723 -2.238438 0.000000000000000e+00 1851878480
3.561088 -1.261099 -2.278726 0.000000000000000e+00 1634890835
3.466210 -1.417758 -2.278726 0.000000000000000e+00 1634890835
3.214858 -1.692249 -2.238438 0.000000000000000e+00 1851878480
3.117620 -1.838502 -2.238438 0.000000000000000e+00 1851878480
3.494160 -1.236101 -2.278726 0.000000000000000e+00 1634890835
3.400211 -1.390091 -2.278726 0.000000000000000e+00 1634890835
3.151801 -1.659767 -2.238438 0.000000000000000e+00 1851878480
3.055439 -1.803316 -2.238438 0.000000000000000e+00 1851878480
3.429048 -1.211785 -2.278726 0.000000000000000e+00 1634890835
3.336015 -1.363181 -2.278725 0.000000000000000e+00 1634890835
3.090496 -1.628188 -2.238438 0.000000000000000e+00 1851878480
2.995003 -1.769118 -2.238438 0.000000000000000e+00 1851878480
3.365673 -1.188116 -2.278726 0.000000000000000e+00 1634890835
3.273541 -1.336996 -2.278726 0.000000000000000e+00 1634890835
3.030862 -1.597471 -2.238438 0.000000000000000e+00 1851878480
2.936229 -1.735860 -2.238438 0.000000000000000e+00 1851878480
3.303954 -1.165064 -2.278726 0.000000000000000e+00 1634890835
3.212712 -1.311496 -2.278726 0.000000000000000e+00 1634890835
2.972820 -1.567573 -2.238438 0.000000000000000e+00 1851878480
2.879038 -1.703499 -2.238438 0.000000000000000e+00 1851878480
3.243821 -1.142607 -2.278726 0.000000000000000e+00 1634890835
3.153455 -1.286657 -2.278726 0.000000000000000e+00 1634890835
2.916302 -1.538460 -2.238438 0.000000000000000e+00 1851878480
2.823362 -1.671995 -2.238438 0.000000000000000e+00 1851878480
3.185204 -1.120716 -2.278726 0.000000000000000e+00 1634890835
3.095701 -1.262449 -2.278726 0.000000000000000e+00 1634890835
2.861239 -1.510097 -2.238438 0.000000000000000e+00 1851878480
2.769130 -1.641311 -2.238438 0.000000000000000e+00 1851878480
3.128040 -1.099368 -2.278726 0.000000000000000e+00 1634890835
3.039387 -1.238844 -2.278726 0.000000000000000e+00 1634890835
2.807567 -1.482452 -2.238438 0.000000000000000e+00 1851878480
2.716283 -1.611408 -2.238438 0.000000000000000e+00 1851878480
3.072264 -1.078540 -2.278726 0.000000000000000e+00 1634890835
2.984450 -1.215815 -2.278726 0.000000000000000e+00 1634890835
2.755227 -1.455491 -2.238438 0.000000000000000e+00 1851878480
0.840392 -0.499000 -0.705943 0.000000000000000e+00 1886740808
3.017820 -1.058208 -2.278726 0.000000000000000e+00 1634890835
2.930830 -1.193340 -2.278726 0.000000000000000e+00 1634890835
2.704159 -1.429187 -2.238438 0.000000000000000e+00 1851878480
0.824540 -0.490031 -0.705943 0.000000000000000e+00 1886740808
2.964654 -1.038356 -2.278726 0.000000000000000e+00 1634890835
2.878477 -1.171397 -2.278726 0.000000000000000e+00 1634890835
0.837099 -0.442630 -0.705943 0.000000000000000e+00 1886740808
0.809070 -0.481279 -0.705943 0.000000000000000e+00 1886740808
2.912715 -1.018961 -2.278726 0.000000000000000e+00 1634890835
2.827338 -1.149959 -2.278726 0.000000000000000e+00 1634890835
0.821749 -0.434723 -0.705943 0.000000000000000e+00 1886740808
0.793967 -0.472733 -0.705943 0.000000000000000e+00 1886740808
2.861951 -1.000005 -2.278726 0.000000000000000e+00 1634890835
2.777362 -1.129012 -2.278726 0.000000000000000e+00 1634890835
0.806752 -0.426998 -0.705943 0.000000000000000e+00 1886740808
0.779214 -0.464386 -0.705943 0.000000000000000e+00 1886740808
2.812316 -0.981472 -2.278726 0.000000000000000e+00 1634890835
2.728503 -1.108533 -2.278726 0.000000000000000e+00 1634890835
0.792094 -0.419448 -0.705943 0.000000000000000e+00 1886740808
0.764797 -0.456231 -0.705943 0.000000000000000e+00 1886740808
2.763765 -0.963343 -2.278726 0.000000000000000e+00 1634890835
0.830479 -0.337215 -0.705943 0.000000000000000e+00 1886740808
0.777762 -0.412066 -0.705943 0.000000000000000e+00 1886740808
0.750703 -0.448257 -0.705943 0.000000000000000e+00 1886740808
0.841490 -0.292946 -0.705943 0.000000000000000e+00 1886740808
0.815995 -0.331144 -0.705943 0.000000000000000e+00 1886740808
0.763744 -0.404845 -0.705943 0.000000000000000e+00 1886740808
0.744295 -0.444867 -0.713009 0.000000000000000e+00 1886740808
0.827083 -0.287567 -0.705943 0.000000000000000e+00 1886740808
0.801818 -0.325202 -0.705943 0.000000000000000e+00 1886740808
0.750026 -0.397779 -0.705943 0.000000000000000e+00 1886740808
0.744295 -0.445311 -0.726301 0.000000000000000e+00 1886740808
0.812975 -0.282300 -0.705943 0.000000000000000e+00 1886740808
0.787937 -0.319383 -0.705943 0.000000000000000e+00 1886740808
0.744295 -0.394948 -0.713321 0.000000000000000e+00 1886740808
0.744295 -0.445762 -0.739800 0.000000000000000e+00 1886740808
0.799155 -0.277140 -0.705943 0.000000000000000e+00 1886740808
0.774339 -0.313684 -0.705943 0.000000000000000e+00 1886740808
0.744295 -0.395158 -0.726288 0.000000000000000e+00 1886740808
0.744295 -0.446220 -0.753513 0.000000000000000e+00 1886740808
0.785612 -0.272084 -0.705943 0.000000000000000e+00 1886740808
0.761016 -0.308100 -0.705943 0.000000000000000e+00 1886740808
0.744295 -0.395372 -0.739457 0.000000000000000e+00 1886740808
0.744295 -0.446685 -0.767447 0.000000000000000e+00 1886740808
0.772336 -0.267127 -0.705943 0.000000000000000e+00 1886740808
0.747956 -0.302626 -0.705943 0.000000000000000e+00 1886740808
0.744295 -0.395589 -0.752833 0.000000000000000e+00 1886740808
0.744295 -0.447158 -0.781610 0.000000000000000e+00 1886740808
0.759317 -0.262267 -0.705943 0.000000000000000e+00 1886740808
0.744295 -0.300956 -0.714725 0.000000000000000e+00 1886740808
0.744295 -0.395810 -0.766426 0.000000000000000e+00 1886740808
0.744295 -0.447639 -0.796009 0.000000000000000e+00 1886740808
0.746546 -0.257499 -0.705943 0.000000000000000e+00 1886740808
0.744295 -0.300765 -0.727149 0.000000000000000e+00 1886740808
0.744295 -0.396035 -0.780241 0.000000000000000e+00 1886740808
2.092190 -1.259676 -2.278724 0.000000000000000e+00 1634890835
0.744295 -0.256362 -0.715831 0.000000000000000e+00 1886740808
0.744295 -0.300570 -0.739767 0.000000000000000e+00 1886740808
0.744295 -0.396263 -0.794287 0.000000000000000e+00 1886740808
2.054431 -1.238317 -2.278724 0.000000000000000e+00 1634890835
0.744295 -0.255996 -0.728032 0.000000000000000e+00 1886740808
0.744295 -0.300373 -0.752586 0.000000000000000e+00 1886740808
2.097576 -1.117403 -2.278724 0.000000000000000e+00 1634890835
2.017379 -1.217359 -2.278724 0.000000000000000e+00 1634890835
0.744295 -0.255624 -0.740424 0.000000000000000e+00 1886740808
0.744295 -0.300172 -0.765611 0.000000000000000e+00 1886740808
2.060542 -1.098329 -2.278724 0.000000000000000e+00 1634890835
0.796275 -0.481053 -0.915942 0.000000000000000e+00 1886740808
0.744295 -0.255246 -0.753013 0.000000000000000e+00 1886740808
0.744295 -0.299969 -0.778850 0.000000000000000e+00 1886740808
2.024175 -1.079597 -2.278724 0.000000000000000e+00 1634890835
0.784636 -0.474576 -0.919123 0.000000000000000e+00 1886740808
0.744295 -0.254862 -0.765806 0.000000000000000e+00 1886740808
0.744295 -0.299762 -0.792311 0.000000000000000e+00 1886740808
1.988450 -1.061197 -2.278724 0.000000000000000e+00 1634890835
0.775673 -0.469713 -0.925309 0.000000000000000e+00 1886740808
0.744295 -0.254473 -0.778810 0.000000000000000e+00 1886740808
2.104269 -0.846890 -2.278724 0.000000000000000e+00 1634890835
0.797388 -0.425818 -0.930213 0.000000000000000e+00 1886740808
0.768823 -0.466130 -0.933989 0.000000000000000e+00 1886740808
0.744295 -0.254077 -0.792032 0.000000000000000e+00 1886740808
2.068527 -0.831911 -2.278723 0.000000000000000e+00 1634890835
0.785518 -0.419747 -0.932844 0.000000000000000e+00 1886740808
0.764549 -0.464111 -0.945879 0.000000000000000e+00 1886740808
0.744295 -0.253673 -0.805479 0.000000000000000e+00 1886740808
2.033381 -0.817180 -2.278723 0.000000000000000e+00 1634890835
0.776431 -0.415161 -0.938648 0.000000000000000e+00 1886740808
1.808579 -1.099257 -2.278724 0.000000000000000e+00 1634890835
2.070469 -0.704525 -2.278724 0.000000000000000e+00 1634890835
1.998811 -0.802691 -2.278724 0.000000000000000e+00 1634890835
0.769417 -0.411684 -0.946931 0.000000000000000e+00 1886740808
1.775828 -1.080733 -2.278724 0.000000000000000e+00 1634890835
2.035869 -0.691611 -2.278724 0.000000000000000e+00 1634890835
1.964797 -0.788434 -2.278723 0.000000000000000e+00 1634890835
0.764805 -0.409492 -0.958243 0.000000000000000e+00 1886740808
0.749057 -0.456456 -0.978942 0.000000000000000e+00 1886740808
2.001816 -0.678901 -2.278724 0.000000000000000e+00 1634890835
1.931321 -0.774404 -2.278724 0.000000000000000e+00 1634890835
0.767169 -0.411040 -0.978586 0.000000000000000e+00 1886740808
1.711905 -1.044580 -2.278724 0.000000000000000e+00 1634890835
1.968291 -0.666388 -2.278724 0.000000000000000e+00 1634890835
0.797682 -0.319597 -0.957506 0.000000000000000e+00 1886740808
1.754621 -0.940767 -2.278724 0.000000000000000e+00 1634890835
1.680699 -1.026931 -2.278724 0.000000000000000e+00 1634890835
1.935278 -0.654067 -2.278723 0.000000000000000e+00 1634890835
0.785811 -0.314588 -0.959661 0.000000000000000e+00 1886740808
0.751062 -0.402982 -0.993125 0.000000000000000e+00 1886740808
1.649974 -1.009554 -2.278724 0.000000000000000e+00 1634890835
1.902760 -0.641932 -2.278723 0.000000000000000e+00 1634890835
0.776731 -0.310699 -0.965105 0.000000000000000e+00 1886740808
1.692476 -0.908758 -2.278724 0.000000000000000e+00 1634890835
1.619714 -0.992441 -2.278724 0.000000000000000e+00 1634890835
0.796758 -0.268312 -0.970530 0.000000000000000e+00 1886740808
0.769655 -0.307611 -0.973021 0.000000000000000e+00 1886740808
1.662095 -0.893112 -2.278724 0.000000000000000e+00 1634890835
1.589905 -0.975582 -2.278724 0.000000000000000e+00 1634890835
0.785168 -0.263918 -0.972831 0.000000000000000e+00 1886740808
0.764879 -0.305443 -0.983925 0.000000000000000e+00 1886740808
1.632159 -0.877694 -2.278724 0.000000000000000e+00 1634890835
1.560531 -0.958972 -2.278724 0.000000000000000e+00 1634890835
0.776222 -0.260415 -0.978302 0.000000000000000e+00 1886740808
0.765617 -0.305471 -1.002181 0.000000000000000e+00 1886740808
1.602651 -0.862497 -2.278724 0.000000000000000e+00 1634890835
1.531580 -0.942598 -2.278724 0.000000000000000e+00 1634890835
0.769282 -0.257587 -0.986297 0.000000000000000e+00 1886740808
1.710670 -0.681928 -2.278724 0.000000000000000e+00 1634890835
1.573558 -0.847512 -2.278724 0.000000000000000e+00 1634890835
1.503035 -0.926457 -2.278724 0.000000000000000e+00 1634890835
0.764661 -0.255532 -0.997356 0.000000000000000e+00 1886740808
1.680923 -0.669461 -2.278724 0.000000000000000e+00 1634890835
1.544868 -0.832736 -2.278724 0.000000000000000e+00 1634890835
1.474888 -0.910539 -2.278724 0.000000000000000e+00 1634890835
0.766228 -0.255536 -1.016775 0.000000000000000e+00 1886740808
0.744044 -0.296055 -1.026577 0.000000000000000e+00 1886740808
1.516566 -0.818160 -2.278724 0.000000000000000e+00 1634890835
1.447122 -0.894837 -2.278724 0.000000000000000e+00 1634890835
1.687756 -0.561695 -2.278724 0.000000000000000e+00 1634890835
1.622622 -0.645028 -2.278724 0.000000000000000e+00 1634890835
1.488640 -0.803778 -2.278724 0.000000000000000e+00 1634890835
1.419727 -0.879346 -2.278724 0.000000000000000e+00 1634890835
0.752070 -0.249761 -1.033206 0.000000000000000e+00 1886740808
1.594045 -0.633051 -2.278724 0.000000000000000e+00 1634890835
1.461080 -0.789586 -2.278724 0.000000000000000e+00 1634890835
1.392690 -0.864059 -2.278724 0.000000000000000e+00 1634890835
1.629980 -0.540136 -2.278724 0.000000000000000e+00 1634890835
1.565836 -0.621228 -2.278724 0.000000000000000e+00 1634890835
1.433876 -0.775574 -2.278724 0.000000000000000e+00 1634890835
1.366003 -0.848967 -2.278724 0.000000000000000e+00 1634890835
1.601639 -0.529562 -2.278724 0.000000000000000e+00 1634890835
1.537980 -0.609555 -2.278724 0.000000000000000e+00 1634890835
1.407013 -0.761740 -2.278724 0.000000000000000e+00 1634890835
1.339652 -0.834066 -2.278724 0.000000000000000e+00 1634890835
1.573650 -0.519119 -2.278724 0.000000000000000e+00 1634890835
1.510469 -0.598025 -2.278724 0.000000000000000e+00 1634890835
1.380483 -0.748076 -2.278724 0.000000000000000e+00 1634890835
1.313626 -0.819351 -2.278724 0.000000000000000e+00 1634890835
1.546002 -0.508802 -2.278724 0.000000000000000e+00 1634890835
1.483293 -0.586635 -2.278724 0.000000000000000e+00 1634890835
1.354276 -0.734579 -2.278724 0.000000000000000e+00 1634890835
1.287919 -0.804814 -2.278724 0.000000000000000e+00 1634890835
1.518684 -0.498609 -2.278724 0.000000000000000e+00 1634890835
1.456442 -0.575382 -2.278724 0.000000000000000e+00 1634890835
1.328381 -0.721243 -2.278724 0.000000000000000e+00 1634890835
1.262518 -0.790451 -2.278724 0.000000000000000e+00 1634890835
1.491686 -0.488534 -2.278724 0.000000000000000e+00 1634890835
1.429905 -0.564261 -2.278724 0.000000000000000e+00 1634890835
1.302789 -0.708063 -2.278724 0.000000000000000e+00 1634890835
1.237415 -0.776258 -2.278724 0.000000000000000e+00 1634890835
1.464999 -0.478578 -2.278724 0.000000000000000e+00 1634890835
1.403672 -0.553268 -2.278724 0.000000000000000e+00 1634890835
1.277491 -0.695035 -2.278724 0.000000000000000e+00 1634890835
1.212599 -0.762227 -2.278724 0.000000000000000e+00 1634890835
1.438614 -0.468733 -2.278724 0.000000000000000e+00 1634890835
1.377735 -0.542398 -2.278724 0.000000000000000e+00 1634890835
1.252479 -0.682153 -2.278724 0.000000000000000e+00 1634890835
1.188065 -0.748353 -2.278724 0.000000000000000e+00 1634890835
1.412521 -0.458998 -2.278724 0.000000000000000e+00 1634890835
1.352086 -0.531649 -2.278724 0.000000000000000e+00 1634890835
1.227742 -0.669413 -2.278724 0.000000000000000e+00 1634890835
1.163800 -0.734633 -2.278724 0.000000000000000e+00 1634890835
1.386711 -0.449370 -2.278724 0.000000000000000e+00 1634890835
1.326715 -0.521016 -2.278724 0.000000000000000e+00 1634890835
1.203273 -0.656813 -2.278724 0.000000000000000e+00 1634890835
1.139798 -0.721064 -2.278724 0.000000000000000e+00 1634890835
1.361179 -0.439844 -2.278724 0.000000000000000e+00 1634890835
1.301615 -0.510497 -2.278724 0.000000000000000e+00 1634890835
1.179065 -0.644345 -2.278725 0.000000000000000e+00 1634890835
1.116051 -0.707637 -2.278724 0.000000000000000e+00 1634890835
1.335913 -0.430416 -2.278724 0.000000000000000e+00 1634890835
1.276777 -0.500088 -2.278724 0.000000000000000e+00 1634890835
1.155108 -0.632008 -2.278724 0.000000000000000e+00 1634890835
1.092552 -0.694349 -2.278724 0.000000000000000e+00 1634890835
1.310907 -0.421087 -2.278724 0.000000000000000e+00 1634890835
1.252194 -0.489785 -2.278724 0.000000000000000e+00 1634890835
1.131396 -0.619796 -2.278724 0.000000000000000e+00 1634890835
1.069291 -0.681200 -2.278724 0.000000000000000e+00 1634890835
1.286154 -0.411853 -2.278724 0.000000000000000e+00 1634890835
1.227858 -0.479587 -2.278724 0.000000000000000e+00 1634890835
1.107923 -0.607707 -2.278724 0.000000000000000e+00 1634890835
1.046265 -0.668180 -2.278724 0.000000000000000e+00 1634890835
1.261646 -0.402710 -2.278724 0.000000000000000e+00 1634890835
1.203762 -0.469489 -2.278724 0.000000000000000e+00 1634890835
1.084678 -0.595736 -2.278724 0.000000000000000e+00 1634890835
1.023463 -0.655289 -2.278725 0.000000000000000e+00 1634890835
1.237375 -0.393656 -2.278724 0.000000000000000e+00 1634890835
1.179898 -0.459489 -2.278724 0.000000000000000e+00 1634890835
1.061657 -0.583881 -2.278724 0.000000000000000e+00 1634890835
1.000879 -0.642521 -2.278724 0.000000000000000e+00 1634890835
1.213335 -0.384687 -2.278724 0.000000000000000e+00 1634890835
1.156261 -0.449584 -2.278724 0.000000000000000e+00 1634890835
1.038853 -0.572137 -2.278724 0.000000000000000e+00 1634890835
0.978509 -0.629873 -2.278725 0.000000000000000e+00 1634890835
1.189519 -0.375802 -2.278724 0.000000000000000e+00 1634890835
1.132842 -0.439770 -2.278724 0.000000000000000e+00 1634890835
1.016259 -0.560501 -2.278724 0.000000000000000e+00 1634890835
0.956342 -0.617342 -2.278724 0.000000000000000e+00 1634890835
1.165919 -0.366998 -2.278724 0.000000000000000e+00 1634890835
1.109636 -0.430045 -2.278724 0.000000000000000e+00 1634890835
0.993868 -0.548970 -2.278724 0.000000000000000e+00 1634890835
0.934376 -0.604923 -2.278724 0.000000000000000e+00 1634890835
1.142531 -0.358273 -2.278724 0.000000000000000e+00 1634890835
1.086637 -0.420406 -2.278724 0.000000000000000e+00 1634890835
0.971675 -0.537541 -2.278724 0.000000000000000e+00 1634890835
0.912603 -0.592613 -2.278724 0.000000000000000e+00 1634890835
1.119348 -0.349625 -2.278724 0.000000000000000e+00 1634890835
1.063838 -0.410852 -2.278724 0.000000000000000e+00 1634890835
0.949674 -0.526210 -2.278724 0.000000000000000e+00 1634890835
0.891017 -0.580410 -2.278724 0.000000000000000e+00 1634890835
1.096363 -0.341051 -2.278725 0.000000000000000e+00 1634890835
1.041232 -0.401379 -2.278724 0.000000000000000e+00 1634890835
0.927857 -0.514976 -2.278725 0.000000000000000e+00 1634890835
0.869612 -0.568309 -2.278724 0.000000000000000e+00 1634890835
1.073570 -0.332549 -2.278724 0.000000000000000e+00 1634890835
1.018816 -0.391985 -2.278724 0.000000000000000e+00 1634890835
0.906221 -0.503834 -2.278725 0.000000000000000e+00 1634890835
0.848383 -0.556308 -2.278725 0.000000000000000e+00 1634890835
1.050965 -0.324116 -2.278724 0.000000000000000e+00 1634890835
0.996581 -0.382668 -2.278724 0.000000000000000e+00 1634890835
0.884760 -0.492781 -2.278724 0.000000000000000e+00 1634890835
0.827325 -0.544403 -2.278724 0.000000000000000e+00 1634890835
1.028541 -0.315752 -2.278724 0.000000000000000e+00 1634890835
0.974525 -0.373425 -2.278724 0.000000000000000e+00 1634890835
0.863468 -0.481816 -2.278724 0.000000000000000e+00 1634890835
0.451010 -0.297860 -1.274412 0.000000000000000e+00 1936876886
1.006293 -0.307452 -2.278724 0.000000000000000e+00 1634890835
0.952640 -0.364254 -2.278724 0.000000000000000e+00 1634890835
0.842339 -0.470936 -2.278724 0.000000000000000e+00 1634890835
0.433313 -0.287261 -1.256715 0.000000000000000e+00 1936876886
0.984216 -0.299218 -2.278724 0.000000000000000e+00 1634890835
0.930922 -0.355153 -2.278724 0.000000000000000e+00 1634890835
0.821370 -0.460137 -2.278724 0.000000000000000e+00 1634890835
0.421220 -0.280350 -1.254499 0.000000000000000e+00 1936876886
0.962304 -0.291044 -2.278724 0.000000000000000e+00 1634890835
0.909365 -0.346118 -2.278724 0.000000000000000e+00 1634890835
0.445941 -0.250344 -1.269343 0.000000000000000e+00 1936876886
0.335127 -0.223971 -1.025471 0.000000000000000e+00 1953264973
0.940552 -0.282930 -2.278724 0.000000000000000e+00 1634890835
0.887965 -0.337150 -2.278724 0.000000000000000e+00 1634890835
0.428905 -0.241307 -1.253204 0.000000000000000e+00 1936876886
0.306472 -0.205704 -0.964045 0.000000000000000e+00 1953264973
0.495093 -0.148090 -1.227676 0.000000000000000e+00 1936876886
0.866716 -0.328246 -2.278724 0.000000000000000e+00 1634890835
0.358554 -0.202188 -1.075960 0.000000000000000e+00 1953264973
0.281222 -0.189608 -0.909919 0.000000000000000e+00 1953264973
0.483539 -0.143780 -1.227675 0.000000000000000e+00 1936876886
0.845614 -0.319403 -2.278724 0.000000000000000e+00 1634890835
0.326694 -0.184663 -1.007394 0.000000000000000e+00 1953264973
0.258802 -0.175315 -0.861856 0.000000000000000e+00 1953264973
0.472064 -0.139500 -1.227675 0.000000000000000e+00 1936876886
0.824654 -0.310620 -2.278724 0.000000000000000e+00 1634890835
0.299054 -0.169464 -0.948143 0.000000000000000e+00 1953264973
0.238756 -0.162537 -0.818885 0.000000000000000e+00 1953264973
