# .PCD v0.7 - Point Cloud Data file format
VERSION 0.7
FIELDS x y z rgb label
SIZE 4 4 4 4 4
TYPE F F F F U
COUNT 1 1 1 1 1
WIDTH 530
HEIGHT 1
VIEWPOINT 0 0 0 1 0 0 0
POINTS 530
DATA ascii
33.533272 -18.667170 9.876631 0.000000000000000e+00 1954047316
30.876945 -11.470861 -2.242247 0.000000000000000e+00 1851878480
32.003262 -13.382141 -2.250598 0.000000000000000e+00 1851878480
26.974260 -10.013391 -2.204112 0.000000000000000e+00 1851878480
26.978703 -11.277157 -2.150064 0.000000000000000e+00 1851878480
26.194208 -13.525781 -1.939667 0.000000000000000e+00 1851878480
25.595276 -14.549244 -1.800088 0.000000000000000e+00 1851878480
24.243071 -8.992679 -2.201614 0.000000000000000e+00 1851878480
24.419975 -10.204019 -2.175246 0.000000000000000e+00 1851878480
23.633196 -12.207138 -1.986507 0.000000000000000e+00 1851878480
23.169537 -13.178167 -1.869445 0.000000000000000e+00 1851878480
22.078945 -8.183684 -2.206292 0.000000000000000e+00 1851878480
22.190845 -9.269313 -2.185131 0.000000000000000e+00 1851878480
21.731249 -11.228230 -2.044409 0.000000000000000e+00 1851878480
21.302462 -12.123397 -1.939770 0.000000000000000e+00 1851878480
20.385847 -7.550369 -2.223131 0.000000000000000e+00 1851878480
20.355768 -8.499784 -2.195913 0.000000000000000e+00 1851878480
20.366682 -10.526439 -2.120461 0.000000000000000e+00 1851878480
19.938765 -11.354042 -2.022780 0.000000000000000e+00 1851878480
18.888845 -6.990575 -2.232505 0.000000000000000e+00 1851878480
18.901564 -7.889781 -2.217122 0.000000000000000e+00 1851878480
19.061529 -9.854949 -2.176248 0.000000000000000e+00 1851878480
18.836199 -10.732554 -2.107036 0.000000000000000e+00 1851878480
17.550144 -6.490158 -2.234933 0.000000000000000e+00 1851878480
17.657736 -7.367984 -2.237877 0.000000000000000e+00 1851878480
17.728764 -9.168758 -2.202708 0.000000000000000e+00 1851878480
17.843716 -10.173109 -2.182183 0.000000000000000e+00 1851878480
16.445133 -6.076853 -2.245023 0.000000000000000e+00 1851878480
16.472878 -6.871153 -2.243479 0.000000000000000e+00 1851878480
16.465031 -8.517861 -2.211938 0.000000000000000e+00 1851878480
16.647093 -9.496549 -2.209918 0.000000000000000e+00 1851878480
15.346874 -5.666666 -2.236099 0.000000000000000e+00 1851878480
15.405100 -6.423476 -2.244017 0.000000000000000e+00 1851878480
15.429049 -7.984415 -2.228894 0.000000000000000e+00 1851878480
15.567932 -8.886236 -2.229838 0.000000000000000e+00 1851878480
14.466618 -5.337516 -2.241035 0.000000000000000e+00 1851878480
14.498944 -6.043486 -2.249696 0.000000000000000e+00 1851878480
14.491898 -7.501802 -2.240517 0.000000000000000e+00 1851878480
14.514569 -8.289937 -2.231492 0.000000000000000e+00 1851878480
13.641161 -5.029077 -2.239038 0.000000000000000e+00 1851878480
13.632643 -5.680371 -2.245031 0.000000000000000e+00 1851878480
13.614630 -7.049904 -2.243351 0.000000000000000e+00 1851878480
13.632570 -7.790865 -2.239545 0.000000000000000e+00 1851878480
12.920640 -4.759753 -2.240283 0.000000000000000e+00 1851878480
12.899287 -5.372874 -2.247340 0.000000000000000e+00 1851878480
12.842733 -6.652301 -2.247135 0.000000000000000e+00 1851878480
12.787479 -7.312305 -2.235855 0.000000000000000e+00 1851878480
12.286387 -4.522584 -2.244243 0.000000000000000e+00 1851878480
12.211225 -5.084463 -2.244289 0.000000000000000e+00 1851878480
12.122941 -6.281452 -2.245185 0.000000000000000e+00 1851878480
12.071048 -6.906804 -2.238551 0.000000000000000e+00 1851878480
11.653192 -4.286164 -2.236931 0.000000000000000e+00 1851878480
11.570064 -4.815764 -2.237447 0.000000000000000e+00 1851878480
11.490648 -5.955722 -2.245969 0.000000000000000e+00 1851878480
11.442517 -6.551132 -2.243680 0.000000000000000e+00 1851878480
11.171977 -4.105953 -2.248725 0.000000000000000e+00 1851878480
11.095967 -4.616764 -2.252528 0.000000000000000e+00 1851878480
10.927127 -5.665442 -2.248289 0.000000000000000e+00 1851878480
10.853932 -6.217929 -2.244089 0.000000000000000e+00 1851878480
10.677484 -3.921136 -2.249045 0.000000000000000e+00 1851878480
10.525828 -4.377958 -2.238377 0.000000000000000e+00 1851878480
10.415120 -5.401703 -2.250501 0.000000000000000e+00 1851878480
10.310712 -5.910336 -2.242192 0.000000000000000e+00 1851878480
10.147592 -3.723610 -2.232629 0.000000000000000e+00 1851878480
10.113407 -4.204893 -2.248604 0.000000000000000e+00 1851878480
9.892934 -5.132528 -2.240201 0.000000000000000e+00 1851878480
9.847440 -5.648233 -2.247298 0.000000000000000e+00 1851878480
9.814778 -3.598640 -2.251780 0.000000000000000e+00 1851878480
9.729787 -4.043921 -2.257846 0.000000000000000e+00 1851878480
9.457376 -4.908135 -2.239951 0.000000000000000e+00 1851878480
9.377791 -5.382162 -2.241311 0.000000000000000e+00 1851878480
9.413945 -3.448936 -2.248725 0.000000000000000e+00 1851878480
9.299554 -3.863694 -2.248686 0.000000000000000e+00 1851878480
9.097735 -4.723018 -2.249779 0.000000000000000e+00 1851878480
8.969827 -5.151196 -2.240989 0.000000000000000e+00 1851878480
9.035155 -3.307523 -2.243878 0.000000000000000e+00 1851878480
8.884173 -3.689758 -2.235194 0.000000000000000e+00 1851878480
8.753346 -4.545703 -2.256394 0.000000000000000e+00 1851878480
8.607690 -4.946286 -2.244167 0.000000000000000e+00 1851878480
8.685836 -3.177110 -2.239759 0.000000000000000e+00 1851878480
8.603750 -3.571978 -2.249174 0.000000000000000e+00 1851878480
8.412549 -4.370146 -2.257123 0.000000000000000e+00 1851878480
8.288878 -4.766050 -2.251630 0.000000000000000e+00 1851878480
8.384197 -3.064316 -2.242052 0.000000000000000e+00 1851878480
8.294242 -3.442205 -2.250084 0.000000000000000e+00 1851878480
8.071989 -4.194607 -2.251113 0.000000000000000e+00 1851878480
7.941528 -4.569181 -2.244456 0.000000000000000e+00 1851878480
8.074682 -2.948811 -2.236715 0.000000000000000e+00 1851878480
7.932820 -3.290990 -2.230623 0.000000000000000e+00 1851878480
7.764161 -4.035965 -2.247748 0.000000000000000e+00 1851878480
7.664391 -4.412496 -2.250671 0.000000000000000e+00 1851878480
7.860628 -2.868311 -2.253116 0.000000000000000e+00 1851878480
7.747080 -3.212735 -2.255473 0.000000000000000e+00 1851878480
7.507680 -3.903932 -2.253629 0.000000000000000e+00 1851878480
7.377888 -4.250229 -2.248317 0.000000000000000e+00 1851878480
7.566691 -2.758809 -2.242046 0.000000000000000e+00 1851878480
7.471102 -3.097122 -2.249794 0.000000000000000e+00 1851878480
7.217758 -3.754420 -2.244014 0.000000000000000e+00 1851878480
7.092642 -4.088498 -2.240407 0.000000000000000e+00 1851878480
7.302111 -2.660166 -2.234592 0.000000000000000e+00 1851878480
7.237604 -2.999197 -2.252152 0.000000000000000e+00 1851878480
6.989264 -3.636776 -2.248315 0.000000000000000e+00 1851878480
6.893784 -3.976394 -2.254795 0.000000000000000e+00 1851878480
7.119801 -2.591623 -2.248299 0.000000000000000e+00 1851878480
7.033387 -2.913467 -2.259572 0.000000000000000e+00 1851878480
6.779458 -3.528787 -2.254286 0.000000000000000e+00 1851878480
6.663239 -3.845875 -2.254419 0.000000000000000e+00 1851878480
6.908874 -2.512765 -2.249454 0.000000000000000e+00 1851878480
6.772413 -2.804293 -2.244403 0.000000000000000e+00 1851878480
6.523087 -3.396485 -2.240101 0.000000000000000e+00 1851878480
6.436786 -3.717564 -2.250685 0.000000000000000e+00 1851878480
6.678244 -2.426867 -2.240190 0.000000000000000e+00 1851878480
6.621768 -2.740866 -2.261971 0.000000000000000e+00 1851878480
6.361832 -3.313648 -2.254415 0.000000000000000e+00 1851878480
6.228891 -3.599821 -2.248929 0.000000000000000e+00 1851878480
6.531199 -2.371449 -2.255574 0.000000000000000e+00 1851878480
6.361785 -2.632240 -2.238349 0.000000000000000e+00 1851878480
6.126436 -3.192124 -2.238495 0.000000000000000e+00 1851878480
6.031607 -3.488077 -2.246800 0.000000000000000e+00 1851878480
6.294622 -2.283631 -2.236569 0.000000000000000e+00 1851878480
6.178288 -2.555328 -2.237442 0.000000000000000e+00 1851878480
6.035549 -3.145846 -2.272175 0.000000000000000e+00 1851878480
5.867174 -3.395207 -2.253176 0.000000000000000e+00 1851878480
6.159965 -2.232889 -2.250417 0.000000000000000e+00 1851878480
6.027980 -2.492187 -2.245468 0.000000000000000e+00 1851878480
5.780713 -3.014057 -2.240692 0.000000000000000e+00 1851878480
5.651752 -3.272702 -2.236006 0.000000000000000e+00 1851878480
5.981167 -2.166236 -2.245335 0.000000000000000e+00 1851878480
5.854545 -2.419537 -2.241876 0.000000000000000e+00 1851878480
5.676881 -2.960946 -2.264136 0.000000000000000e+00 1851878480
5.487391 -3.179630 -2.235043 0.000000000000000e+00 1851878480
5.825351 -2.108000 -2.245852 0.000000000000000e+00 1851878480
5.716146 -2.361410 -2.248809 0.000000000000000e+00 1851878480
5.494780 -2.866964 -2.253551 0.000000000000000e+00 1851878480
5.355722 -3.105407 -2.244358 0.000000000000000e+00 1851878480
5.657914 -2.045647 -2.238956 0.000000000000000e+00 1851878480
5.568550 -2.299523 -2.249483 0.000000000000000e+00 1851878480
5.346554 -2.790606 -2.253529 0.000000000000000e+00 1851878480
5.247878 -3.044918 -2.261264 0.000000000000000e+00 1851878480
5.525611 -1.996082 -2.243254 0.000000000000000e+00 1851878480
5.429278 -2.241114 -2.250856 0.000000000000000e+00 1851878480
5.224017 -2.727611 -2.261659 0.000000000000000e+00 1851878480
5.082532 -2.950978 -2.250585 0.000000000000000e+00 1851878480
5.374900 -1.939947 -2.237525 0.000000000000000e+00 1851878480
5.284287 -2.180391 -2.247208 0.000000000000000e+00 1851878480
5.057736 -2.641732 -2.247952 0.000000000000000e+00 1851878480
4.935427 -2.867518 -2.244687 0.000000000000000e+00 1851878480
5.265026 -1.898621 -2.246458 0.000000000000000e+00 1851878480
5.202088 -2.145605 -2.268205 0.000000000000000e+00 1851878480
4.996896 -2.610888 -2.278900 0.000000000000000e+00 1851878480
4.850795 -2.820279 -2.264851 0.000000000000000e+00 1851878480
5.149912 -1.855467 -2.251173 0.000000000000000e+00 1851878480
5.034925 -2.075813 -2.249844 0.000000000000000e+00 1851878480
4.855034 -2.537682 -2.270959 0.000000000000000e+00 1851878480
4.670583 -2.717376 -2.237614 0.000000000000000e+00 1851878480
5.058380 -1.820867 -2.264398 0.000000000000000e+00 1851878480
4.918550 -2.027001 -2.251481 0.000000000000000e+00 1851878480
4.724160 -2.470169 -2.265383 0.000000000000000e+00 1851878480
4.599305 -2.677770 -2.259940 0.000000000000000e+00 1851878480
4.862618 -1.748830 -2.228296 0.000000000000000e+00 1851878480
4.825641 -1.987891 -2.261956 0.000000000000000e+00 1851878480
4.586550 -2.399095 -2.253831 0.000000000000000e+00 1851878480
4.454726 -2.595412 -2.244035 0.000000000000000e+00 1851878480
4.752840 -1.707800 -2.228719 0.000000000000000e+00 1851878480
4.699838 -1.935261 -2.254992 0.000000000000000e+00 1851878480
4.484451 -2.346555 -2.257306 0.000000000000000e+00 1851878480
4.361442 -2.542859 -2.251467 0.000000000000000e+00 1851878480
4.676383 -1.678797 -2.243145 0.000000000000000e+00 1851878480
4.560442 -1.877073 -2.238951 0.000000000000000e+00 1851878480
4.373297 -2.289245 -2.254092 0.000000000000000e+00 1851878480
4.262138 -2.486732 -2.253834 0.000000000000000e+00 1851878480
4.563456 -1.636752 -2.238407 0.000000000000000e+00 1851878480
4.464411 -1.836770 -2.241961 0.000000000000000e+00 1851878480
4.302796 -2.253185 -2.270071 0.000000000000000e+00 1851878480
4.153699 -2.425205 -2.249203 0.000000000000000e+00 1851878480
4.446570 -1.593355 -2.229610 0.000000000000000e+00 1851878480
4.364575 -1.794929 -2.241247 0.000000000000000e+00 1851878480
4.135008 -2.166139 -2.232250 0.000000000000000e+00 1851878480
4.095005 -2.392669 -2.269845 0.000000000000000e+00 1851878480
4.374432 -1.566041 -2.241561 0.000000000000000e+00 1851878480
4.240106 -1.742989 -2.225733 0.000000000000000e+00 1851878480
4.051322 -2.123109 -2.237179 0.000000000000000e+00 1851878480
3.954842 -2.312460 -2.243237 0.000000000000000e+00 1851878480
4.327193 -1.547673 -2.265340 0.000000000000000e+00 1851878480
4.212399 -1.730849 -2.259673 0.000000000000000e+00 1851878480
4.007248 -2.100821 -2.262840 0.000000000000000e+00 1851878480
3.871222 -2.265236 -2.246269 0.000000000000000e+00 1851878480
4.192873 -1.498205 -2.241898 0.000000000000000e+00 1851878480
4.148932 -1.704025 -2.273784 0.000000000000000e+00 1851878480
3.879738 -2.034762 -2.239681 0.000000000000000e+00 1851878480
3.777357 -2.211954 -2.241504 0.000000000000000e+00 1851878480
4.126706 -1.473150 -2.253043 0.000000000000000e+00 1851878480
4.060513 -1.666975 -2.272864 0.000000000000000e+00 1851878480
3.829645 -2.009278 -2.259423 0.000000000000000e+00 1851878480
3.707497 -2.172677 -2.249296 0.000000000000000e+00 1851878480
4.130279 -1.473000 -2.301957 0.000000000000000e+00 1634890835
3.966699 -1.627736 -2.267203 0.000000000000000e+00 1851878480
3.728767 -1.957124 -2.247732 0.000000000000000e+00 1851878480
3.615355 -2.120285 -2.241889 0.000000000000000e+00 1851878480
4.054548 -1.444582 -2.306257 0.000000000000000e+00 1634890835
3.865502 -1.585496 -2.255430 0.000000000000000e+00 1851878480
3.693026 -1.939138 -2.274011 0.000000000000000e+00 1851878480
3.559977 -2.089405 -2.255777 0.000000000000000e+00 1851878480
3.986841 -1.419058 -2.313884 0.000000000000000e+00 1634890835
3.810405 -1.562189 -2.269113 0.000000000000000e+00 1851878480
3.570150 -1.875370 -2.245038 0.000000000000000e+00 1851878480
3.497208 -2.054151 -2.263867 0.000000000000000e+00 1851878480
3.859966 -1.372532 -2.285327 0.000000000000000e+00 1634890835
3.688843 -1.511658 -2.241508 0.000000000000000e+00 1851878480
3.536706 -1.858559 -2.270723 0.000000000000000e+00 1851878480
3.415401 -2.007666 -2.258140 0.000000000000000e+00 1851878480
3.779775 -1.342669 -2.282404 0.000000000000000e+00 1634890835
3.663795 -1.500700 -2.271197 0.000000000000000e+00 1851878480
3.465275 -1.821771 -2.271103 0.000000000000000e+00 1851878480
3.322376 -1.954523 -2.243067 0.000000000000000e+00 1851878480
3.738034 -1.326494 -2.301680 0.000000000000000e+00 1634890835
3.424495 -1.801080 -2.290554 0.000000000000000e+00 1851878480
3.263059 -1.921160 -2.249119 0.000000000000000e+00 1851878480
3.651150 -1.294335 -2.292052 0.000000000000000e+00 1634890835
3.573552 -1.462360 -2.304162 0.000000000000000e+00 1634890835
3.321591 -1.747691 -2.266993 0.000000000000000e+00 1851878480
3.170594 -1.868221 -2.230674 0.000000000000000e+00 1851878480
3.553912 -1.258558 -2.274134 0.000000000000000e+00 1634890835
3.486539 -1.426073 -2.292090 0.000000000000000e+00 1634890835
3.257375 -1.714629 -2.268042 0.000000000000000e+00 1851878480
3.180128 -1.875363 -2.283319 0.000000000000000e+00 1851878480
3.505076 -1.239963 -2.285845 0.000000000000000e+00 1634890835
3.407247 -1.392968 -2.283441 0.000000000000000e+00 1634890835
3.199037 -1.684642 -2.271986 0.000000000000000e+00 1851878480
3.040043 -1.794229 -2.227158 0.000000000000000e+00 1851878480
3.467200 -1.225267 -2.304079 0.000000000000000e+00 1634890835
3.375939 -1.379496 -2.305996 0.000000000000000e+00 1634890835
3.137598 -1.653003 -2.272554 0.000000000000000e+00 1851878480
3.043139 -1.797551 -2.274414 0.000000000000000e+00 1851878480
3.393678 -1.198002 -2.297687 0.000000000000000e+00 1634890835
3.310452 -1.352071 -2.304420 0.000000000000000e+00 1634890835
3.050977 -1.608073 -2.253294 0.000000000000000e+00 1851878480
2.973000 -1.757598 -2.266470 0.000000000000000e+00 1851878480
3.348189 -1.180662 -2.309234 0.000000000000000e+00 1634890835
3.252512 -1.327743 -2.306955 0.000000000000000e+00 1634890835
2.999697 -1.581745 -2.258676 0.000000000000000e+00 1851878480
2.885957 -1.707593 -2.243817 0.000000000000000e+00 1851878480
3.262402 -1.149152 -2.291779 0.000000000000000e+00 1634890835
3.183137 -1.298768 -2.300175 0.000000000000000e+00 1634890835
2.931979 -1.546731 -2.250471 0.000000000000000e+00 1851878480
2.842353 -1.683241 -2.253494 0.000000000000000e+00 1851878480
3.173219 -1.116500 -2.270152 0.000000000000000e+00 1634890835
3.085488 -1.258284 -2.271208 0.000000000000000e+00 1634890835
2.877004 -1.518417 -2.250771 0.000000000000000e+00 1851878480
2.762260 -1.637239 -2.232884 0.000000000000000e+00 1851878480
3.139025 -1.103229 -2.286729 0.000000000000000e+00 1634890835
3.049794 -1.243086 -2.286529 0.000000000000000e+00 1634890835
2.812942 -1.485290 -2.242723 0.000000000000000e+00 1851878480
2.730121 -1.619617 -2.249842 0.000000000000000e+00 1851878480
3.088050 -1.084081 -2.290434 0.000000000000000e+00 1634890835
2.993687 -1.219578 -2.285779 0.000000000000000e+00 1634890835
2.755402 -1.455583 -2.238580 0.000000000000000e+00 1851878480
0.851476 -0.505582 -0.715254 0.000000000000000e+00 1886740808
3.005499 -1.053888 -2.269422 0.000000000000000e+00 1634890835
2.980038 -1.213376 -2.316985 0.000000000000000e+00 1634890835
2.774460 -1.466342 -2.296631 0.000000000000000e+00 1634890835
0.805623 -0.478788 -0.689747 0.000000000000000e+00 1886740808
2.945408 -1.031615 -2.263932 0.000000000000000e+00 1634890835
2.873047 -1.169188 -2.274428 0.000000000000000e+00 1634890835
0.900698 -0.476259 -0.759577 0.000000000000000e+00 1886740808
0.798531 -0.475010 -0.696747 0.000000000000000e+00 1886740808
2.926421 -1.023756 -2.289449 0.000000000000000e+00 1634890835
2.871106 -1.167761 -2.314002 0.000000000000000e+00 1634890835
0.891942 -0.471857 -0.766245 0.000000000000000e+00 1886740808
0.850124 -0.506170 -0.755875 0.000000000000000e+00 1886740808
2.832329 -0.989655 -2.255141 0.000000000000000e+00 1634890835
2.764303 -1.123703 -2.268012 0.000000000000000e+00 1634890835
0.852688 -0.451311 -0.746139 0.000000000000000e+00 1886740808
0.760338 -0.453137 -0.688843 0.000000000000000e+00 1886740808
2.806438 -0.979421 -2.273963 0.000000000000000e+00 1634890835
2.775515 -1.127633 -2.317988 0.000000000000000e+00 1634890835
0.807373 -0.427539 -0.719561 0.000000000000000e+00 1886740808
0.803356 -0.479233 -0.741536 0.000000000000000e+00 1886740808
2.720759 -0.948352 -2.243267 0.000000000000000e+00 1634890835
0.835559 -0.339278 -0.710261 0.000000000000000e+00 1886740808
0.785971 -0.416416 -0.713394 0.000000000000000e+00 1886740808
0.777976 -0.464542 -0.731590 0.000000000000000e+00 1886740808
0.858633 -0.298914 -0.720325 0.000000000000000e+00 1886740808
0.822945 -0.333965 -0.711956 0.000000000000000e+00 1886740808
0.803392 -0.425862 -0.742591 0.000000000000000e+00 1886740808
0.749067 -0.447719 -0.717580 0.000000000000000e+00 1886740808
0.829696 -0.288476 -0.708174 0.000000000000000e+00 1886740808
0.877137 -0.355750 -0.772256 0.000000000000000e+00 1886740808
0.787261 -0.417527 -0.740990 0.000000000000000e+00 1886740808
0.784284 -0.469236 -0.765323 0.000000000000000e+00 1886740808
0.814096 -0.282689 -0.706917 0.000000000000000e+00 1886740808
0.828341 -0.335761 -0.742143 0.000000000000000e+00 1886740808
0.786245 -0.417208 -0.753525 0.000000000000000e+00 1886740808
0.763771 -0.457426 -0.759158 0.000000000000000e+00 1886740808
0.841062 -0.291673 -0.742963 0.000000000000000e+00 1886740808
0.806482 -0.326706 -0.735247 0.000000000000000e+00 1886740808
0.783193 -0.415810 -0.764245 0.000000000000000e+00 1886740808
0.746300 -0.447422 -0.755543 0.000000000000000e+00 1886740808
0.836693 -0.289775 -0.751844 0.000000000000000e+00 1886740808
0.763292 -0.309021 -0.708055 0.000000000000000e+00 1886740808
0.756813 -0.402022 -0.751894 0.000000000000000e+00 1886740808
0.744350 -0.446718 -0.767504 0.000000000000000e+00 1886740808
0.767883 -0.265587 -0.701874 0.000000000000000e+00 1886740808
0.764796 -0.309440 -0.721838 0.000000000000000e+00 1886740808
0.786354 -0.417943 -0.795375 0.000000000000000e+00 1886740808
0.758004 -0.455394 -0.796006 0.000000000000000e+00 1886740808
0.714785 -0.246886 -0.664542 0.000000000000000e+00 1886740808
0.770899 -0.311714 -0.740272 0.000000000000000e+00 1886740808
0.802953 -0.427004 -0.826828 0.000000000000000e+00 1886740808
0.732221 -0.440377 -0.783096 0.000000000000000e+00 1886740808
0.745946 -0.257292 -0.705376 0.000000000000000e+00 1886740808
0.782191 -0.316079 -0.764172 0.000000000000000e+00 1886740808
0.779378 -0.414702 -0.817019 0.000000000000000e+00 1886740808
2.130029 -1.282459 -2.319937 0.000000000000000e+00 1634890835
0.735308 -0.253266 -0.707188 0.000000000000000e+00 1886740808
0.745707 -0.301141 -0.741170 0.000000000000000e+00 1886740808
0.731869 -0.389647 -0.781027 0.000000000000000e+00 1886740808
2.078536 -1.252846 -2.305460 0.000000000000000e+00 1634890835
0.760890 -0.261703 -0.744265 0.000000000000000e+00 1886740808
0.758519 -0.306114 -0.766969 0.000000000000000e+00 1886740808
2.139602 -1.139791 -2.324380 0.000000000000000e+00 1634890835
2.036738 -1.229041 -2.300591 0.000000000000000e+00 1634890835
0.730374 -0.250843 -0.726576 0.000000000000000e+00 1886740808
0.772101 -0.311386 -0.794213 0.000000000000000e+00 1886740808
2.084867 -1.111295 -2.305624 0.000000000000000e+00 1634890835
0.816756 -0.493426 -0.939502 0.000000000000000e+00 1886740808
0.759402 -0.260427 -0.768297 0.000000000000000e+00 1886740808
0.783208 -0.315652 -0.819569 0.000000000000000e+00 1886740808
2.050806 -1.093801 -2.308705 0.000000000000000e+00 1634890835
0.830767 -0.502478 -0.973161 0.000000000000000e+00 1886740808
0.763583 -0.261467 -0.785651 0.000000000000000e+00 1886740808
0.783572 -0.315580 -0.834121 0.000000000000000e+00 1886740808
2.038017 -1.087650 -2.335526 0.000000000000000e+00 1634890835
0.796255 -0.482177 -0.949861 0.000000000000000e+00 1886740808
0.757251 -0.258902 -0.792367 0.000000000000000e+00 1886740808
2.082564 -0.838154 -2.255219 0.000000000000000e+00 1634890835
0.802514 -0.428555 -0.936193 0.000000000000000e+00 1886740808
0.755780 -0.458222 -0.918144 0.000000000000000e+00 1886740808
0.765092 -0.261176 -0.814163 0.000000000000000e+00 1886740808
2.066368 -0.831042 -2.276345 0.000000000000000e+00 1634890835
0.804528 -0.429905 -0.955419 0.000000000000000e+00 1886740808
0.797249 -0.483961 -0.986333 0.000000000000000e+00 1886740808
0.748965 -0.255265 -0.810533 0.000000000000000e+00 1886740808
2.043966 -0.821434 -2.290586 0.000000000000000e+00 1634890835
0.807668 -0.431864 -0.976411 0.000000000000000e+00 1886740808
1.784827 -1.084821 -2.248798 0.000000000000000e+00 1634890835
2.079313 -0.707534 -2.288457 0.000000000000000e+00 1634890835
2.045003 -0.821240 -2.331384 0.000000000000000e+00 1634890835
0.810625 -0.433733 -0.997647 0.000000000000000e+00 1886740808
1.789420 -1.089005 -2.296165 0.000000000000000e+00 1634890835
2.024082 -0.687607 -2.265531 0.000000000000000e+00 1634890835
2.030977 -0.814991 -2.355478 0.000000000000000e+00 1634890835
0.792489 -0.424315 -0.992930 0.000000000000000e+00 1886740808
0.774010 -0.471662 -1.011554 0.000000000000000e+00 1886740808
2.029465 -0.688278 -2.310198 0.000000000000000e+00 1634890835
1.964364 -0.787653 -2.317710 0.000000000000000e+00 1634890835
0.794367 -0.425613 -1.013280 0.000000000000000e+00 1886740808
1.726917 -1.053740 -2.298706 0.000000000000000e+00 1634890835
1.966338 -0.665727 -2.276463 0.000000000000000e+00 1634890835
0.819675 -0.328408 -0.983906 0.000000000000000e+00 1886740808
1.795041 -0.962439 -2.331218 0.000000000000000e+00 1634890835
1.714050 -1.047309 -2.323942 0.000000000000000e+00 1634890835
1.938499 -0.655156 -2.282517 0.000000000000000e+00 1634890835
0.767961 -0.307442 -0.937862 0.000000000000000e+00 1886740808
0.766949 -0.411506 -1.014132 0.000000000000000e+00 1886740808
1.655625 -1.013012 -2.286529 0.000000000000000e+00 1634890835
1.929280 -0.650879 -2.310484 0.000000000000000e+00 1634890835
0.798640 -0.319463 -0.992327 0.000000000000000e+00 1886740808
1.693167 -0.909129 -2.279654 0.000000000000000e+00 1634890835
1.664751 -1.020036 -2.342084 0.000000000000000e+00 1634890835
0.801124 -0.269783 -0.975849 0.000000000000000e+00 1886740808
0.806757 -0.322440 -1.019927 0.000000000000000e+00 1886740808
1.690626 -0.908443 -2.317839 0.000000000000000e+00 1634890835
1.592933 -0.977440 -2.283064 0.000000000000000e+00 1634890835
0.766753 -0.257728 -0.950015 0.000000000000000e+00 1886740808
0.767867 -0.306636 -0.987768 0.000000000000000e+00 1886740808
1.655499 -0.890245 -2.311310 0.000000000000000e+00 1634890835
1.553544 -0.954678 -2.268522 0.000000000000000e+00 1634890835
0.776501 -0.260509 -0.978655 0.000000000000000e+00 1886740808
0.765817 -0.305551 -1.002443 0.000000000000000e+00 1886740808
1.635056 -0.879936 -2.324799 0.000000000000000e+00 1634890835
1.522295 -0.936885 -2.264910 0.000000000000000e+00 1634890835
0.795448 -0.266348 -1.019844 0.000000000000000e+00 1886740808
1.711730 -0.682350 -2.280136 0.000000000000000e+00 1634890835
1.575647 -0.848637 -2.281748 0.000000000000000e+00 1634890835
1.505421 -0.927927 -2.282341 0.000000000000000e+00 1634890835
0.766891 -0.256277 -1.000264 0.000000000000000e+00 1886740808
1.716730 -0.683722 -2.327265 0.000000000000000e+00 1634890835
1.590297 -0.857224 -2.345733 0.000000000000000e+00 1634890835
1.487606 -0.918391 -2.298375 0.000000000000000e+00 1634890835
0.788229 -0.262873 -1.045970 0.000000000000000e+00 1886740808
0.747174 -0.297301 -1.030895 0.000000000000000e+00 1886740808
1.539693 -0.830637 -2.313473 0.000000000000000e+00 1634890835
1.452202 -0.897978 -2.286723 0.000000000000000e+00 1634890835
1.685230 -0.560854 -2.275313 0.000000000000000e+00 1634890835
1.653394 -0.657260 -2.321939 0.000000000000000e+00 1634890835
1.524084 -0.822915 -2.332979 0.000000000000000e+00 1634890835
1.430583 -0.886070 -2.296150 0.000000000000000e+00 1634890835
0.748869 -0.248698 -1.028808 0.000000000000000e+00 1886740808
1.625771 -0.645651 -2.324076 0.000000000000000e+00 1634890835
1.484344 -0.802158 -2.315007 0.000000000000000e+00 1634890835
1.383146 -0.858137 -2.263108 0.000000000000000e+00 1634890835
1.617250 -0.535918 -2.260927 0.000000000000000e+00 1634890835
1.594209 -0.632485 -2.320015 0.000000000000000e+00 1634890835
1.439822 -0.778791 -2.288174 0.000000000000000e+00 1634890835
1.342592 -0.834417 -2.239671 0.000000000000000e+00 1634890835
1.596570 -0.527886 -2.271512 0.000000000000000e+00 1634890835
1.573319 -0.623561 -2.331084 0.000000000000000e+00 1634890835
1.437008 -0.777979 -2.327303 0.000000000000000e+00 1634890835
1.352008 -0.841759 -2.299742 0.000000000000000e+00 1634890835
1.542219 -0.508751 -2.233209 0.000000000000000e+00 1634890835
1.532239 -0.606644 -2.311567 0.000000000000000e+00 1634890835
1.406083 -0.761948 -2.320981 0.000000000000000e+00 1634890835
1.308861 -0.816378 -2.270458 0.000000000000000e+00 1634890835
1.556724 -0.512330 -2.294527 0.000000000000000e+00 1634890835
1.495666 -0.591529 -2.297732 0.000000000000000e+00 1634890835
1.370777 -0.743530 -2.306490 0.000000000000000e+00 1634890835
1.330218 -0.831246 -2.353565 0.000000000000000e+00 1634890835
1.515940 -0.497708 -2.274607 0.000000000000000e+00 1634890835
1.446800 -0.571573 -2.263639 0.000000000000000e+00 1634890835
1.370477 -0.744099 -2.350937 0.000000000000000e+00 1634890835
1.271657 -0.796173 -2.295220 0.000000000000000e+00 1634890835
1.516187 -0.496558 -2.316151 0.000000000000000e+00 1634890835
1.439263 -0.567954 -2.293638 0.000000000000000e+00 1634890835
1.317750 -0.716194 -2.304893 0.000000000000000e+00 1634890835
1.279922 -0.802923 -2.357002 0.000000000000000e+00 1634890835
1.484494 -0.484947 -2.309049 0.000000000000000e+00 1634890835
1.394867 -0.549797 -2.264430 0.000000000000000e+00 1634890835
1.303884 -0.709394 -2.325802 0.000000000000000e+00 1634890835
1.215512 -0.764058 -2.284198 0.000000000000000e+00 1634890835
1.472032 -0.479622 -2.331657 0.000000000000000e+00 1634890835
1.408352 -0.554452 -2.329363 0.000000000000000e+00 1634890835
1.264120 -0.688493 -2.299904 0.000000000000000e+00 1634890835
1.204153 -0.758487 -2.309582 0.000000000000000e+00 1634890835
1.419471 -0.461256 -2.289937 0.000000000000000e+00 1634890835
1.355392 -0.532949 -2.284296 0.000000000000000e+00 1634890835
1.273028 -0.694105 -2.362777 0.000000000000000e+00 1634890835
1.187537 -0.749617 -2.325202 0.000000000000000e+00 1634890835
1.406411 -0.455754 -2.311096 0.000000000000000e+00 1634890835
1.346074 -0.528619 -2.311973 0.000000000000000e+00 1634890835
1.231307 -0.672115 -2.331813 0.000000000000000e+00 1634890835
1.172927 -0.742022 -2.344958 0.000000000000000e+00 1634890835
1.358911 -0.439111 -2.274927 0.000000000000000e+00 1634890835
1.313071 -0.514990 -2.298780 0.000000000000000e+00 1634890835
1.170883 -0.639873 -2.262911 0.000000000000000e+00 1634890835
1.121314 -0.710974 -2.289471 0.000000000000000e+00 1634890835
1.344317 -0.433124 -2.293058 0.000000000000000e+00 1634890835
1.309829 -0.513034 -2.337713 0.000000000000000e+00 1634890835
1.163162 -0.636414 -2.294611 0.000000000000000e+00 1634890835
1.104543 -0.701970 -2.303734 0.000000000000000e+00 1634890835
1.336681 -0.429366 -2.323527 0.000000000000000e+00 1634890835
1.260236 -0.492931 -2.293359 0.000000000000000e+00 1634890835
1.156815 -0.633721 -2.329920 0.000000000000000e+00 1634890835
1.070229 -0.681797 -2.280721 0.000000000000000e+00 1634890835
1.274495 -0.408120 -2.258067 0.000000000000000e+00 1634890835
1.255789 -0.490497 -2.330560 0.000000000000000e+00 1634890835
1.113356 -0.610687 -2.289900 0.000000000000000e+00 1634890835
1.048032 -0.669309 -2.282574 0.000000000000000e+00 1634890835
1.279266 -0.408334 -2.310548 0.000000000000000e+00 1634890835
1.208143 -0.471198 -2.287017 0.000000000000000e+00 1634890835
1.107268 -0.608143 -2.326181 0.000000000000000e+00 1634890835
1.013337 -0.648805 -2.256178 0.000000000000000e+00 1634890835
1.224107 -0.389435 -2.254290 0.000000000000000e+00 1634890835
1.192097 -0.464240 -2.302283 0.000000000000000e+00 1634890835
1.075521 -0.591506 -2.308481 0.000000000000000e+00 1634890835
1.007034 -0.646472 -2.292737 0.000000000000000e+00 1634890835
1.198629 -0.380025 -2.251106 0.000000000000000e+00 1634890835
1.181426 -0.459369 -2.328320 0.000000000000000e+00 1634890835
1.059618 -0.583574 -2.324273 0.000000000000000e+00 1634890835
1.007505 -0.648538 -2.346250 0.000000000000000e+00 1634890835
1.192509 -0.376747 -2.284452 0.000000000000000e+00 1634890835
1.140528 -0.442753 -2.294184 0.000000000000000e+00 1634890835
1.016891 -0.560849 -2.280141 0.000000000000000e+00 1634890835
0.971352 -0.627031 -2.314487 0.000000000000000e+00 1634890835
1.161445 -0.365590 -2.269980 0.000000000000000e+00 1634890835
1.165661 -0.451758 -2.393777 0.000000000000000e+00 1634890835
1.017314 -0.561921 -2.332481 0.000000000000000e+00 1634890835
0.935477 -0.605635 -2.281410 0.000000000000000e+00 1634890835
1.144970 -0.359038 -2.283589 0.000000000000000e+00 1634890835
1.114421 -0.431156 -2.336989 0.000000000000000e+00 1634890835
0.985669 -0.545282 -2.311544 0.000000000000000e+00 1634890835
0.909268 -0.590447 -2.270396 0.000000000000000e+00 1634890835
1.142002 -0.356701 -2.324842 0.000000000000000e+00 1634890835
1.076202 -0.415627 -2.305207 0.000000000000000e+00 1634890835
0.973861 -0.539612 -2.336761 0.000000000000000e+00 1634890835
0.889919 -0.579695 -2.275916 0.000000000000000e+00 1634890835
1.110113 -0.345328 -2.307304 0.000000000000000e+00 1634890835
1.058576 -0.408065 -2.316680 0.000000000000000e+00 1634890835
0.934688 -0.518767 -2.295500 0.000000000000000e+00 1634890835
0.891174 -0.582400 -2.335224 0.000000000000000e+00 1634890835
1.069185 -0.331191 -2.269417 0.000000000000000e+00 1634890835
1.022318 -0.393332 -2.286557 0.000000000000000e+00 1634890835
0.927404 -0.515611 -2.331990 0.000000000000000e+00 1634890835
0.862135 -0.565325 -2.315660 0.000000000000000e+00 1634890835
1.057923 -0.326262 -2.293810 0.000000000000000e+00 1634890835
1.014647 -0.389605 -2.320032 0.000000000000000e+00 1634890835
0.908348 -0.505919 -2.339476 0.000000000000000e+00 1634890835
0.821265 -0.540415 -2.262031 0.000000000000000e+00 1634890835
1.039069 -0.318984 -2.302048 0.000000000000000e+00 1634890835
0.989980 -0.379346 -2.314862 0.000000000000000e+00 1634890835
0.873435 -0.487378 -2.305028 0.000000000000000e+00 1634890835
0.452091 -0.298574 -1.277465 0.000000000000000e+00 1936876886
0.995333 -0.304104 -2.253904 0.000000000000000e+00 1634890835
0.970041 -0.370907 -2.320347 0.000000000000000e+00 1634890835
0.870847 -0.486874 -2.355845 0.000000000000000e+00 1634890835
0.450301 -0.298522 -1.305984 0.000000000000000e+00 1936876886
1.010679 -0.307263 -2.339994 0.000000000000000e+00 1634890835
0.945060 -0.360547 -2.313332 0.000000000000000e+00 1634890835
0.842884 -0.472189 -2.338410 0.000000000000000e+00 1634890835
0.417116 -0.277618 -1.242277 0.000000000000000e+00 1936876886
0.966837 -0.292415 -2.289459 0.000000000000000e+00 1634890835
0.920817 -0.350477 -2.307422 0.000000000000000e+00 1634890835
0.467108 -0.262226 -1.329593 0.000000000000000e+00 1936876886
0.318213 -0.212667 -0.973715 0.000000000000000e+00 1953264973
0.943171 -0.283718 -2.285068 0.000000000000000e+00 1634890835
0.875071 -0.332255 -2.245637 0.000000000000000e+00 1634890835
0.439949 -0.247521 -1.285473 0.000000000000000e+00 1936876886
0.310743 -0.208571 -0.977481 0.000000000000000e+00 1953264973
0.506479 -0.151496 -1.255910 0.000000000000000e+00 1936876886
0.877227 -0.332227 -2.306359 0.000000000000000e+00 1634890835
0.364806 -0.205714 -1.094721 0.000000000000000e+00 1953264973
0.296482 -0.199896 -0.959293 0.000000000000000e+00 1953264973
0.490826 -0.145947 -1.246177 0.000000000000000e+00 1936876886
0.876149 -0.330936 -2.361007 0.000000000000000e+00 1634890835
0.320254 -0.181023 -0.987534 0.000000000000000e+00 1953264973
0.270080 -0.182956 -0.899417 0.000000000000000e+00 1953264973
0.481671 -0.142339 -1.252660 0.000000000000000e+00 1936876886
0.823824 -0.310307 -2.276431 0.000000000000000e+00 1634890835
0.301398 -0.170792 -0.955575 0.000000000000000e+00 1953264973
0.236392 -0.160928 -0.810778 0.000000000000000e+00 1953264973
