# .PCD v0.7 - Point Cloud Data file format
VERSION 0.7
FIELDS x y z rgb label
SIZE 4 4 4 4 4
TYPE F F F F U
COUNT 1 1 1 1 1
WIDTH 541
HEIGHT 1
VIEWPOINT 0 0 0 1 0 0 0
POINTS 541
DATA ascii
44.319550 -16.871536 9.811859 0.000000000000000e+00 1954047316
41.274303 -15.356771 -2.247652 0.000000000000000e+00 1851878480
34.513771 -14.442001 -1.781200 0.000000000000000e+00 1851878480
30.793383 -15.885884 -1.358124 0.000000000000000e+00 1851878480
30.059402 -17.056612 -1.182631 0.000000000000000e+00 1851878480
31.352053 -11.656205 -1.991928 0.000000000000000e+00 1851878480
30.482809 -12.750808 -1.858301 0.000000000000000e+00 1851878480
28.744389 -14.833407 -1.554362 0.000000000000000e+00 1851878480
27.976492 -15.884068 -1.389299 0.000000000000000e+00 1851878480
28.898300 -10.735790 -2.098561 0.000000000000000e+00 1851878480
28.207041 -11.794755 -1.983632 0.000000000000000e+00 1851878480
27.293104 -14.088848 -1.748302 0.000000000000000e+00 1851878480
26.480307 -15.043460 -1.588486 0.000000000000000e+00 1851878480
26.806225 -9.951013 -2.190381 0.000000000000000e+00 1851878480
26.545473 -11.096067 -2.115537 0.000000000000000e+00 1851878480
25.795111 -13.319701 -1.910113 0.000000000000000e+00 1851878480
24.885298 -14.145668 -1.750155 0.000000000000000e+00 1851878480
24.520102 -9.095439 -2.226773 0.000000000000000e+00 1851878480
24.684706 -10.314638 -2.198827 0.000000000000000e+00 1851878480
23.939966 -12.365593 -2.012292 0.000000000000000e+00 1851878480
23.451479 -13.338529 -1.892194 0.000000000000000e+00 1851878480
22.342916 -8.281528 -2.232671 0.000000000000000e+00 1851878480
22.577206 -9.430698 -2.223176 0.000000000000000e+00 1851878480
22.161631 -11.450603 -2.084897 0.000000000000000e+00 1851878480
21.709301 -12.354933 -1.976817 0.000000000000000e+00 1851878480
20.459829 -7.577771 -2.231199 0.000000000000000e+00 1851878480
20.603077 -8.603050 -2.222591 0.000000000000000e+00 1851878480
20.466881 -10.578225 -2.130893 0.000000000000000e+00 1851878480
20.111956 -11.452664 -2.040350 0.000000000000000e+00 1851878480
18.927469 -7.004869 -2.237069 0.000000000000000e+00 1851878480
19.031740 -7.944119 -2.232391 0.000000000000000e+00 1851878480
19.116356 -9.883295 -2.182508 0.000000000000000e+00 1851878480
18.689386 -10.648905 -2.090614 0.000000000000000e+00 1851878480
17.649054 -6.526735 -2.247528 0.000000000000000e+00 1851878480
17.677954 -7.376420 -2.240439 0.000000000000000e+00 1851878480
17.744663 -9.176982 -2.204683 0.000000000000000e+00 1851878480
17.676933 -10.078022 -2.161786 0.000000000000000e+00 1851878480
16.404974 -6.062013 -2.239541 0.000000000000000e+00 1851878480
16.467321 -6.868835 -2.242722 0.000000000000000e+00 1851878480
16.470343 -8.520609 -2.212651 0.000000000000000e+00 1851878480
16.556063 -9.444619 -2.197834 0.000000000000000e+00 1851878480
8.803696 -3.250669 -1.282733 1.880790849211783e-38 1684957512
15.418215 -6.428945 -2.245928 0.000000000000000e+00 1851878480
15.471889 -8.006584 -2.235083 0.000000000000000e+00 1851878480
15.430067 -8.807543 -2.210091 0.000000000000000e+00 1851878480
8.403052 -3.100340 -1.301724 1.880790849211783e-38 1684957512
14.500584 -6.044169 -2.249951 0.000000000000000e+00 1851878480
14.555392 -7.534671 -2.250334 0.000000000000000e+00 1851878480
14.448651 -8.252289 -2.221357 0.000000000000000e+00 1851878480
8.436308 -3.110207 -1.384722 1.880790849211783e-38 1684957512
13.596254 -5.665209 -2.239038 0.000000000000000e+00 1851878480
13.592033 -7.038203 -2.239628 0.000000000000000e+00 1851878480
13.659442 -7.806221 -2.243959 0.000000000000000e+00 1851878480
8.453745 -3.114221 -1.465777 1.880790849211783e-38 1684957512
12.891896 -5.369796 -2.246053 0.000000000000000e+00 1851878480
12.865752 -6.664224 -2.251163 0.000000000000000e+00 1851878480
12.801260 -7.320186 -2.238264 0.000000000000000e+00 1851878480
8.443116 -3.107887 -1.542228 1.880790849211783e-38 1684957512
12.196008 -5.078127 -2.241493 0.000000000000000e+00 1851878480
12.140017 -6.290299 -2.248348 0.000000000000000e+00 1851878480
12.100754 -6.923800 -2.244060 0.000000000000000e+00 1851878480
8.389411 -3.085712 -1.610420 1.880790849211783e-38 1684957512
11.600222 -4.828318 -2.243279 0.000000000000000e+00 1851878480
11.445418 -5.932278 -2.237128 0.000000000000000e+00 1851878480
11.392643 -6.522577 -2.233901 0.000000000000000e+00 1851878480
8.425250 -3.096469 -1.695856 1.880790849211783e-38 1684957512
11.058754 -4.601280 -2.244973 0.000000000000000e+00 1851878480
10.944615 -5.674509 -2.251887 0.000000000000000e+00 1851878480
10.838428 -6.209048 -2.240884 0.000000000000000e+00 1851878480
8.400037 -3.084780 -1.769336 1.880790849211783e-38 1684957512
10.602585 -4.409883 -2.254700 0.000000000000000e+00 1851878480
10.427981 -5.408373 -2.253281 0.000000000000000e+00 1851878480
10.289396 -5.898117 -2.237557 0.000000000000000e+00 1851878480
8.420298 -3.089788 -1.852598 1.880790849211783e-38 1684957512
10.152793 -4.221269 -2.257362 0.000000000000000e+00 1851878480
9.925268 -5.149304 -2.247523 0.000000000000000e+00 1851878480
9.867108 -5.659515 -2.251786 0.000000000000000e+00 1851878480
8.356677 -3.064019 -1.917252 1.880790849211783e-38 1684957512
9.674440 -4.020918 -2.245002 0.000000000000000e+00 1851878480
9.484619 -4.922274 -2.246404 0.000000000000000e+00 1851878480
9.420881 -5.406892 -2.251609 0.000000000000000e+00 1851878480
8.402147 -3.078249 -2.007035 1.880790849211783e-38 1684957512
9.282734 -3.856705 -2.244619 0.000000000000000e+00 1851878480
9.081090 -4.714376 -2.245662 0.000000000000000e+00 1851878480
8.993144 -5.164587 -2.246815 0.000000000000000e+00 1851878480
8.380796 -3.067980 -2.081368 1.880790849211783e-38 1684957512
8.951356 -3.717660 -2.252097 0.000000000000000e+00 1851878480
8.715843 -4.526227 -2.246726 0.000000000000000e+00 1851878480
8.590640 -4.936488 -2.239722 0.000000000000000e+00 1851878480
8.410955 -3.076564 -2.168877 1.880790849211783e-38 1684957512
8.582152 -3.563011 -2.243528 0.000000000000000e+00 1851878480
8.378917 -4.352675 -2.248099 0.000000000000000e+00 1851878480
8.321395 -4.784747 -2.260463 0.000000000000000e+00 1851878480
8.385640 -3.064843 -2.242438 0.000000000000000e+00 1851878480
8.299166 -3.444249 -2.251420 0.000000000000000e+00 1851878480
8.095901 -4.207033 -2.257782 0.000000000000000e+00 1851878480
7.964921 -4.582641 -2.251068 0.000000000000000e+00 1851878480
8.086179 -2.953010 -2.239900 0.000000000000000e+00 1851878480
7.979378 -3.310305 -2.243714 0.000000000000000e+00 1851878480
7.797970 -4.053540 -2.257537 0.000000000000000e+00 1851878480
7.654613 -4.406866 -2.247800 0.000000000000000e+00 1851878480
7.850327 -2.864552 -2.250164 0.000000000000000e+00 1851878480
7.709674 -3.197222 -2.244583 0.000000000000000e+00 1851878480
7.480917 -3.890015 -2.245595 0.000000000000000e+00 1851878480
7.342679 -4.229946 -2.237587 0.000000000000000e+00 1851878480
7.539773 -2.748995 -2.234071 0.000000000000000e+00 1851878480
7.469599 -3.096499 -2.249341 0.000000000000000e+00 1851878480
7.261218 -3.777026 -2.257526 0.000000000000000e+00 1851878480
7.089060 -4.086433 -2.239276 0.000000000000000e+00 1851878480
7.344205 -2.675501 -2.247474 0.000000000000000e+00 1851878480
7.213431 -2.989180 -2.244631 0.000000000000000e+00 1851878480
7.008945 -3.647016 -2.254646 0.000000000000000e+00 1851878480
6.901153 -3.980644 -2.257205 0.000000000000000e+00 1851878480
7.091571 -2.581347 -2.239385 0.000000000000000e+00 1851878480
6.939835 -2.874715 -2.229517 0.000000000000000e+00 1851878480
6.784294 -3.531305 -2.255894 0.000000000000000e+00 1851878480
6.645123 -3.835419 -2.248290 0.000000000000000e+00 1851878480
6.884732 -2.503985 -2.241593 0.000000000000000e+00 1851878480
6.774674 -2.805229 -2.245152 0.000000000000000e+00 1851878480
6.520225 -3.394995 -2.239118 0.000000000000000e+00 1851878480
6.392474 -3.691971 -2.235191 0.000000000000000e+00 1851878480
6.720640 -2.442273 -2.254412 0.000000000000000e+00 1851878480
6.552164 -2.712055 -2.238194 0.000000000000000e+00 1851878480
6.395730 -3.331304 -2.266427 0.000000000000000e+00 1851878480
6.223097 -3.596472 -2.246837 0.000000000000000e+00 1851878480
6.494689 -2.358192 -2.242965 0.000000000000000e+00 1851878480
6.371832 -2.636397 -2.241884 0.000000000000000e+00 1851878480
6.181439 -3.220783 -2.258592 0.000000000000000e+00 1851878480
6.090876 -3.522352 -2.268878 0.000000000000000e+00 1851878480
6.316678 -2.291632 -2.244406 0.000000000000000e+00 1851878480
6.237570 -2.579848 -2.258911 0.000000000000000e+00 1851878480
5.970775 -3.112084 -2.247789 0.000000000000000e+00 1851878480
5.842629 -3.381003 -2.243751 0.000000000000000e+00 1851878480
6.086054 -2.206098 -2.223415 0.000000000000000e+00 1851878480
6.041731 -2.497872 -2.250590 0.000000000000000e+00 1851878480
5.822486 -3.035838 -2.256884 0.000000000000000e+00 1851878480
5.672915 -3.284956 -2.244379 0.000000000000000e+00 1851878480
6.006426 -2.175384 -2.254817 0.000000000000000e+00 1851878480
5.862025 -2.422628 -2.244741 0.000000000000000e+00 1851878480
5.647443 -2.945591 -2.252394 0.000000000000000e+00 1851878480
5.471207 -3.170253 -2.228451 0.000000000000000e+00 1851878480
5.787046 -2.094139 -2.231084 0.000000000000000e+00 1851878480
5.692636 -2.351697 -2.239559 0.000000000000000e+00 1851878480
5.479095 -2.858781 -2.247118 0.000000000000000e+00 1851878480
5.391580 -3.126199 -2.259384 0.000000000000000e+00 1851878480
5.631452 -2.036080 -2.228484 0.000000000000000e+00 1851878480
5.568181 -2.299371 -2.249334 0.000000000000000e+00 1851878480
5.311117 -2.772110 -2.238593 0.000000000000000e+00 1851878480
5.241899 -3.041449 -2.258688 0.000000000000000e+00 1851878480
5.530700 -1.997920 -2.245319 0.000000000000000e+00 1851878480
5.469177 -2.257584 -2.267398 0.000000000000000e+00 1851878480
5.240967 -2.736461 -2.268998 0.000000000000000e+00 1851878480
5.055490 -2.935277 -2.238611 0.000000000000000e+00 1851878480
5.419043 -1.955879 -2.255901 0.000000000000000e+00 1851878480
5.298278 -2.186164 -2.253158 0.000000000000000e+00 1851878480
5.078654 -2.652657 -2.257248 0.000000000000000e+00 1851878480
4.979192 -2.892946 -2.264591 0.000000000000000e+00 1851878480
5.211961 -1.879485 -2.223817 0.000000000000000e+00 1851878480
5.150904 -2.124494 -2.245888 0.000000000000000e+00 1851878480
4.935974 -2.579057 -2.251117 0.000000000000000e+00 1851878480
4.836915 -2.812209 -2.258370 0.000000000000000e+00 1851878480
5.126146 -1.846904 -2.240785 0.000000000000000e+00 1851878480
5.063787 -2.087712 -2.262741 0.000000000000000e+00 1851878480
4.801126 -2.509505 -2.245744 0.000000000000000e+00 1851878480
4.702975 -2.736222 -2.253133 0.000000000000000e+00 1851878480
5.010482 -1.803625 -2.242956 0.000000000000000e+00 1851878480
4.941067 -2.036280 -2.261788 0.000000000000000e+00 1851878480
4.684595 -2.449481 -2.246410 0.000000000000000e+00 1851878480
4.558713 -2.654137 -2.239995 0.000000000000000e+00 1851878480
4.937325 -1.775698 -2.262530 0.000000000000000e+00 1851878480
4.808354 -1.980769 -2.253853 0.000000000000000e+00 1851878480
4.600377 -2.406328 -2.260626 0.000000000000000e+00 1851878480
4.451002 -2.593243 -2.242158 0.000000000000000e+00 1851878480
4.813767 -1.729693 -2.257290 0.000000000000000e+00 1851878480
4.648935 -1.914301 -2.230569 0.000000000000000e+00 1851878480
4.476811 -2.342558 -2.253460 0.000000000000000e+00 1851878480
4.392214 -2.560800 -2.267353 0.000000000000000e+00 1851878480
4.740736 -1.701900 -2.274013 0.000000000000000e+00 1851878480
4.583686 -1.886640 -2.250363 0.000000000000000e+00 1851878480
4.414024 -2.310564 -2.275084 0.000000000000000e+00 1851878480
4.233982 -2.470304 -2.238945 0.000000000000000e+00 1851878480
4.596186 -1.648491 -2.254462 0.000000000000000e+00 1851878480
4.556376 -1.874606 -2.288144 0.000000000000000e+00 1851878480
4.293664 -2.248403 -2.265252 0.000000000000000e+00 1851878480
4.120036 -2.405550 -2.230975 0.000000000000000e+00 1851878480
4.446751 -1.593420 -2.229700 0.000000000000000e+00 1851878480
4.390611 -1.805636 -2.254617 0.000000000000000e+00 1851878480
4.174466 -2.186809 -2.253551 0.000000000000000e+00 1851878480
4.098992 -2.394999 -2.272055 0.000000000000000e+00 1851878480
4.407564 -1.577902 -2.258538 0.000000000000000e+00 1851878480
4.285334 -1.761581 -2.249475 0.000000000000000e+00 1851878480
4.113168 -2.155520 -2.271331 0.000000000000000e+00 1851878480
3.949502 -2.309338 -2.240208 0.000000000000000e+00 1851878480
4.266751 -1.526055 -2.233697 0.000000000000000e+00 1851878480
4.139266 -1.700799 -2.220441 0.000000000000000e+00 1851878480
4.028792 -2.112115 -2.275005 0.000000000000000e+00 1851878480
3.845787 -2.250353 -2.231510 0.000000000000000e+00 1851878480
4.202502 -1.501646 -2.247047 0.000000000000000e+00 1851878480
4.106001 -1.686392 -2.250256 0.000000000000000e+00 1851878480
3.983043 -2.088941 -2.299316 0.000000000000000e+00 1851878480
3.801712 -2.226217 -2.255956 0.000000000000000e+00 1851878480
4.097275 -1.462644 -2.236975 0.000000000000000e+00 1851878480
4.033838 -1.656024 -2.257934 0.000000000000000e+00 1851878480
3.839942 -2.014681 -2.265499 0.000000000000000e+00 1851878480
3.715595 -2.177423 -2.254209 0.000000000000000e+00 1851878480
3.999591 -1.426392 -2.229121 0.000000000000000e+00 1851878480
3.945705 -1.619121 -2.255204 0.000000000000000e+00 1851878480
3.757693 -1.972306 -2.265169 0.000000000000000e+00 1851878480
3.659060 -2.145917 -2.268991 0.000000000000000e+00 1851878480
4.037525 -1.438516 -2.296574 0.000000000000000e+00 1634890835
3.866343 -1.585841 -2.255921 0.000000000000000e+00 1851878480
3.653680 -1.918479 -2.249784 0.000000000000000e+00 1851878480
3.503991 -2.056546 -2.220302 0.000000000000000e+00 1851878480
3.916787 -1.394123 -2.273227 0.000000000000000e+00 1634890835
3.793811 -1.555385 -2.259232 0.000000000000000e+00 1851878480
3.602578 -1.892405 -2.265430 0.000000000000000e+00 1851878480
3.466984 -2.036398 -2.244302 0.000000000000000e+00 1851878480
3.855897 -1.371085 -2.282918 0.000000000000000e+00 1634890835
3.711843 -1.521083 -2.255483 0.000000000000000e+00 1851878480
3.493402 -1.835802 -2.242919 0.000000000000000e+00 1851878480
3.385086 -1.989846 -2.238096 0.000000000000000e+00 1851878480
3.734432 -1.326562 -2.255024 0.000000000000000e+00 1634890835
3.600549 -1.474794 -2.231990 0.000000000000000e+00 1851878480
3.451458 -1.814508 -2.262048 0.000000000000000e+00 1851878480
3.329765 -1.958870 -2.248055 0.000000000000000e+00 1851878480
3.712858 -1.317560 -2.286178 0.000000000000000e+00 1634890835
3.557410 -1.456444 -2.249280 0.000000000000000e+00 1851878480
3.376738 -1.775963 -2.258610 0.000000000000000e+00 1851878480
3.286995 -1.935252 -2.265617 0.000000000000000e+00 1851878480
3.699523 -1.311483 -2.322419 0.000000000000000e+00 1634890835
3.519854 -1.440386 -2.269538 0.000000000000000e+00 1851878480
3.327406 -1.750751 -2.270962 0.000000000000000e+00 1851878480
3.158492 -1.861089 -2.222159 0.000000000000000e+00 1851878480
3.571378 -1.264744 -2.285310 0.000000000000000e+00 1634890835
3.519600 -1.439596 -2.313825 0.000000000000000e+00 1634890835
3.238909 -1.704909 -2.255184 0.000000000000000e+00 1851878480
3.126026 -1.843459 -2.244474 0.000000000000000e+00 1851878480
3.549160 -1.255558 -2.314594 0.000000000000000e+00 1634890835
3.430781 -1.402589 -2.299213 0.000000000000000e+00 1634890835
3.171813 -1.670305 -2.252651 0.000000000000000e+00 1851878480
3.115077 -1.838514 -2.282129 0.000000000000000e+00 1851878480
3.428272 -1.211510 -2.278209 0.000000000000000e+00 1634890835
3.402016 -1.390152 -2.323809 0.000000000000000e+00 1634890835
3.098639 -1.632478 -2.244336 0.000000000000000e+00 1851878480
2.980558 -1.760585 -2.227642 0.000000000000000e+00 1851878480
3.425727 -1.209316 -2.319386 0.000000000000000e+00 1634890835
3.300139 -1.347859 -2.297240 0.000000000000000e+00 1634890835
3.062948 -1.614382 -2.262135 0.000000000000000e+00 1851878480
2.944145 -1.740540 -2.244473 0.000000000000000e+00 1851878480
3.311404 -1.167691 -2.283864 0.000000000000000e+00 1634890835
3.225246 -1.316613 -2.287617 0.000000000000000e+00 1634890835
3.001364 -1.582624 -2.259931 0.000000000000000e+00 1851878480
2.867469 -1.696654 -2.229443 0.000000000000000e+00 1851878480
3.260435 -1.148459 -2.290397 0.000000000000000e+00 1634890835
3.145891 -1.283571 -2.273261 0.000000000000000e+00 1634890835
2.938521 -1.550182 -2.255493 0.000000000000000e+00 1851878480
2.846750 -1.685846 -2.256981 0.000000000000000e+00 1851878480
3.203666 -1.127213 -2.291934 0.000000000000000e+00 1634890835
3.132259 -1.277357 -2.305636 0.000000000000000e+00 1634890835
2.911366 -1.536553 -2.277654 0.000000000000000e+00 1851878480
2.829819 -1.677282 -2.287496 0.000000000000000e+00 1851878480
3.144662 -1.105210 -2.290834 0.000000000000000e+00 1634890835
3.078657 -1.254851 -2.308168 0.000000000000000e+00 1634890835
2.841973 -1.500619 -2.265869 0.000000000000000e+00 1851878480
2.734770 -1.622375 -2.253673 0.000000000000000e+00 1851878480
3.103590 -1.089537 -2.301960 0.000000000000000e+00 1634890835
3.029421 -1.234136 -2.313063 0.000000000000000e+00 1634890835
2.778218 -1.467636 -2.257117 0.000000000000000e+00 1851878480
0.876502 -0.520441 -0.736276 0.000000000000000e+00 1886740808
3.081593 -1.080570 -2.326880 0.000000000000000e+00 1634890835
2.933881 -1.194582 -2.281098 0.000000000000000e+00 1634890835
2.740836 -1.448571 -2.268798 0.000000000000000e+00 1851878480
0.852461 -0.506625 -0.729848 0.000000000000000e+00 1886740808
2.973657 -1.041509 -2.285645 0.000000000000000e+00 1634890835
2.921692 -1.188983 -2.312937 0.000000000000000e+00 1634890835
0.868847 -0.459417 -0.732717 0.000000000000000e+00 1886740808
0.804551 -0.478591 -0.702000 0.000000000000000e+00 1886740808
2.921584 -1.022064 -2.285665 0.000000000000000e+00 1634890835
2.899307 -1.179231 -2.336730 0.000000000000000e+00 1634890835
0.840469 -0.444626 -0.722025 0.000000000000000e+00 1886740808
0.789166 -0.469875 -0.701675 0.000000000000000e+00 1886740808
2.896796 -1.012180 -2.306470 0.000000000000000e+00 1634890835
2.795272 -1.136292 -2.293421 0.000000000000000e+00 1634890835
0.882290 -0.466979 -0.772043 0.000000000000000e+00 1886740808
0.772525 -0.460400 -0.699883 0.000000000000000e+00 1886740808
2.832931 -0.988667 -2.295429 0.000000000000000e+00 1634890835
2.732212 -1.110040 -2.281823 0.000000000000000e+00 1634890835
0.837500 -0.443493 -0.746410 0.000000000000000e+00 1886740808
0.748955 -0.446781 -0.691321 0.000000000000000e+00 1886740808
2.771300 -0.965969 -2.284938 0.000000000000000e+00 1634890835
0.843856 -0.342647 -0.717314 0.000000000000000e+00 1886740808
0.795901 -0.421676 -0.722407 0.000000000000000e+00 1886740808
0.747947 -0.446611 -0.703352 0.000000000000000e+00 1886740808
0.858414 -0.298838 -0.720142 0.000000000000000e+00 1886740808
0.839027 -0.340491 -0.725869 0.000000000000000e+00 1886740808
0.767900 -0.407049 -0.709785 0.000000000000000e+00 1886740808
0.758009 -0.453064 -0.726147 0.000000000000000e+00 1886740808
0.844203 -0.293519 -0.720556 0.000000000000000e+00 1886740808
0.801705 -0.325156 -0.705844 0.000000000000000e+00 1886740808
0.776823 -0.411992 -0.731166 0.000000000000000e+00 1886740808
0.789821 -0.472549 -0.770727 0.000000000000000e+00 1886740808
0.833093 -0.289286 -0.723412 0.000000000000000e+00 1886740808
0.802772 -0.325397 -0.719235 0.000000000000000e+00 1886740808
0.768405 -0.407741 -0.736427 0.000000000000000e+00 1886740808
0.751875 -0.450301 -0.747334 0.000000000000000e+00 1886740808
0.818057 -0.283695 -0.722641 0.000000000000000e+00 1886740808
0.796721 -0.322752 -0.726348 0.000000000000000e+00 1886740808
0.786907 -0.417782 -0.767869 0.000000000000000e+00 1886740808
0.737320 -0.442038 -0.746452 0.000000000000000e+00 1886740808
0.852318 -0.295186 -0.765885 0.000000000000000e+00 1886740808
0.793884 -0.321407 -0.736433 0.000000000000000e+00 1886740808
0.792494 -0.420976 -0.787343 0.000000000000000e+00 1886740808
0.771288 -0.462884 -0.795279 0.000000000000000e+00 1886740808
0.797386 -0.275791 -0.728840 0.000000000000000e+00 1886740808
0.779265 -0.315294 -0.735494 0.000000000000000e+00 1886740808
0.768332 -0.408365 -0.777146 0.000000000000000e+00 1886740808
0.742333 -0.445979 -0.779549 0.000000000000000e+00 1886740808
0.761614 -0.263060 -0.708079 0.000000000000000e+00 1886740808
0.770905 -0.311716 -0.740278 0.000000000000000e+00 1886740808
0.793182 -0.421808 -0.816766 0.000000000000000e+00 1886740808
0.733366 -0.441066 -0.784321 0.000000000000000e+00 1886740808
0.806960 -0.278337 -0.763071 0.000000000000000e+00 1886740808
0.742525 -0.300049 -0.725419 0.000000000000000e+00 1886740808
0.789089 -0.419869 -0.827198 0.000000000000000e+00 1886740808
2.074988 -1.249320 -2.259989 0.000000000000000e+00 1634890835
0.776658 -0.267509 -0.746957 0.000000000000000e+00 1886740808
0.757283 -0.305815 -0.752676 0.000000000000000e+00 1886740808
0.773844 -0.411995 -0.825822 0.000000000000000e+00 1886740808
2.061199 -1.242397 -2.286231 0.000000000000000e+00 1634890835
0.751641 -0.258523 -0.735218 0.000000000000000e+00 1886740808
0.745617 -0.300907 -0.753923 0.000000000000000e+00 1886740808
2.098486 -1.117888 -2.279713 0.000000000000000e+00 1634890835
2.042324 -1.232411 -2.306900 0.000000000000000e+00 1634890835
0.759635 -0.260892 -0.755684 0.000000000000000e+00 1886740808
0.736185 -0.296902 -0.757269 0.000000000000000e+00 1886740808
2.077581 -1.107412 -2.297568 0.000000000000000e+00 1634890835
0.785641 -0.474629 -0.903710 0.000000000000000e+00 1886740808
0.734031 -0.251726 -0.742629 0.000000000000000e+00 1886740808
0.785265 -0.316481 -0.821723 0.000000000000000e+00 1886740808
2.068971 -1.103490 -2.329154 0.000000000000000e+00 1634890835
0.800907 -0.484418 -0.938183 0.000000000000000e+00 1886740808
0.741097 -0.253767 -0.762515 0.000000000000000e+00 1886740808
0.760756 -0.306391 -0.809834 0.000000000000000e+00 1886740808
1.975380 -1.054222 -2.263746 0.000000000000000e+00 1634890835
0.791824 -0.479494 -0.944576 0.000000000000000e+00 1886740808
0.779098 -0.266372 -0.815227 0.000000000000000e+00 1886740808
2.125886 -0.855590 -2.302133 0.000000000000000e+00 1634890835
0.803185 -0.428914 -0.936976 0.000000000000000e+00 1886740808
0.805824 -0.488563 -0.978939 0.000000000000000e+00 1886740808
0.778195 -0.265649 -0.828106 0.000000000000000e+00 1886740808
2.110550 -0.848811 -2.325016 0.000000000000000e+00 1634890835
0.816591 -0.436351 -0.969745 0.000000000000000e+00 1886740808
0.770980 -0.468015 -0.953834 0.000000000000000e+00 1886740808
0.770528 -0.262614 -0.833868 0.000000000000000e+00 1886740808
2.070679 -0.832169 -2.320522 0.000000000000000e+00 1634890835
0.807024 -0.431519 -0.975633 0.000000000000000e+00 1886740808
1.822238 -1.107559 -2.295933 0.000000000000000e+00 1634890835
2.071883 -0.705006 -2.280279 0.000000000000000e+00 1634890835
2.032729 -0.816311 -2.317391 0.000000000000000e+00 1634890835
0.815382 -0.436278 -1.003501 0.000000000000000e+00 1886740808
1.775757 -1.080690 -2.278632 0.000000000000000e+00 1634890835
2.049639 -0.696289 -2.294136 0.000000000000000e+00 1634890835
1.981153 -0.794998 -2.297692 0.000000000000000e+00 1634890835
0.776816 -0.415923 -0.973292 0.000000000000000e+00 1886740808
0.771809 -0.470321 -1.008677 0.000000000000000e+00 1886740808
2.009283 -0.681433 -2.287224 0.000000000000000e+00 1634890835
1.949933 -0.781867 -2.300683 0.000000000000000e+00 1634890835
0.800357 -0.428822 -1.020921 0.000000000000000e+00 1886740808
1.740841 -1.062236 -2.317240 0.000000000000000e+00 1634890835
1.956349 -0.662345 -2.264899 0.000000000000000e+00 1634890835
0.811300 -0.325053 -0.973853 0.000000000000000e+00 1886740808
1.749141 -0.937829 -2.271608 0.000000000000000e+00 1634890835
1.704424 -1.041427 -2.310891 0.000000000000000e+00 1634890835
1.934864 -0.653927 -2.278236 0.000000000000000e+00 1634890835
0.797997 -0.319466 -0.974543 0.000000000000000e+00 1886740808
0.762564 -0.409153 -1.008333 0.000000000000000e+00 1886740808
1.685911 -1.031543 -2.328357 0.000000000000000e+00 1634890835
1.886215 -0.636350 -2.258910 0.000000000000000e+00 1634890835
0.775147 -0.310065 -0.963136 0.000000000000000e+00 1886740808
1.697926 -0.911684 -2.286062 0.000000000000000e+00 1634890835
1.648698 -1.010201 -2.319501 0.000000000000000e+00 1634890835
0.817513 -0.275301 -0.995812 0.000000000000000e+00 1886740808
0.770189 -0.307825 -0.973696 0.000000000000000e+00 1886740808
1.685172 -0.905512 -2.310362 0.000000000000000e+00 1634890835
1.594042 -0.978121 -2.284654 0.000000000000000e+00 1634890835
0.756603 -0.254317 -0.937440 0.000000000000000e+00 1886740808
0.787656 -0.314538 -1.013224 0.000000000000000e+00 1886740808
1.637601 -0.880620 -2.286321 0.000000000000000e+00 1634890835
1.578622 -0.970089 -2.305141 0.000000000000000e+00 1634890835
0.760946 -0.255291 -0.959049 0.000000000000000e+00 1886740808
0.787881 -0.314354 -1.031323 0.000000000000000e+00 1886740808
1.671079 -0.899322 -2.376018 0.000000000000000e+00 1634890835
1.529176 -0.941119 -2.275149 0.000000000000000e+00 1634890835
0.751935 -0.251778 -0.964056 0.000000000000000e+00 1886740808
1.712509 -0.682661 -2.281174 0.000000000000000e+00 1634890835
1.594382 -0.858728 -2.308879 0.000000000000000e+00 1634890835
1.513809 -0.933098 -2.295057 0.000000000000000e+00 1634890835
0.786064 -0.262684 -1.025272 0.000000000000000e+00 1886740808
1.681720 -0.669779 -2.279804 0.000000000000000e+00 1634890835
1.562692 -0.842344 -2.305016 0.000000000000000e+00 1634890835
1.481434 -0.914581 -2.288838 0.000000000000000e+00 1634890835
0.755010 -0.251795 -1.001889 0.000000000000000e+00 1886740808
0.777432 -0.309341 -1.072643 0.000000000000000e+00 1886740808
1.510322 -0.814792 -2.269343 0.000000000000000e+00 1634890835
1.463263 -0.904818 -2.304140 0.000000000000000e+00 1634890835
1.688862 -0.562063 -2.280217 0.000000000000000e+00 1634890835
1.641078 -0.652364 -2.304642 0.000000000000000e+00 1634890835
1.537086 -0.829936 -2.352883 0.000000000000000e+00 1634890835
1.429183 -0.885203 -2.293902 0.000000000000000e+00 1634890835
0.762808 -0.253327 -1.047958 0.000000000000000e+00 1886740808
1.614471 -0.641163 -2.307924 0.000000000000000e+00 1634890835
1.479739 -0.799669 -2.307824 0.000000000000000e+00 1634890835
1.417163 -0.879242 -2.318766 0.000000000000000e+00 1634890835
1.635650 -0.542015 -2.286651 0.000000000000000e+00 1634890835
1.554102 -0.616572 -2.261648 0.000000000000000e+00 1634890835
1.443579 -0.780823 -2.294146 0.000000000000000e+00 1634890835
1.359608 -0.844993 -2.268056 0.000000000000000e+00 1634890835
1.595027 -0.527376 -2.269316 0.000000000000000e+00 1634890835
1.583510 -0.627600 -2.346183 0.000000000000000e+00 1634890835
1.471217 -0.796499 -2.382706 0.000000000000000e+00 1634890835
1.340766 -0.834760 -2.280619 0.000000000000000e+00 1634890835
1.555971 -0.513287 -2.253124 0.000000000000000e+00 1634890835
1.506282 -0.596368 -2.272408 0.000000000000000e+00 1634890835
1.403036 -0.760297 -2.315952 0.000000000000000e+00 1634890835
1.329469 -0.829232 -2.306207 0.000000000000000e+00 1634890835
1.563995 -0.514724 -2.305245 0.000000000000000e+00 1634890835
1.520231 -0.601244 -2.335471 0.000000000000000e+00 1634890835
1.376616 -0.746697 -2.316315 0.000000000000000e+00 1634890835
1.307024 -0.816752 -2.312526 0.000000000000000e+00 1634890835
1.510734 -0.495999 -2.266796 0.000000000000000e+00 1634890835
1.479712 -0.584575 -2.315132 0.000000000000000e+00 1634890835
1.346143 -0.730887 -2.309195 0.000000000000000e+00 1634890835
1.286896 -0.805714 -2.322724 0.000000000000000e+00 1634890835
1.503822 -0.492509 -2.297263 0.000000000000000e+00 1634890835
1.452640 -0.573233 -2.314956 0.000000000000000e+00 1634890835
1.320058 -0.717449 -2.308929 0.000000000000000e+00 1634890835
1.243609 -0.780143 -2.290130 0.000000000000000e+00 1634890835
1.492585 -0.487590 -2.321633 0.000000000000000e+00 1634890835
1.409925 -0.555733 -2.288875 0.000000000000000e+00 1634890835
1.281332 -0.697124 -2.285575 0.000000000000000e+00 1634890835
1.229248 -0.772692 -2.310010 0.000000000000000e+00 1634890835
1.432474 -0.466733 -2.268998 0.000000000000000e+00 1634890835
1.393500 -0.548605 -2.304798 0.000000000000000e+00 1634890835
1.292943 -0.704192 -2.352344 0.000000000000000e+00 1634890835
1.213241 -0.764211 -2.327013 0.000000000000000e+00 1634890835
1.426331 -0.463485 -2.301003 0.000000000000000e+00 1634890835
1.370375 -0.538840 -2.309547 0.000000000000000e+00 1634890835
1.256831 -0.685273 -2.332715 0.000000000000000e+00 1634890835
1.183239 -0.746904 -2.316786 0.000000000000000e+00 1634890835
1.381625 -0.447722 -2.270366 0.000000000000000e+00 1634890835
1.339029 -0.525852 -2.299873 0.000000000000000e+00 1634890835
1.230516 -0.671683 -2.330316 0.000000000000000e+00 1634890835
1.148586 -0.726623 -2.296293 0.000000000000000e+00 1634890835
1.367289 -0.441818 -2.288952 0.000000000000000e+00 1634890835
1.326579 -0.520288 -2.322427 0.000000000000000e+00 1634890835
1.207086 -0.659658 -2.332879 0.000000000000000e+00 1634890835
1.140818 -0.723341 -2.329294 0.000000000000000e+00 1634890835
1.360435 -0.438317 -2.320553 0.000000000000000e+00 1634890835
1.283792 -0.502836 -2.291244 0.000000000000000e+00 1634890835
1.192359 -0.652390 -2.352211 0.000000000000000e+00 1634890835
1.080076 -0.686420 -2.252702 0.000000000000000e+00 1634890835
1.313290 -0.421853 -2.282866 0.000000000000000e+00 1634890835
1.253662 -0.490360 -2.281395 0.000000000000000e+00 1634890835
1.156245 -0.633408 -2.328772 0.000000000000000e+00 1634890835
1.078998 -0.687383 -2.299409 0.000000000000000e+00 1634890835
1.288630 -0.412646 -2.283110 0.000000000000000e+00 1634890835
1.216428 -0.475123 -2.257511 0.000000000000000e+00 1634890835
1.156556 -0.634382 -2.378751 0.000000000000000e+00 1634890835
1.057203 -0.675166 -2.302547 0.000000000000000e+00 1634890835
1.267031 -0.404428 -2.288449 0.000000000000000e+00 1634890835
1.213181 -0.473163 -2.296555 0.000000000000000e+00 1634890835
1.119440 -0.614828 -2.351753 0.000000000000000e+00 1634890835
1.049570 -0.672004 -2.336852 0.000000000000000e+00 1634890835
1.246071 -0.396423 -2.294740 0.000000000000000e+00 1634890835
1.206944 -0.470022 -2.330957 0.000000000000000e+00 1634890835
1.077271 -0.592469 -2.312239 0.000000000000000e+00 1634890835
1.003586 -0.644258 -2.284887 0.000000000000000e+00 1634890835
1.230146 -0.390017 -2.310297 0.000000000000000e+00 1634890835
1.184558 -0.460586 -2.334491 0.000000000000000e+00 1634890835
1.065709 -0.586928 -2.337632 0.000000000000000e+00 1634890835
0.985462 -0.634349 -2.294917 0.000000000000000e+00 1634890835
1.189028 -0.375647 -2.277783 0.000000000000000e+00 1634890835
1.147127 -0.445315 -2.307458 0.000000000000000e+00 1634890835
1.027252 -0.566563 -2.303372 0.000000000000000e+00 1634890835
0.986621 -0.636888 -2.350871 0.000000000000000e+00 1634890835
1.188580 -0.374132 -2.323014 0.000000000000000e+00 1634890835
1.097886 -0.425492 -2.254596 0.000000000000000e+00 1634890835
1.029481 -0.568641 -2.360378 0.000000000000000e+00 1634890835
0.929614 -0.601840 -2.267112 0.000000000000000e+00 1634890835
1.141675 -0.358005 -2.277016 0.000000000000000e+00 1634890835
1.092664 -0.422738 -2.291364 0.000000000000000e+00 1634890835
0.990614 -0.548018 -2.323139 0.000000000000000e+00 1634890835
0.918991 -0.596761 -2.294674 0.000000000000000e+00 1634890835
1.134452 -0.354343 -2.309474 0.000000000000000e+00 1634890835
1.073732 -0.414673 -2.299917 0.000000000000000e+00 1634890835
0.947297 -0.524893 -2.273021 0.000000000000000e+00 1634890835
0.891138 -0.580489 -2.279034 0.000000000000000e+00 1634890835
1.108609 -0.344860 -2.304179 0.000000000000000e+00 1634890835
1.040840 -0.401228 -2.277867 0.000000000000000e+00 1634890835
0.939346 -0.521352 -2.306941 0.000000000000000e+00 1634890835
0.889526 -0.581322 -2.330905 0.000000000000000e+00 1634890835
1.069133 -0.331174 -2.269305 0.000000000000000e+00 1634890835
1.026981 -0.395126 -2.296987 0.000000000000000e+00 1634890835
0.950527 -0.528467 -2.390135 0.000000000000000e+00 1634890835
0.853140 -0.559427 -2.291501 0.000000000000000e+00 1634890835
1.057136 -0.326020 -2.292105 0.000000000000000e+00 1634890835
1.040238 -0.399431 -2.378547 0.000000000000000e+00 1634890835
0.908339 -0.505914 -2.339453 0.000000000000000e+00 1634890835
0.832509 -0.547815 -2.293003 0.000000000000000e+00 1634890835
1.020852 -0.313391 -2.261689 0.000000000000000e+00 1634890835
0.985561 -0.377653 -2.304529 0.000000000000000e+00 1634890835
0.878142 -0.490004 -2.317448 0.000000000000000e+00 1634890835
0.463049 -0.305811 -1.308430 0.000000000000000e+00 1936876886
0.990874 -0.302741 -2.243808 0.000000000000000e+00 1634890835
0.977045 -0.373585 -2.337100 0.000000000000000e+00 1634890835
0.857787 -0.479573 -2.320515 0.000000000000000e+00 1634890835
0.445783 -0.295528 -1.292882 0.000000000000000e+00 1936876886
0.991504 -0.301434 -2.295598 0.000000000000000e+00 1634890835
0.946419 -0.361065 -2.316659 0.000000000000000e+00 1634890835
0.858882 -0.481151 -2.382793 0.000000000000000e+00 1634890835
0.437874 -0.291434 -1.304098 0.000000000000000e+00 1936876886
0.973083 -0.294304 -2.304249 0.000000000000000e+00 1634890835
0.914029 -0.347894 -2.290412 0.000000000000000e+00 1634890835
0.462923 -0.259877 -1.317682 0.000000000000000e+00 1936876886
0.342299 -0.228764 -1.047418 0.000000000000000e+00 1953264973
0.961060 -0.289099 -2.328410 0.000000000000000e+00 1634890835
0.889183 -0.337613 -2.281850 0.000000000000000e+00 1634890835
0.444670 -0.250176 -1.299265 0.000000000000000e+00 1936876886
0.321551 -0.215825 -1.011478 0.000000000000000e+00 1953264973
0.510080 -0.152573 -1.264838 0.000000000000000e+00 1936876886
0.887077 -0.335958 -2.332257 0.000000000000000e+00 1634890835
0.372083 -0.209817 -1.116558 0.000000000000000e+00 1953264973
0.295380 -0.199153 -0.955726 0.000000000000000e+00 1953264973
0.492318 -0.146390 -1.249963 0.000000000000000e+00 1936876886
0.833717 -0.314909 -2.246663 0.000000000000000e+00 1634890835
0.347612 -0.196487 -1.071897 0.000000000000000e+00 1953264973
0.261961 -0.177455 -0.872377 0.000000000000000e+00 1953264973
0.480137 -0.141886 -1.248672 0.000000000000000e+00 1936876886
0.826723 -0.311399 -2.284442 0.000000000000000e+00 1634890835
0.321640 -0.182262 -1.019752 0.000000000000000e+00 1953264973
0.251381 -0.171132 -0.862188 0.000000000000000e+00 1953264973
