# .PCD v0.7 - Point Cloud Data file format
VERSION 0.7
FIELDS x y z rgb label
SIZE 4 4 4 4 4
TYPE F F F F U
COUNT 1 1 1 1 1
WIDTH 539
HEIGHT 1
VIEWPOINT 0 0 0 1 0 0 0
POINTS 539
DATA ascii
39.518528 -22.039986 10.361165 0.000000000000000e+00 1954047316
31.773581 -16.391554 -1.401355 0.000000000000000e+00 1851878480
30.376522 -17.236555 -1.195109 0.000000000000000e+00 1851878480
31.791134 -11.819448 -2.019825 0.000000000000000e+00 1851878480
30.774206 -12.872699 -1.876066 0.000000000000000e+00 1851878480
28.587160 -14.752271 -1.545861 0.000000000000000e+00 1851878480
27.683563 -15.717753 -1.374752 0.000000000000000e+00 1851878480
28.862022 -10.722313 -2.095926 0.000000000000000e+00 1851878480
28.071199 -11.737953 -1.974079 0.000000000000000e+00 1851878480
26.939678 -13.906408 -1.725662 0.000000000000000e+00 1851878480
26.241306 -14.907684 -1.574149 0.000000000000000e+00 1851878480
26.643253 -9.890514 -2.177064 0.000000000000000e+00 1851878480
26.209467 -10.955615 -2.088760 0.000000000000000e+00 1851878480
25.641705 -13.240487 -1.898754 0.000000000000000e+00 1851878480
24.920994 -14.165959 -1.752666 0.000000000000000e+00 1851878480
24.374411 -9.041398 -2.213543 0.000000000000000e+00 1851878480
24.599262 -10.278934 -2.191216 0.000000000000000e+00 1851878480
23.878471 -12.333829 -2.007124 0.000000000000000e+00 1851878480
23.557215 -13.398667 -1.900725 0.000000000000000e+00 1851878480
22.311285 -8.269802 -2.229510 0.000000000000000e+00 1851878480
22.564707 -9.425478 -2.221945 0.000000000000000e+00 1851878480
22.197487 -11.469129 -2.088270 0.000000000000000e+00 1851878480
21.933413 -12.482477 -1.997224 0.000000000000000e+00 1851878480
20.480087 -7.585273 -2.233408 0.000000000000000e+00 1851878480
20.638632 -8.617896 -2.226427 0.000000000000000e+00 1851878480
20.617561 -10.656104 -2.146581 0.000000000000000e+00 1851878480
20.295940 -11.557435 -2.059016 0.000000000000000e+00 1851878480
18.924397 -7.003733 -2.236706 0.000000000000000e+00 1851878480
18.977245 -7.921372 -2.225999 0.000000000000000e+00 1851878480
19.227015 -9.940507 -2.195142 0.000000000000000e+00 1851878480
18.834307 -10.731477 -2.106825 0.000000000000000e+00 1851878480
17.577663 -6.500334 -2.238437 0.000000000000000e+00 1851878480
17.619972 -7.352226 -2.233090 0.000000000000000e+00 1851878480
17.736519 -9.172771 -2.203672 0.000000000000000e+00 1851878480
17.669386 -10.073718 -2.160862 0.000000000000000e+00 1851878480
16.396885 -6.059024 -2.238437 0.000000000000000e+00 1851878480
16.435862 -6.855713 -2.238437 0.000000000000000e+00 1851878480
16.464914 -8.517801 -2.211922 0.000000000000000e+00 1851878480
16.529253 -9.429326 -2.194274 0.000000000000000e+00 1851878480
8.776184 -3.240510 -1.278724 1.880790849211783e-38 1684957512
15.366794 -6.407504 -2.238437 0.000000000000000e+00 1851878480
15.397738 -7.968212 -2.224372 0.000000000000000e+00 1851878480
15.399682 -8.790199 -2.205739 0.000000000000000e+00 1851878480
8.254585 -3.045562 -1.278725 1.880790849211783e-38 1684957512
8.241182 -3.435110 -1.278724 1.880790849211783e-38 1684957512
14.459998 -7.485289 -2.235585 0.000000000000000e+00 1851878480
14.427838 -8.240401 -2.218157 0.000000000000000e+00 1851878480
7.790525 -2.872127 -1.278724 1.880790849211783e-38 1684957512
7.764879 -3.235425 -1.278725 1.880790849211783e-38 1684957512
13.584809 -7.034462 -2.238437 0.000000000000000e+00 1851878480
13.583097 -7.762590 -2.231417 0.000000000000000e+00 1851878480
7.374937 -2.716806 -1.278725 1.880790849211783e-38 1684957512
7.339624 -3.057136 -1.278725 1.880790849211783e-38 1684957512
12.793027 -6.626554 -2.238437 0.000000000000000e+00 1851878480
12.802248 -7.320751 -2.238437 0.000000000000000e+00 1851878480
7.071505 -2.603001 -1.291688 1.880790849211783e-38 1684957512
7.071505 -2.944406 -1.299665 1.880790849211783e-38 1684957512
12.086503 -6.262572 -2.238437 0.000000000000000e+00 1851878480
12.070436 -6.906454 -2.238438 0.000000000000000e+00 1851878480
7.071504 -2.600972 -1.357436 1.880790849211783e-38 1684957512
7.071505 -2.943346 -1.367505 1.880790849211783e-38 1684957512
11.452117 -5.935750 -2.238438 0.000000000000000e+00 1851878480
11.415786 -6.535827 -2.238438 0.000000000000000e+00 1851878480
7.071505 -2.598937 -1.423371 1.880790849211783e-38 1684957512
7.071505 -2.942282 -1.435545 1.880790849211783e-38 1684957512
10.879249 -5.640618 -2.238438 0.000000000000000e+00 1851878480
10.826599 -6.202271 -2.238438 0.000000000000000e+00 1851878480
7.071505 -2.596898 -1.489502 1.880790849211783e-38 1684957512
7.071504 -2.941217 -1.503796 1.880790849211783e-38 1684957512
10.359291 -5.372748 -2.238438 0.000000000000000e+00 1851878480
10.293453 -5.900443 -2.238439 0.000000000000000e+00 1851878480
7.071505 -2.594855 -1.555842 1.880790849211783e-38 1684957512
7.071505 -2.940149 -1.572271 1.880790849211783e-38 1684957512
9.885152 -5.128492 -2.238439 0.000000000000000e+00 1851878480
9.808618 -5.625967 -2.238438 0.000000000000000e+00 1851878480
7.071505 -2.592804 -1.622398 1.880790849211783e-38 1684957512
7.071505 -2.939079 -1.640978 1.880790849211783e-38 1684957512
9.450989 -4.904820 -2.238439 0.000000000000000e+00 1851878480
9.365774 -5.375265 -2.238439 0.000000000000000e+00 1851878480
7.071504 -2.590749 -1.689182 1.880790849211783e-38 1684957512
7.071505 -2.938004 -1.709931 1.880790849211783e-38 1684957512
9.051878 -4.699211 -2.238438 0.000000000000000e+00 1851878480
8.959613 -5.145331 -2.238438 0.000000000000000e+00 1851878480
7.071506 -2.588685 -1.756207 1.880790849211783e-38 1684957512
7.071505 -2.936924 -1.779140 1.880790849211783e-38 1684957512
8.683689 -4.509529 -2.238438 0.000000000000000e+00 1851878480
8.585715 -4.933659 -2.238438 0.000000000000000e+00 1851878480
7.071504 -2.586619 -1.823482 1.880790849211783e-38 1684957512
7.071504 -2.935842 -1.848618 1.880790849211783e-38 1684957512
8.342909 -4.333970 -2.238437 0.000000000000000e+00 1851878480
8.240315 -4.738127 -2.238438 0.000000000000000e+00 1851878480
7.071505 -2.584544 -1.891019 1.880790849211783e-38 1684957512
7.071504 -2.934755 -1.918376 1.880790849211783e-38 1684957512
8.026538 -4.170988 -2.238438 0.000000000000000e+00 1851878480
7.920234 -4.556930 -2.238438 0.000000000000000e+00 1851878480
7.071505 -2.582459 -1.958832 1.880790849211783e-38 1684957512
7.071504 -2.933667 -1.988430 1.880790849211783e-38 1684957512
7.732001 -4.019248 -2.238438 0.000000000000000e+00 1851878480
7.622731 -4.388511 -2.238438 0.000000000000000e+00 1851878480
7.071504 -2.580363 -2.026927 1.880790849211783e-38 1684957512
7.071505 -2.932572 -2.058787 1.880790849211783e-38 1684957512
7.457075 -3.877618 -2.238439 0.000000000000000e+00 1851878480
7.345471 -4.231554 -2.238438 0.000000000000000e+00 1851878480
7.071505 -2.578265 -2.095320 1.880790849211783e-38 1684957512
7.071505 -2.931470 -2.129462 1.880790849211783e-38 1684957512
7.199822 -3.745090 -2.238438 0.000000000000000e+00 1851878480
7.086407 -4.084904 -2.238438 0.000000000000000e+00 1851878480
7.071505 -2.576156 -2.164022 1.880790849211783e-38 1684957512
7.071504 -2.930367 -2.200467 1.880790849211783e-38 1684957512
6.958559 -3.620799 -2.238438 0.000000000000000e+00 1851878480
6.843772 -3.947547 -2.238438 0.000000000000000e+00 1851878480
7.071504 -2.574043 -2.233048 1.880790849211783e-38 1684957512
6.967604 -2.886218 -2.238438 0.000000000000000e+00 1851878480
6.731797 -3.503980 -2.238438 0.000000000000000e+00 1851878480
6.616007 -3.818614 -2.238438 0.000000000000000e+00 1851878480
6.875041 -2.500460 -2.238438 0.000000000000000e+00 1851878480
6.754414 -2.796840 -2.238438 0.000000000000000e+00 1851878480
6.518246 -3.393965 -2.238438 0.000000000000000e+00 1851878480
6.401761 -3.697335 -2.238438 0.000000000000000e+00 1851878480
6.673019 -2.424968 -2.238438 0.000000000000000e+00 1851878480
6.552878 -2.712351 -2.238439 0.000000000000000e+00 1851878480
6.316747 -3.290164 -2.238438 0.000000000000000e+00 1851878480
6.199835 -3.583028 -2.238438 0.000000000000000e+00 1851878480
6.481579 -2.353432 -2.238438 0.000000000000000e+00 1851878480
6.362039 -2.632345 -2.238439 0.000000000000000e+00 1851878480
6.126280 -3.192043 -2.238438 0.000000000000000e+00 1851878480
6.009161 -3.475096 -2.238439 0.000000000000000e+00 1851878480
6.299883 -2.285539 -2.238438 0.000000000000000e+00 1851878480
6.181038 -2.556466 -2.238438 0.000000000000000e+00 1851878480
5.945937 -3.099138 -2.238439 0.000000000000000e+00 1851878480
5.828796 -3.372998 -2.238438 0.000000000000000e+00 1851878480
6.127177 -2.221004 -2.238438 0.000000000000000e+00 1851878480
6.009108 -2.484385 -2.238438 0.000000000000000e+00 1851878480
5.774900 -3.011026 -2.238439 0.000000000000000e+00 1851878480
5.657899 -3.276261 -2.238438 0.000000000000000e+00 1851878480
5.962794 -2.159581 -2.238438 0.000000000000000e+00 1851878480
5.845567 -2.415827 -2.238439 0.000000000000000e+00 1851878480
5.612450 -2.927340 -2.238438 0.000000000000000e+00 1851878480
5.495728 -3.184461 -2.238438 0.000000000000000e+00 1851878480
5.806121 -2.101041 -2.238438 0.000000000000000e+00 1851878480
5.689787 -2.350521 -2.238438 0.000000000000000e+00 1851878480
5.457931 -2.847738 -2.238438 0.000000000000000e+00 1851878480
5.341597 -3.097217 -2.238438 0.000000000000000e+00 1851878480
5.656607 -2.045174 -2.238438 0.000000000000000e+00 1851878480
5.541208 -2.288233 -2.238438 0.000000000000000e+00 1851878480
5.310751 -2.771918 -2.238438 0.000000000000000e+00 1851878480
5.194904 -3.014182 -2.238438 0.000000000000000e+00 1851878480
5.513751 -1.991797 -2.238439 0.000000000000000e+00 1851878480
5.399324 -2.228750 -2.238438 0.000000000000000e+00 1851878480
5.170381 -2.699606 -2.238438 0.000000000000000e+00 1851878480
5.055100 -2.935051 -2.238438 0.000000000000000e+00 1851878480
5.377093 -1.940738 -2.238438 0.000000000000000e+00 1851878480
5.263665 -2.171882 -2.238439 0.000000000000000e+00 1851878480
5.036331 -2.630552 -2.238438 0.000000000000000e+00 1851878480
4.921688 -2.859535 -2.238438 0.000000000000000e+00 1851878480
5.246229 -1.891842 -2.238438 0.000000000000000e+00 1851878480
5.133820 -2.117447 -2.238439 0.000000000000000e+00 1851878480
4.908175 -2.564532 -2.238438 0.000000000000000e+00 1851878480
4.794225 -2.787389 -2.238438 0.000000000000000e+00 1851878480
5.120778 -1.844971 -2.238439 0.000000000000000e+00 1851878480
5.009400 -2.065289 -2.238438 0.000000000000000e+00 1851878480
4.785509 -2.501341 -2.238438 0.000000000000000e+00 1851878480
4.672303 -2.718377 -2.238438 0.000000000000000e+00 1851878480
5.000390 -1.799992 -2.238438 0.000000000000000e+00 1851878480
4.890058 -2.015259 -2.238438 0.000000000000000e+00 1851878480
4.667970 -2.440788 -2.238438 0.000000000000000e+00 1851878480
4.555545 -2.652293 -2.238438 0.000000000000000e+00 1851878480
4.884749 -1.756789 -2.238438 0.000000000000000e+00 1851878480
4.775468 -1.967223 -2.238438 0.000000000000000e+00 1851878480
4.555225 -2.382710 -2.238438 0.000000000000000e+00 1851878480
4.443616 -2.588940 -2.238438 0.000000000000000e+00 1851878480
4.773566 -1.715247 -2.238438 0.000000000000000e+00 1851878480
4.665337 -1.921054 -2.238439 0.000000000000000e+00 1851878480
4.446967 -2.326941 -2.238438 0.000000000000000e+00 1851878480
4.336202 -2.528143 -2.238438 0.000000000000000e+00 1851878480
4.666572 -1.675275 -2.238438 0.000000000000000e+00 1851878480
4.559397 -1.876642 -2.238438 0.000000000000000e+00 1851878480
4.342925 -2.273346 -2.238438 0.000000000000000e+00 1851878480
4.233024 -2.469745 -2.238438 0.000000000000000e+00 1851878480
4.563519 -1.636775 -2.238438 0.000000000000000e+00 1851878480
4.457396 -1.833883 -2.238438 0.000000000000000e+00 1851878480
4.242838 -2.221788 -2.238438 0.000000000000000e+00 1851878480
4.133819 -2.413598 -2.238438 0.000000000000000e+00 1851878480
4.464178 -1.599665 -2.238438 0.000000000000000e+00 1851878480
4.359105 -1.792679 -2.238438 0.000000000000000e+00 1851878480
4.146471 -2.172144 -2.238438 0.000000000000000e+00 1851878480
4.038345 -2.359563 -2.238438 0.000000000000000e+00 1851878480
4.368338 -1.563859 -2.238438 0.000000000000000e+00 1851878480
4.264309 -1.752939 -2.238438 0.000000000000000e+00 1851878480
4.053602 -2.124304 -2.238438 0.000000000000000e+00 1851878480
3.946381 -2.307513 -2.238438 0.000000000000000e+00 1851878480
4.275806 -1.529294 -2.238438 0.000000000000000e+00 1851878480
4.172814 -1.714584 -2.238438 0.000000000000000e+00 1851878480
3.964036 -2.078166 -2.238438 0.000000000000000e+00 1851878480
3.857726 -2.257339 -2.238438 0.000000000000000e+00 1851878480
4.186402 -1.495893 -2.238438 0.000000000000000e+00 1851878480
4.084437 -1.677536 -2.238438 0.000000000000000e+00 1851878480
3.877585 -2.033633 -2.238438 0.000000000000000e+00 1851878480
3.772190 -2.208929 -2.238438 0.000000000000000e+00 1851878480
4.099955 -1.463601 -2.238438 0.000000000000000e+00 1851878480
3.999008 -1.641725 -2.238438 0.000000000000000e+00 1851878480
3.794077 -1.990616 -2.238439 0.000000000000000e+00 1851878480
3.689599 -2.162189 -2.238438 0.000000000000000e+00 1851878480
4.016310 -1.432355 -2.238438 0.000000000000000e+00 1851878480
3.916372 -1.607084 -2.238438 0.000000000000000e+00 1851878480
3.713349 -1.949031 -2.238438 0.000000000000000e+00 1851878480
3.609791 -2.117022 -2.238438 0.000000000000000e+00 1851878480
4.006152 -1.427338 -2.278729 0.000000000000000e+00 1634890835
3.836381 -1.573551 -2.238438 0.000000000000000e+00 1851878480
3.635254 -1.908803 -2.238438 0.000000000000000e+00 1851878480
3.532613 -2.073345 -2.238438 0.000000000000000e+00 1851878480
3.926266 -1.397497 -2.278728 0.000000000000000e+00 1634890835
3.758894 -1.541070 -2.238438 0.000000000000000e+00 1851878480
3.559655 -1.869858 -2.238438 0.000000000000000e+00 1851878480
3.457926 -2.031078 -2.238438 0.000000000000000e+00 1851878480
3.848820 -1.368569 -2.278729 0.000000000000000e+00 1634890835
3.683792 -1.509588 -2.238438 0.000000000000000e+00 1851878480
3.486422 -1.832134 -2.238438 0.000000000000000e+00 1851878480
3.385602 -1.990149 -2.238438 0.000000000000000e+00 1851878480
3.773689 -1.340507 -2.278729 0.000000000000000e+00 1634890835
3.610951 -1.479055 -2.238438 0.000000000000000e+00 1851878480
3.415433 -1.795569 -2.238438 0.000000000000000e+00 1851878480
3.315520 -1.950490 -2.238438 0.000000000000000e+00 1851878480
3.700760 -1.313267 -2.278729 0.000000000000000e+00 1634890835
3.540262 -1.449423 -2.238438 0.000000000000000e+00 1851878480
3.346580 -1.760102 -2.238438 0.000000000000000e+00 1851878480
3.247564 -1.912037 -2.238438 0.000000000000000e+00 1851878480
3.629927 -1.286811 -2.278729 0.000000000000000e+00 1634890835
3.471620 -1.420648 -2.238438 0.000000000000000e+00 1851878480
3.279753 -1.725678 -2.238438 0.000000000000000e+00 1851878480
3.181630 -1.874724 -2.238438 0.000000000000000e+00 1851878480
3.561093 -1.261101 -2.278729 0.000000000000000e+00 1634890835
3.466214 -1.417760 -2.278729 0.000000000000000e+00 1634890835
3.214858 -1.692249 -2.238438 0.000000000000000e+00 1851878480
3.117620 -1.838502 -2.238438 0.000000000000000e+00 1851878480
3.494165 -1.236103 -2.278729 0.000000000000000e+00 1634890835
3.400215 -1.390093 -2.278729 0.000000000000000e+00 1634890835
3.151801 -1.659767 -2.238438 0.000000000000000e+00 1851878480
3.055440 -1.803316 -2.238438 0.000000000000000e+00 1851878480
3.429053 -1.211786 -2.278728 0.000000000000000e+00 1634890835
3.336019 -1.363183 -2.278729 0.000000000000000e+00 1634890835
3.090496 -1.628188 -2.238438 0.000000000000000e+00 1851878480
2.995003 -1.769118 -2.238438 0.000000000000000e+00 1851878480
3.365677 -1.188118 -2.278729 0.000000000000000e+00 1634890835
3.273546 -1.336998 -2.278729 0.000000000000000e+00 1634890835
3.030862 -1.597471 -2.238438 0.000000000000000e+00 1851878480
2.936229 -1.735860 -2.238438 0.000000000000000e+00 1851878480
3.303958 -1.165065 -2.278729 0.000000000000000e+00 1634890835
3.212716 -1.311498 -2.278729 0.000000000000000e+00 1634890835
2.972820 -1.567573 -2.238438 0.000000000000000e+00 1851878480
2.879039 -1.703499 -2.238438 0.000000000000000e+00 1851878480
3.243825 -1.142609 -2.278729 0.000000000000000e+00 1634890835
3.153459 -1.286659 -2.278729 0.000000000000000e+00 1634890835
2.916302 -1.538460 -2.238438 0.000000000000000e+00 1851878480
2.823362 -1.671995 -2.238438 0.000000000000000e+00 1851878480
3.185208 -1.120718 -2.278728 0.000000000000000e+00 1634890835
3.095705 -1.262450 -2.278729 0.000000000000000e+00 1634890835
2.861240 -1.510097 -2.238438 0.000000000000000e+00 1851878480
2.769130 -1.641311 -2.238438 0.000000000000000e+00 1851878480
3.128044 -1.099370 -2.278729 0.000000000000000e+00 1634890835
3.039391 -1.238846 -2.278729 0.000000000000000e+00 1634890835
2.807567 -1.482453 -2.238438 0.000000000000000e+00 1851878480
2.716283 -1.611408 -2.238438 0.000000000000000e+00 1851878480
3.072269 -1.078541 -2.278729 0.000000000000000e+00 1634890835
2.984454 -1.215817 -2.278729 0.000000000000000e+00 1634890835
2.755227 -1.455491 -2.238438 0.000000000000000e+00 1851878480
0.840391 -0.499000 -0.705943 0.000000000000000e+00 1886740808
3.017824 -1.058210 -2.278729 0.000000000000000e+00 1634890835
2.930834 -1.193342 -2.278729 0.000000000000000e+00 1634890835
2.704159 -1.429187 -2.238438 0.000000000000000e+00 1851878480
0.824539 -0.490030 -0.705943 0.000000000000000e+00 1886740808
2.964658 -1.038357 -2.278729 0.000000000000000e+00 1634890835
2.878480 -1.171399 -2.278729 0.000000000000000e+00 1634890835
0.837098 -0.442630 -0.705942 0.000000000000000e+00 1886740808
0.809069 -0.481278 -0.705943 0.000000000000000e+00 1886740808
2.912719 -1.018962 -2.278729 0.000000000000000e+00 1634890835
2.827341 -1.149960 -2.278729 0.000000000000000e+00 1634890835
0.821748 -0.434722 -0.705943 0.000000000000000e+00 1886740808
0.793966 -0.472733 -0.705943 0.000000000000000e+00 1886740808
2.861955 -1.000006 -2.278729 0.000000000000000e+00 1634890835
2.777365 -1.129013 -2.278729 0.000000000000000e+00 1634890835
0.806751 -0.426998 -0.705943 0.000000000000000e+00 1886740808
0.779213 -0.464386 -0.705943 0.000000000000000e+00 1886740808
2.812320 -0.981474 -2.278729 0.000000000000000e+00 1634890835
2.728507 -1.108534 -2.278729 0.000000000000000e+00 1634890835
0.792093 -0.419448 -0.705943 0.000000000000000e+00 1886740808
0.764796 -0.456230 -0.705943 0.000000000000000e+00 1886740808
2.763769 -0.963344 -2.278729 0.000000000000000e+00 1634890835
0.830478 -0.337215 -0.705943 0.000000000000000e+00 1886740808
0.777761 -0.412066 -0.705943 0.000000000000000e+00 1886740808
0.750702 -0.448256 -0.705943 0.000000000000000e+00 1886740808
0.841489 -0.292945 -0.705943 0.000000000000000e+00 1886740808
0.815994 -0.331144 -0.705942 0.000000000000000e+00 1886740808
0.763743 -0.404845 -0.705943 0.000000000000000e+00 1886740808
0.744297 -0.444868 -0.713011 0.000000000000000e+00 1886740808
0.827082 -0.287567 -0.705943 0.000000000000000e+00 1886740808
0.801817 -0.325201 -0.705943 0.000000000000000e+00 1886740808
0.750025 -0.397779 -0.705943 0.000000000000000e+00 1886740808
0.744297 -0.445312 -0.726303 0.000000000000000e+00 1886740808
0.812974 -0.282300 -0.705942 0.000000000000000e+00 1886740808
0.787936 -0.319383 -0.705942 0.000000000000000e+00 1886740808
0.744297 -0.394948 -0.713322 0.000000000000000e+00 1886740808
0.744297 -0.445763 -0.739802 0.000000000000000e+00 1886740808
0.799154 -0.277139 -0.705943 0.000000000000000e+00 1886740808
0.774338 -0.313684 -0.705943 0.000000000000000e+00 1886740808
0.744297 -0.395159 -0.726290 0.000000000000000e+00 1886740808
0.744297 -0.446221 -0.753515 0.000000000000000e+00 1886740808
0.785611 -0.272084 -0.705943 0.000000000000000e+00 1886740808
0.761015 -0.308099 -0.705943 0.000000000000000e+00 1886740808
0.744297 -0.395373 -0.739458 0.000000000000000e+00 1886740808
0.744297 -0.446686 -0.767449 0.000000000000000e+00 1886740808
0.772335 -0.267127 -0.705943 0.000000000000000e+00 1886740808
0.747955 -0.302626 -0.705942 0.000000000000000e+00 1886740808
0.744297 -0.395590 -0.752835 0.000000000000000e+00 1886740808
0.744297 -0.447159 -0.781612 0.000000000000000e+00 1886740808
0.759316 -0.262267 -0.705943 0.000000000000000e+00 1886740808
0.744297 -0.300957 -0.714726 0.000000000000000e+00 1886740808
0.744297 -0.395811 -0.766428 0.000000000000000e+00 1886740808
0.744297 -0.447640 -0.796011 0.000000000000000e+00 1886740808
0.746545 -0.257499 -0.705943 0.000000000000000e+00 1886740808
0.744297 -0.300766 -0.727151 0.000000000000000e+00 1886740808
0.744297 -0.396035 -0.780243 0.000000000000000e+00 1886740808
2.092195 -1.259679 -2.278729 0.000000000000000e+00 1634890835
0.744297 -0.256362 -0.715833 0.000000000000000e+00 1886740808
0.744297 -0.300571 -0.739769 0.000000000000000e+00 1886740808
0.744297 -0.396264 -0.794289 0.000000000000000e+00 1886740808
2.054436 -1.238320 -2.278729 0.000000000000000e+00 1634890835
0.744297 -0.255996 -0.728034 0.000000000000000e+00 1886740808
0.744297 -0.300374 -0.752587 0.000000000000000e+00 1886740808
2.097581 -1.117406 -2.278729 0.000000000000000e+00 1634890835
2.017384 -1.217362 -2.278729 0.000000000000000e+00 1634890835
0.744297 -0.255624 -0.740426 0.000000000000000e+00 1886740808
0.744297 -0.300173 -0.765613 0.000000000000000e+00 1886740808
2.060546 -1.098332 -2.278729 0.000000000000000e+00 1634890835
0.796276 -0.481053 -0.915943 0.000000000000000e+00 1886740808
0.744297 -0.255247 -0.753015 0.000000000000000e+00 1886740808
0.744297 -0.299970 -0.778852 0.000000000000000e+00 1886740808
2.024179 -1.079600 -2.278729 0.000000000000000e+00 1634890835
0.784637 -0.474577 -0.919124 0.000000000000000e+00 1886740808
0.744297 -0.254863 -0.765808 0.000000000000000e+00 1886740808
0.744297 -0.299762 -0.792313 0.000000000000000e+00 1886740808
1.988455 -1.061200 -2.278729 0.000000000000000e+00 1634890835
0.775674 -0.469714 -0.925310 0.000000000000000e+00 1886740808
0.744297 -0.254473 -0.778812 0.000000000000000e+00 1886740808
2.104274 -0.846892 -2.278729 0.000000000000000e+00 1634890835
0.797389 -0.425818 -0.930214 0.000000000000000e+00 1886740808
0.768824 -0.466130 -0.933991 0.000000000000000e+00 1886740808
0.744297 -0.254077 -0.792033 0.000000000000000e+00 1886740808
2.068532 -0.831913 -2.278729 0.000000000000000e+00 1634890835
0.785519 -0.419748 -0.932845 0.000000000000000e+00 1886740808
0.764551 -0.464112 -0.945880 0.000000000000000e+00 1886740808
0.744297 -0.253674 -0.805480 0.000000000000000e+00 1886740808
2.033386 -0.817182 -2.278729 0.000000000000000e+00 1634890835
0.776432 -0.415161 -0.938649 0.000000000000000e+00 1886740808
1.808583 -1.099260 -2.278729 0.000000000000000e+00 1634890835
2.070474 -0.704527 -2.278729 0.000000000000000e+00 1634890835
1.998816 -0.802692 -2.278729 0.000000000000000e+00 1634890835
0.769418 -0.411685 -0.946932 0.000000000000000e+00 1886740808
1.775832 -1.080736 -2.278729 0.000000000000000e+00 1634890835
2.035874 -0.691613 -2.278729 0.000000000000000e+00 1634890835
1.964802 -0.788436 -2.278729 0.000000000000000e+00 1634890835
0.764806 -0.409492 -0.958245 0.000000000000000e+00 1886740808
0.749057 -0.456456 -0.978943 0.000000000000000e+00 1886740808
2.001820 -0.678902 -2.278729 0.000000000000000e+00 1634890835
1.931326 -0.774406 -2.278729 0.000000000000000e+00 1634890835
0.767171 -0.411041 -0.978589 0.000000000000000e+00 1886740808
1.711909 -1.044582 -2.278729 0.000000000000000e+00 1634890835
1.968295 -0.666389 -2.278729 0.000000000000000e+00 1634890835
0.797682 -0.319597 -0.957507 0.000000000000000e+00 1886740808
1.754624 -0.940769 -2.278729 0.000000000000000e+00 1634890835
1.680702 -1.026933 -2.278729 0.000000000000000e+00 1634890835
1.935282 -0.654068 -2.278729 0.000000000000000e+00 1634890835
0.785812 -0.314588 -0.959662 0.000000000000000e+00 1886740808
0.751063 -0.402982 -0.993126 0.000000000000000e+00 1886740808
1.649977 -1.009556 -2.278729 0.000000000000000e+00 1634890835
1.902764 -0.641933 -2.278729 0.000000000000000e+00 1634890835
0.776732 -0.310699 -0.965106 0.000000000000000e+00 1886740808
1.692479 -0.908760 -2.278729 0.000000000000000e+00 1634890835
1.619718 -0.992443 -2.278729 0.000000000000000e+00 1634890835
0.796758 -0.268312 -0.970531 0.000000000000000e+00 1886740808
0.769656 -0.307612 -0.973023 0.000000000000000e+00 1886740808
1.662099 -0.893114 -2.278729 0.000000000000000e+00 1634890835
1.589908 -0.975585 -2.278729 0.000000000000000e+00 1634890835
0.785169 -0.263918 -0.972833 0.000000000000000e+00 1886740808
0.764880 -0.305443 -0.983925 0.000000000000000e+00 1886740808
1.632163 -0.877696 -2.278729 0.000000000000000e+00 1634890835
1.560535 -0.958974 -2.278729 0.000000000000000e+00 1634890835
0.776223 -0.260416 -0.978304 0.000000000000000e+00 1886740808
0.765619 -0.305472 -1.002183 0.000000000000000e+00 1886740808
1.602655 -0.862499 -2.278729 0.000000000000000e+00 1634890835
1.531583 -0.942600 -2.278729 0.000000000000000e+00 1634890835
0.769283 -0.257587 -0.986298 0.000000000000000e+00 1886740808
1.710674 -0.681929 -2.278729 0.000000000000000e+00 1634890835
1.573562 -0.847514 -2.278729 0.000000000000000e+00 1634890835
1.503039 -0.926459 -2.278729 0.000000000000000e+00 1634890835
0.764662 -0.255533 -0.997357 0.000000000000000e+00 1886740808
1.680926 -0.669463 -2.278729 0.000000000000000e+00 1634890835
1.544871 -0.832738 -2.278729 0.000000000000000e+00 1634890835
1.474891 -0.910541 -2.278729 0.000000000000000e+00 1634890835
0.766225 -0.255535 -1.016771 0.000000000000000e+00 1886740808
0.744046 -0.296056 -1.026579 0.000000000000000e+00 1886740808
1.516569 -0.818162 -2.278729 0.000000000000000e+00 1634890835
1.447126 -0.894839 -2.278729 0.000000000000000e+00 1634890835
1.687760 -0.561696 -2.278729 0.000000000000000e+00 1634890835
1.622625 -0.645029 -2.278729 0.000000000000000e+00 1634890835
1.488644 -0.803779 -2.278729 0.000000000000000e+00 1634890835
1.419729 -0.879348 -2.278729 0.000000000000000e+00 1634890835
0.752069 -0.249761 -1.033206 0.000000000000000e+00 1886740808
1.594048 -0.633053 -2.278729 0.000000000000000e+00 1634890835
1.461083 -0.789588 -2.278729 0.000000000000000e+00 1634890835
1.392693 -0.864061 -2.278729 0.000000000000000e+00 1634890835
1.629984 -0.540138 -2.278729 0.000000000000000e+00 1634890835
1.565839 -0.621229 -2.278729 0.000000000000000e+00 1634890835
1.433879 -0.775576 -2.278729 0.000000000000000e+00 1634890835
1.366006 -0.848969 -2.278729 0.000000000000000e+00 1634890835
1.601643 -0.529564 -2.278729 0.000000000000000e+00 1634890835
1.537983 -0.609556 -2.278729 0.000000000000000e+00 1634890835
1.407016 -0.761741 -2.278729 0.000000000000000e+00 1634890835
1.339655 -0.834068 -2.278729 0.000000000000000e+00 1634890835
1.573653 -0.519120 -2.278729 0.000000000000000e+00 1634890835
1.510472 -0.598027 -2.278729 0.000000000000000e+00 1634890835
1.380486 -0.748078 -2.278729 0.000000000000000e+00 1634890835
1.313629 -0.819352 -2.278729 0.000000000000000e+00 1634890835
1.546006 -0.508803 -2.278729 0.000000000000000e+00 1634890835
1.483296 -0.586637 -2.278729 0.000000000000000e+00 1634890835
1.354278 -0.734581 -2.278729 0.000000000000000e+00 1634890835
1.287922 -0.804816 -2.278729 0.000000000000000e+00 1634890835
1.518687 -0.498610 -2.278729 0.000000000000000e+00 1634890835
1.456445 -0.575383 -2.278729 0.000000000000000e+00 1634890835
1.328384 -0.721245 -2.278729 0.000000000000000e+00 1634890835
1.262521 -0.790453 -2.278729 0.000000000000000e+00 1634890835
1.491690 -0.488535 -2.278729 0.000000000000000e+00 1634890835
1.429908 -0.564262 -2.278729 0.000000000000000e+00 1634890835
1.302792 -0.708065 -2.278729 0.000000000000000e+00 1634890835
1.237418 -0.776259 -2.278729 0.000000000000000e+00 1634890835
1.465002 -0.478579 -2.278729 0.000000000000000e+00 1634890835
1.403675 -0.553269 -2.278729 0.000000000000000e+00 1634890835
1.277494 -0.695036 -2.278729 0.000000000000000e+00 1634890835
1.212602 -0.762228 -2.278729 0.000000000000000e+00 1634890835
1.438617 -0.468735 -2.278729 0.000000000000000e+00 1634890835
1.377739 -0.542400 -2.278729 0.000000000000000e+00 1634890835
1.252481 -0.682154 -2.278729 0.000000000000000e+00 1634890835
1.188067 -0.748354 -2.278729 0.000000000000000e+00 1634890835
1.412524 -0.458999 -2.278729 0.000000000000000e+00 1634890835
1.352089 -0.531650 -2.278729 0.000000000000000e+00 1634890835
1.227744 -0.669414 -2.278729 0.000000000000000e+00 1634890835
1.163802 -0.734635 -2.278729 0.000000000000000e+00 1634890835
1.386715 -0.449371 -2.278729 0.000000000000000e+00 1634890835
1.326718 -0.521018 -2.278729 0.000000000000000e+00 1634890835
1.203276 -0.656814 -2.278729 0.000000000000000e+00 1634890835
1.139800 -0.721065 -2.278729 0.000000000000000e+00 1634890835
1.361182 -0.439845 -2.278729 0.000000000000000e+00 1634890835
1.301618 -0.510498 -2.278729 0.000000000000000e+00 1634890835
1.179067 -0.644346 -2.278729 0.000000000000000e+00 1634890835
1.116053 -0.707639 -2.278729 0.000000000000000e+00 1634890835
1.335916 -0.430417 -2.278729 0.000000000000000e+00 1634890835
1.276780 -0.500089 -2.278729 0.000000000000000e+00 1634890835
1.155111 -0.632010 -2.278729 0.000000000000000e+00 1634890835
1.092554 -0.694351 -2.278729 0.000000000000000e+00 1634890835
1.310910 -0.421088 -2.278729 0.000000000000000e+00 1634890835
1.252197 -0.489786 -2.278729 0.000000000000000e+00 1634890835
1.131399 -0.619797 -2.278729 0.000000000000000e+00 1634890835
1.069294 -0.681201 -2.278729 0.000000000000000e+00 1634890835
1.286157 -0.411854 -2.278729 0.000000000000000e+00 1634890835
1.227861 -0.479588 -2.278729 0.000000000000000e+00 1634890835
1.107925 -0.607708 -2.278729 0.000000000000000e+00 1634890835
1.046266 -0.668182 -2.278728 0.000000000000000e+00 1634890835
1.261649 -0.402711 -2.278729 0.000000000000000e+00 1634890835
1.203765 -0.469490 -2.278729 0.000000000000000e+00 1634890835
1.084681 -0.595737 -2.278729 0.000000000000000e+00 1634890835
1.023465 -0.655290 -2.278728 0.000000000000000e+00 1634890835
1.237377 -0.393657 -2.278729 0.000000000000000e+00 1634890835
1.179901 -0.459490 -2.278729 0.000000000000000e+00 1634890835
1.061659 -0.583882 -2.278728 0.000000000000000e+00 1634890835
1.000881 -0.642522 -2.278728 0.000000000000000e+00 1634890835
1.213338 -0.384688 -2.278729 0.000000000000000e+00 1634890835
1.156263 -0.449585 -2.278729 0.000000000000000e+00 1634890835
1.038855 -0.572138 -2.278728 0.000000000000000e+00 1634890835
0.978511 -0.629874 -2.278729 0.000000000000000e+00 1634890835
1.189522 -0.375803 -2.278729 0.000000000000000e+00 1634890835
1.132845 -0.439771 -2.278729 0.000000000000000e+00 1634890835
1.016261 -0.560502 -2.278728 0.000000000000000e+00 1634890835
0.956344 -0.617344 -2.278728 0.000000000000000e+00 1634890835
1.165921 -0.366999 -2.278729 0.000000000000000e+00 1634890835
1.109638 -0.430046 -2.278729 0.000000000000000e+00 1634890835
0.993869 -0.548971 -2.278728 0.000000000000000e+00 1634890835
0.934377 -0.604924 -2.278728 0.000000000000000e+00 1634890835
1.142534 -0.358274 -2.278729 0.000000000000000e+00 1634890835
1.086639 -0.420407 -2.278729 0.000000000000000e+00 1634890835
0.971677 -0.537542 -2.278728 0.000000000000000e+00 1634890835
0.912605 -0.592614 -2.278728 0.000000000000000e+00 1634890835
1.119350 -0.349626 -2.278729 0.000000000000000e+00 1634890835
1.063839 -0.410853 -2.278728 0.000000000000000e+00 1634890835
0.949675 -0.526211 -2.278728 0.000000000000000e+00 1634890835
0.891018 -0.580411 -2.278728 0.000000000000000e+00 1634890835
1.096365 -0.341051 -2.278729 0.000000000000000e+00 1634890835
1.041234 -0.401380 -2.278728 0.000000000000000e+00 1634890835
0.927859 -0.514976 -2.278728 0.000000000000000e+00 1634890835
0.869613 -0.568310 -2.278728 0.000000000000000e+00 1634890835
1.073572 -0.332550 -2.278729 0.000000000000000e+00 1634890835
1.018817 -0.391985 -2.278728 0.000000000000000e+00 1634890835
0.906223 -0.503835 -2.278728 0.000000000000000e+00 1634890835
0.848385 -0.556308 -2.278728 0.000000000000000e+00 1634890835
1.050967 -0.324117 -2.278728 0.000000000000000e+00 1634890835
0.996583 -0.382669 -2.278728 0.000000000000000e+00 1634890835
0.884762 -0.492782 -2.278728 0.000000000000000e+00 1634890835
0.827327 -0.544404 -2.278728 0.000000000000000e+00 1634890835
1.028543 -0.315752 -2.278728 0.000000000000000e+00 1634890835
0.974527 -0.373425 -2.278728 0.000000000000000e+00 1634890835
0.863470 -0.481817 -2.278728 0.000000000000000e+00 1634890835
0.451009 -0.297860 -1.274410 0.000000000000000e+00 1936876886
1.006295 -0.307453 -2.278728 0.000000000000000e+00 1634890835
0.952642 -0.364254 -2.278728 0.000000000000000e+00 1634890835
0.842341 -0.470937 -2.278728 0.000000000000000e+00 1634890835
0.433312 -0.287260 -1.256712 0.000000000000000e+00 1936876886
0.984218 -0.299218 -2.278728 0.000000000000000e+00 1634890835
0.930923 -0.355153 -2.278728 0.000000000000000e+00 1634890835
0.821371 -0.460138 -2.278728 0.000000000000000e+00 1634890835
0.421236 -0.280360 -1.254547 0.000000000000000e+00 1936876886
0.962306 -0.291044 -2.278728 0.000000000000000e+00 1634890835
0.909367 -0.346119 -2.278728 0.000000000000000e+00 1634890835
0.445940 -0.250343 -1.269341 0.000000000000000e+00 1936876886
0.335124 -0.223969 -1.025462 0.000000000000000e+00 1953264973
0.940554 -0.282931 -2.278728 0.000000000000000e+00 1634890835
0.887966 -0.337151 -2.278728 0.000000000000000e+00 1634890835
0.428905 -0.241307 -1.253204 0.000000000000000e+00 1936876886
0.306469 -0.205702 -0.964035 0.000000000000000e+00 1953264973
0.495093 -0.148090 -1.227675 0.000000000000000e+00 1936876886
0.866717 -0.328247 -2.278728 0.000000000000000e+00 1634890835
0.358551 -0.202186 -1.075950 0.000000000000000e+00 1953264973
0.281220 -0.189606 -0.909910 0.000000000000000e+00 1953264973
0.483539 -0.143780 -1.227675 0.000000000000000e+00 1936876886
0.845616 -0.319403 -2.278728 0.000000000000000e+00 1634890835
0.326691 -0.184662 -1.007385 0.000000000000000e+00 1953264973
0.258799 -0.175314 -0.861848 0.000000000000000e+00 1953264973
0.472064 -0.139500 -1.227675 0.000000000000000e+00 1936876886
0.824656 -0.310620 -2.278729 0.000000000000000e+00 1634890835
0.299051 -0.169462 -0.948134 0.000000000000000e+00 1953264973
0.238753 -0.162535 -0.818877 0.000000000000000e+00 1953264973
