# .PCD v0.7 - Point Cloud Data file format
VERSION 0.7
FIELDS x y z rgb label
SIZE 4 4 4 4 4
TYPE F F F F U
COUNT 1 1 1 1 1
WIDTH 539
HEIGHT 1
VIEWPOINT 0 0 0 1 0 0 0
POINTS 539
DATA ascii
40.759930 -17.250019 10.275721 0.000000000000000e+00 1954047316
40.763229 -17.245089 9.874521 0.000000000000000e+00 1954047316
38.087322 -21.241785 9.985924 0.000000000000000e+00 1954047316
32.362873 -12.032011 -2.056149 0.000000000000000e+00 1851878480
31.764755 -13.287041 -1.936451 0.000000000000000e+00 1851878480
29.102222 -15.018067 -1.573712 0.000000000000000e+00 1851878480
27.744354 -15.752269 -1.377772 0.000000000000000e+00 1851878480
29.023201 -10.782191 -2.107631 0.000000000000000e+00 1851878480
28.100428 -11.750175 -1.976134 0.000000000000000e+00 1851878480
26.719421 -13.792711 -1.711554 0.000000000000000e+00 1851878480
25.870781 -14.697187 -1.551922 0.000000000000000e+00 1851878480
26.502241 -9.838167 -2.165542 0.000000000000000e+00 1851878480
26.046072 -10.887315 -2.075738 0.000000000000000e+00 1851878480
25.052094 -12.936031 -1.855094 0.000000000000000e+00 1851878480
24.604164 -13.985861 -1.730384 0.000000000000000e+00 1851878480
24.211477 -8.980959 -2.198745 0.000000000000000e+00 1851878480
24.419014 -10.203617 -2.175161 0.000000000000000e+00 1851878480
23.708191 -12.245874 -1.992810 0.000000000000000e+00 1851878480
23.462618 -13.344863 -1.893092 0.000000000000000e+00 1851878480
22.232994 -8.240784 -2.221686 0.000000000000000e+00 1851878480
22.450094 -9.377604 -2.210659 0.000000000000000e+00 1851878480
22.172579 -11.456259 -2.085926 0.000000000000000e+00 1851878480
21.906256 -12.467022 -1.994751 0.000000000000000e+00 1851878480
20.484327 -7.586844 -2.233870 0.000000000000000e+00 1851878480
20.647903 -8.621768 -2.227427 0.000000000000000e+00 1851878480
20.729073 -10.713738 -2.158191 0.000000000000000e+00 1851878480
20.447742 -11.643877 -2.074416 0.000000000000000e+00 1851878480
18.929657 -7.005679 -2.237327 0.000000000000000e+00 1851878480
19.020029 -7.939230 -2.231018 0.000000000000000e+00 1851878480
19.357893 -10.008171 -2.210084 0.000000000000000e+00 1851878480
19.062313 -10.861392 -2.132330 0.000000000000000e+00 1851878480
17.577671 -6.500338 -2.238439 0.000000000000000e+00 1851878480
17.625824 -7.354669 -2.233833 0.000000000000000e+00 1851878480
17.817318 -9.214556 -2.213711 0.000000000000000e+00 1851878480
17.839981 -10.170979 -2.181726 0.000000000000000e+00 1851878480
16.396904 -6.059031 -2.238439 0.000000000000000e+00 1851878480
16.435875 -6.855719 -2.238439 0.000000000000000e+00 1851878480
16.516912 -8.544702 -2.218907 0.000000000000000e+00 1851878480
16.606152 -9.473193 -2.204483 0.000000000000000e+00 1851878480
15.362933 -5.672596 -2.238439 0.000000000000000e+00 1851878480
15.366807 -6.407510 -2.238440 0.000000000000000e+00 1851878480
15.377769 -7.957878 -2.221486 0.000000000000000e+00 1851878480
15.412000 -8.797230 -2.207503 0.000000000000000e+00 1851878480
14.449854 -5.331332 -2.238439 0.000000000000000e+00 1851878480
14.426395 -6.013245 -2.238439 0.000000000000000e+00 1851878480
14.430017 -7.469769 -2.230950 0.000000000000000e+00 1851878480
14.421700 -8.236895 -2.217213 0.000000000000000e+00 1851878480
13.637508 -5.027730 -2.238438 0.000000000000000e+00 1851878480
13.592610 -5.663691 -2.238439 0.000000000000000e+00 1851878480
13.584816 -7.034466 -2.238439 0.000000000000000e+00 1851878480
13.566236 -7.752954 -2.228647 0.000000000000000e+00 1851878480
12.910004 -4.755835 -2.238438 0.000000000000000e+00 1851878480
12.848187 -5.351590 -2.238438 0.000000000000000e+00 1851878480
12.793028 -6.626554 -2.238437 0.000000000000000e+00 1851878480
12.802255 -7.320755 -2.238438 0.000000000000000e+00 1851878480
7.000535 -2.576877 -1.278725 1.880790849211783e-38 1684957512
6.957567 -2.896965 -1.278724 1.880790849211783e-38 1684957512
12.086511 -6.262576 -2.238438 0.000000000000000e+00 1851878480
12.070440 -6.906456 -2.238439 0.000000000000000e+00 1851878480
6.661458 -2.450153 -1.278724 1.880790849211783e-38 1684957512
6.612412 -2.752260 -1.278724 1.880790849211783e-38 1684957512
6.542107 -3.390841 -1.278724 1.880790849211783e-38 1684957512
11.415787 -6.535828 -2.238438 0.000000000000000e+00 1851878480
6.352879 -2.334826 -1.278724 1.880790849211783e-38 1684957512
6.299005 -2.620864 -1.278724 1.880790849211783e-38 1684957512
6.214853 -3.222246 -1.278725 1.880790849211783e-38 1684957512
10.826604 -6.202273 -2.238439 0.000000000000000e+00 1851878480
6.070825 -2.229414 -1.278724 1.880790849211783e-38 1684957512
6.013122 -2.501009 -1.278725 1.880790849211783e-38 1684957512
5.917823 -3.069223 -1.278724 1.880790849211783e-38 1684957512
5.880210 -3.370671 -1.278725 1.880790849211783e-38 1684957512
5.811969 -2.132674 -1.278724 1.880790849211783e-38 1684957512
5.751238 -2.391216 -1.278724 1.880790849211783e-38 1684957512
5.646965 -2.929688 -1.278724 1.880790849211783e-38 1684957512
5.603245 -3.213875 -1.278724 1.880790849211783e-38 1684957512
5.573544 -2.043569 -1.278724 1.880790849211783e-38 1684957512
5.510437 -2.290263 -1.278724 1.880790849211783e-38 1684957512
5.398946 -2.801915 -1.278724 1.880790849211783e-38 1684957512
5.350267 -3.070659 -1.278725 1.880790849211783e-38 1684957512
5.353185 -1.961217 -1.278724 1.880790849211783e-38 1684957512
5.288229 -2.197105 -1.278725 1.880790849211783e-38 1684957512
5.170953 -2.684459 -1.278724 1.880790849211783e-38 1684957512
5.118248 -2.939310 -1.278725 1.880790849211783e-38 1684957512
5.148886 -1.884866 -1.278724 1.880790849211783e-38 1684957512
5.105875 -2.120562 -1.284601 1.880790849211783e-38 1684957512
5.105875 -2.651533 -1.316167 1.880790849211783e-38 1684957512
5.105875 -2.934018 -1.331186 1.880790849211783e-38 1684957512
5.105875 -1.867630 -1.316618 1.880790849211783e-38 1684957512
5.105875 -2.119782 -1.334767 1.880790849211783e-38 1684957512
5.105875 -2.652397 -1.369928 1.880790849211783e-38 1684957512
5.105875 -2.935844 -1.386984 1.880790849211783e-38 1684957512
5.105876 -1.866132 -1.365383 1.880790849211783e-38 1684957512
5.105875 -2.118997 -1.385135 1.880790849211783e-38 1684957512
5.105875 -2.653267 -1.423924 1.880790849211783e-38 1684957512
5.105875 -2.937680 -1.443036 1.880790849211783e-38 1684957512
5.105876 -1.864626 -1.414346 1.880790849211783e-38 1684957512
5.105876 -2.118211 -1.435717 1.880790849211783e-38 1684957512
5.105876 -2.654136 -1.478167 1.880790849211783e-38 1684957512
5.105875 -2.939522 -1.499355 1.880790849211783e-38 1684957512
5.105875 -1.863113 -1.463513 1.880790849211783e-38 1684957512
5.105875 -2.117420 -1.486517 1.880790849211783e-38 1684957512
5.105875 -2.655013 -1.532664 1.880790849211783e-38 1684957512
5.105875 -2.941375 -1.555950 1.880790849211783e-38 1684957512
5.105875 -1.861598 -1.512895 1.880790849211783e-38 1684957512
5.105876 -2.116625 -1.537547 1.880790849211783e-38 1684957512
5.105875 -2.655894 -1.587426 1.880790849211783e-38 1684957512
5.105875 -2.943242 -1.612832 1.880790849211783e-38 1684957512
5.105876 -1.860075 -1.562500 1.880790849211783e-38 1684957512
5.105876 -2.115828 -1.588815 1.880790849211783e-38 1684957512
5.105875 -2.656778 -1.642464 1.880790849211783e-38 1684957512
5.105875 -2.945112 -1.670012 1.880790849211783e-38 1684957512
5.105875 -1.858550 -1.612339 1.880790849211783e-38 1684957512
5.105876 -2.115027 -1.640333 1.880790849211783e-38 1684957512
5.105875 -2.657668 -1.697791 1.880790849211783e-38 1684957512
5.105876 -2.947000 -1.727506 1.880790849211783e-38 1684957512
5.105875 -1.857013 -1.662417 1.880790849211783e-38 1684957512
5.105875 -2.114220 -1.692106 1.880790849211783e-38 1684957512
5.105875 -2.658562 -1.753414 1.880790849211783e-38 1684957512
5.105875 -2.948896 -1.785319 1.880790849211783e-38 1684957512
5.105875 -1.855469 -1.712745 1.880790849211783e-38 1684957512
5.105875 -2.113411 -1.744148 1.880790849211783e-38 1684957512
5.105875 -2.659466 -1.809347 1.880790849211783e-38 1684957512
5.105875 -2.950804 -1.843467 1.880790849211783e-38 1684957512
5.105875 -1.853920 -1.763333 1.880790849211783e-38 1684957512
5.105875 -2.112597 -1.796466 1.880790849211783e-38 1684957512
5.105875 -2.660370 -1.865600 1.880790849211783e-38 1684957512
5.105876 -2.952727 -1.901961 1.880790849211783e-38 1684957512
5.105875 -1.852364 -1.814190 1.880790849211783e-38 1684957512
5.105876 -2.111781 -1.849073 1.880790849211783e-38 1684957512
5.105876 -2.661282 -1.922185 1.880790849211783e-38 1684957512
5.105875 -2.954660 -1.960814 1.880790849211783e-38 1684957512
5.105875 -1.850799 -1.865327 1.880790849211783e-38 1684957512
5.105876 -2.110956 -1.901977 1.880790849211783e-38 1684957512
5.105875 -2.662197 -1.979114 1.880790849211783e-38 1684957512
5.105875 -2.956606 -2.020040 1.880790849211783e-38 1684957512
5.105875 -1.849226 -1.916750 1.880790849211783e-38 1684957512
5.105876 -2.110131 -1.955189 1.880790849211783e-38 1684957512
5.105875 -2.663121 -2.036398 1.880790849211783e-38 1684957512
5.105875 -2.958563 -2.079649 1.880790849211783e-38 1684957512
5.105875 -1.847646 -1.968472 1.880790849211783e-38 1684957512
5.105875 -2.109299 -2.008720 1.880790849211783e-38 1684957512
5.105875 -2.664049 -2.094051 1.880790849211783e-38 1684957512
5.105875 -2.960539 -2.139657 1.880790849211783e-38 1684957512
5.105875 -1.846055 -2.020503 1.880790849211783e-38 1684957512
5.105875 -2.108462 -2.062580 1.880790849211783e-38 1684957512
5.105875 -2.664985 -2.152085 1.880790849211783e-38 1684957512
5.105876 -2.962526 -2.200077 1.880790849211783e-38 1684957512
5.105875 -1.844455 -2.072851 1.880790849211783e-38 1684957512
5.105876 -2.107619 -2.116781 1.880790849211783e-38 1684957512
5.105876 -2.665926 -2.210512 1.880790849211783e-38 1684957512
5.055103 -2.935052 -2.238439 0.000000000000000e+00 1851878480
5.105875 -1.842848 -2.125532 1.880790849211783e-38 1684957512
5.105875 -2.106775 -2.171337 1.880790849211783e-38 1684957512
5.036334 -2.630553 -2.238439 0.000000000000000e+00 1851878480
4.921690 -2.859537 -2.238439 0.000000000000000e+00 1851878480
5.105875 -1.841229 -2.178552 1.880790849211783e-38 1684957512
5.105875 -2.105922 -2.226254 1.880790849211783e-38 1684957512
4.908177 -2.564533 -2.238439 0.000000000000000e+00 1851878480
4.794228 -2.787391 -2.238439 0.000000000000000e+00 1851878480
5.105875 -1.839601 -2.231924 1.880790849211783e-38 1684957512
5.009401 -2.065290 -2.238439 0.000000000000000e+00 1851878480
4.785510 -2.501342 -2.238439 0.000000000000000e+00 1851878480
4.672305 -2.718378 -2.238439 0.000000000000000e+00 1851878480
5.000392 -1.799993 -2.238439 0.000000000000000e+00 1851878480
4.890058 -2.015259 -2.238439 0.000000000000000e+00 1851878480
4.667971 -2.440789 -2.238439 0.000000000000000e+00 1851878480
4.555547 -2.652293 -2.238439 0.000000000000000e+00 1851878480
4.884751 -1.756790 -2.238439 0.000000000000000e+00 1851878480
4.775469 -1.967223 -2.238439 0.000000000000000e+00 1851878480
4.555226 -2.382711 -2.238439 0.000000000000000e+00 1851878480
4.443618 -2.588941 -2.238439 0.000000000000000e+00 1851878480
4.773567 -1.715248 -2.238439 0.000000000000000e+00 1851878480
4.665338 -1.921055 -2.238439 0.000000000000000e+00 1851878480
4.446969 -2.326942 -2.238439 0.000000000000000e+00 1851878480
4.336203 -2.528144 -2.238439 0.000000000000000e+00 1851878480
4.666573 -1.675276 -2.238439 0.000000000000000e+00 1851878480
4.559398 -1.876643 -2.238439 0.000000000000000e+00 1851878480
4.342926 -2.273347 -2.238439 0.000000000000000e+00 1851878480
4.233025 -2.469746 -2.238439 0.000000000000000e+00 1851878480
4.563521 -1.636775 -2.238439 0.000000000000000e+00 1851878480
4.457398 -1.833884 -2.238439 0.000000000000000e+00 1851878480
4.242840 -2.221789 -2.238439 0.000000000000000e+00 1851878480
4.133821 -2.413599 -2.238439 0.000000000000000e+00 1851878480
4.464179 -1.599665 -2.238439 0.000000000000000e+00 1851878480
4.359106 -1.792679 -2.238439 0.000000000000000e+00 1851878480
4.146472 -2.172144 -2.238439 0.000000000000000e+00 1851878480
4.038347 -2.359564 -2.238439 0.000000000000000e+00 1851878480
4.368339 -1.563859 -2.238438 0.000000000000000e+00 1851878480
4.264310 -1.752939 -2.238439 0.000000000000000e+00 1851878480
4.053604 -2.124305 -2.238439 0.000000000000000e+00 1851878480
3.946382 -2.307513 -2.238439 0.000000000000000e+00 1851878480
4.275807 -1.529294 -2.238439 0.000000000000000e+00 1851878480
4.172815 -1.714584 -2.238438 0.000000000000000e+00 1851878480
3.964038 -2.078168 -2.238439 0.000000000000000e+00 1851878480
3.857728 -2.257340 -2.238439 0.000000000000000e+00 1851878480
4.186403 -1.495893 -2.238439 0.000000000000000e+00 1851878480
4.084439 -1.677536 -2.238439 0.000000000000000e+00 1851878480
3.877586 -2.033633 -2.238438 0.000000000000000e+00 1851878480
3.772192 -2.208930 -2.238439 0.000000000000000e+00 1851878480
4.099955 -1.463601 -2.238438 0.000000000000000e+00 1851878480
3.999009 -1.641725 -2.238438 0.000000000000000e+00 1851878480
3.794077 -1.990616 -2.238439 0.000000000000000e+00 1851878480
3.689600 -2.162189 -2.238439 0.000000000000000e+00 1851878480
4.016310 -1.432355 -2.238439 0.000000000000000e+00 1851878480
3.916372 -1.607084 -2.238438 0.000000000000000e+00 1851878480
3.713350 -1.949031 -2.238439 0.000000000000000e+00 1851878480
3.609791 -2.117022 -2.238439 0.000000000000000e+00 1851878480
4.006151 -1.427338 -2.278728 0.000000000000000e+00 1634890835
3.836381 -1.573551 -2.238439 0.000000000000000e+00 1851878480
3.635255 -1.908803 -2.238438 0.000000000000000e+00 1851878480
3.532614 -2.073345 -2.238439 0.000000000000000e+00 1851878480
3.926265 -1.397497 -2.278728 0.000000000000000e+00 1634890835
3.758895 -1.541070 -2.238439 0.000000000000000e+00 1851878480
3.559655 -1.869858 -2.238439 0.000000000000000e+00 1851878480
3.457927 -2.031078 -2.238439 0.000000000000000e+00 1851878480
3.848819 -1.368569 -2.278728 0.000000000000000e+00 1634890835
3.683793 -1.509588 -2.238438 0.000000000000000e+00 1851878480
3.486423 -1.832135 -2.238439 0.000000000000000e+00 1851878480
3.385603 -1.990150 -2.238439 0.000000000000000e+00 1851878480
3.773688 -1.340507 -2.278728 0.000000000000000e+00 1634890835
3.610952 -1.479055 -2.238439 0.000000000000000e+00 1851878480
3.415433 -1.795569 -2.238438 0.000000000000000e+00 1851878480
3.315520 -1.950490 -2.238438 0.000000000000000e+00 1851878480
3.700759 -1.313267 -2.278728 0.000000000000000e+00 1634890835
3.540262 -1.449424 -2.238438 0.000000000000000e+00 1851878480
3.346581 -1.760102 -2.238439 0.000000000000000e+00 1851878480
3.247564 -1.912037 -2.238438 0.000000000000000e+00 1851878480
3.629925 -1.286811 -2.278728 0.000000000000000e+00 1634890835
3.471620 -1.420648 -2.238438 0.000000000000000e+00 1851878480
3.279753 -1.725677 -2.238438 0.000000000000000e+00 1851878480
3.181630 -1.874723 -2.238438 0.000000000000000e+00 1851878480
3.561092 -1.261101 -2.278728 0.000000000000000e+00 1634890835
3.466213 -1.417760 -2.278728 0.000000000000000e+00 1634890835
3.214858 -1.692249 -2.238439 0.000000000000000e+00 1851878480
3.117620 -1.838502 -2.238439 0.000000000000000e+00 1851878480
3.494164 -1.236102 -2.278728 0.000000000000000e+00 1634890835
3.400214 -1.390092 -2.278728 0.000000000000000e+00 1634890835
3.151802 -1.659767 -2.238439 0.000000000000000e+00 1851878480
3.055440 -1.803316 -2.238438 0.000000000000000e+00 1851878480
3.429052 -1.211786 -2.278728 0.000000000000000e+00 1634890835
3.336018 -1.363183 -2.278728 0.000000000000000e+00 1634890835
3.090496 -1.628188 -2.238438 0.000000000000000e+00 1851878480
2.995004 -1.769118 -2.238438 0.000000000000000e+00 1851878480
3.365676 -1.188117 -2.278728 0.000000000000000e+00 1634890835
3.273545 -1.336997 -2.278728 0.000000000000000e+00 1634890835
3.030862 -1.597471 -2.238439 0.000000000000000e+00 1851878480
2.936229 -1.735861 -2.238439 0.000000000000000e+00 1851878480
3.303958 -1.165065 -2.278728 0.000000000000000e+00 1634890835
3.212715 -1.311497 -2.278728 0.000000000000000e+00 1634890835
2.972820 -1.567573 -2.238438 0.000000000000000e+00 1851878480
2.879039 -1.703499 -2.238438 0.000000000000000e+00 1851878480
3.243824 -1.142609 -2.278728 0.000000000000000e+00 1634890835
3.153458 -1.286659 -2.278728 0.000000000000000e+00 1634890835
2.916302 -1.538460 -2.238438 0.000000000000000e+00 1851878480
2.823362 -1.671995 -2.238438 0.000000000000000e+00 1851878480
3.185207 -1.120718 -2.278728 0.000000000000000e+00 1634890835
3.095705 -1.262450 -2.278728 0.000000000000000e+00 1634890835
2.861240 -1.510097 -2.238439 0.000000000000000e+00 1851878480
2.769130 -1.641311 -2.238438 0.000000000000000e+00 1851878480
3.128043 -1.099369 -2.278728 0.000000000000000e+00 1634890835
3.039390 -1.238846 -2.278728 0.000000000000000e+00 1634890835
2.807567 -1.482453 -2.238438 0.000000000000000e+00 1851878480
2.716283 -1.611408 -2.238439 0.000000000000000e+00 1851878480
3.072268 -1.078541 -2.278728 0.000000000000000e+00 1634890835
2.984453 -1.215816 -2.278728 0.000000000000000e+00 1634890835
2.755227 -1.455491 -2.238438 0.000000000000000e+00 1851878480
0.840392 -0.499001 -0.705944 0.000000000000000e+00 1886740808
3.017823 -1.058209 -2.278728 0.000000000000000e+00 1634890835
2.930833 -1.193341 -2.278728 0.000000000000000e+00 1634890835
2.704160 -1.429188 -2.238438 0.000000000000000e+00 1851878480
0.824541 -0.490031 -0.705944 0.000000000000000e+00 1886740808
2.964658 -1.038357 -2.278728 0.000000000000000e+00 1634890835
2.878479 -1.171398 -2.278728 0.000000000000000e+00 1634890835
0.837100 -0.442630 -0.705944 0.000000000000000e+00 1886740808
0.809071 -0.481279 -0.705944 0.000000000000000e+00 1886740808
2.912718 -1.018962 -2.278728 0.000000000000000e+00 1634890835
2.827337 -1.149958 -2.278725 0.000000000000000e+00 1634890835
0.821749 -0.434723 -0.705944 0.000000000000000e+00 1886740808
0.793967 -0.472734 -0.705944 0.000000000000000e+00 1886740808
2.861954 -1.000006 -2.278728 0.000000000000000e+00 1634890835
2.777361 -1.129012 -2.278725 0.000000000000000e+00 1634890835
0.806752 -0.426999 -0.705944 0.000000000000000e+00 1886740808
0.779214 -0.464387 -0.705944 0.000000000000000e+00 1886740808
2.812315 -0.981472 -2.278725 0.000000000000000e+00 1634890835
2.728503 -1.108533 -2.278726 0.000000000000000e+00 1634890835
0.792095 -0.419449 -0.705944 0.000000000000000e+00 1886740808
0.764797 -0.456231 -0.705944 0.000000000000000e+00 1886740808
2.763765 -0.963342 -2.278726 0.000000000000000e+00 1634890835
0.830480 -0.337216 -0.705944 0.000000000000000e+00 1886740808
0.777763 -0.412067 -0.705944 0.000000000000000e+00 1886740808
0.750703 -0.448257 -0.705944 0.000000000000000e+00 1886740808
0.841490 -0.292946 -0.705944 0.000000000000000e+00 1886740808
0.815995 -0.331144 -0.705944 0.000000000000000e+00 1886740808
0.763744 -0.404846 -0.705944 0.000000000000000e+00 1886740808
0.744294 -0.444867 -0.713009 0.000000000000000e+00 1886740808
0.827083 -0.287567 -0.705944 0.000000000000000e+00 1886740808
0.801818 -0.325202 -0.705944 0.000000000000000e+00 1886740808
0.750026 -0.397780 -0.705944 0.000000000000000e+00 1886740808
0.744294 -0.445311 -0.726301 0.000000000000000e+00 1886740808
0.812975 -0.282300 -0.705944 0.000000000000000e+00 1886740808
0.787937 -0.319383 -0.705944 0.000000000000000e+00 1886740808
0.744294 -0.394947 -0.713320 0.000000000000000e+00 1886740808
0.744294 -0.445761 -0.739799 0.000000000000000e+00 1886740808
0.799155 -0.277140 -0.705944 0.000000000000000e+00 1886740808
0.774339 -0.313685 -0.705944 0.000000000000000e+00 1886740808
0.744294 -0.395158 -0.726288 0.000000000000000e+00 1886740808
0.744294 -0.446219 -0.753513 0.000000000000000e+00 1886740808
0.785612 -0.272084 -0.705944 0.000000000000000e+00 1886740808
0.761016 -0.308100 -0.705944 0.000000000000000e+00 1886740808
0.744294 -0.395372 -0.739456 0.000000000000000e+00 1886740808
0.744295 -0.446685 -0.767447 0.000000000000000e+00 1886740808
0.772336 -0.267127 -0.705944 0.000000000000000e+00 1886740808
0.747956 -0.302626 -0.705944 0.000000000000000e+00 1886740808
0.744294 -0.395589 -0.752833 0.000000000000000e+00 1886740808
0.744295 -0.447158 -0.781609 0.000000000000000e+00 1886740808
0.759317 -0.262267 -0.705944 0.000000000000000e+00 1886740808
0.744294 -0.300956 -0.714724 0.000000000000000e+00 1886740808
0.744295 -0.395810 -0.766425 0.000000000000000e+00 1886740808
0.744294 -0.447639 -0.796009 0.000000000000000e+00 1886740808
0.746546 -0.257499 -0.705944 0.000000000000000e+00 1886740808
0.744294 -0.300765 -0.727149 0.000000000000000e+00 1886740808
0.744294 -0.396034 -0.780241 0.000000000000000e+00 1886740808
2.092192 -1.259678 -2.278727 0.000000000000000e+00 1634890835
0.744294 -0.256362 -0.715831 0.000000000000000e+00 1886740808
0.744294 -0.300570 -0.739767 0.000000000000000e+00 1886740808
0.744294 -0.396263 -0.794287 0.000000000000000e+00 1886740808
2.054433 -1.238319 -2.278726 0.000000000000000e+00 1634890835
0.744295 -0.255996 -0.728032 0.000000000000000e+00 1886740808
0.744294 -0.300373 -0.752585 0.000000000000000e+00 1886740808
2.097578 -1.117404 -2.278726 0.000000000000000e+00 1634890835
2.017381 -1.217360 -2.278726 0.000000000000000e+00 1634890835
0.744295 -0.255624 -0.740424 0.000000000000000e+00 1886740808
0.744294 -0.300172 -0.765610 0.000000000000000e+00 1886740808
2.060544 -1.098330 -2.278726 0.000000000000000e+00 1634890835
0.796275 -0.481053 -0.915943 0.000000000000000e+00 1886740808
0.744294 -0.255246 -0.753013 0.000000000000000e+00 1886740808
0.744295 -0.299969 -0.778850 0.000000000000000e+00 1886740808
2.024177 -1.079599 -2.278727 0.000000000000000e+00 1634890835
0.784636 -0.474577 -0.919123 0.000000000000000e+00 1886740808
0.744294 -0.254862 -0.765805 0.000000000000000e+00 1886740808
0.744295 -0.299762 -0.792310 0.000000000000000e+00 1886740808
1.988453 -1.061198 -2.278726 0.000000000000000e+00 1634890835
0.775673 -0.469713 -0.925309 0.000000000000000e+00 1886740808
0.744295 -0.254473 -0.778810 0.000000000000000e+00 1886740808
2.104271 -0.846891 -2.278726 0.000000000000000e+00 1634890835
0.797389 -0.425818 -0.930214 0.000000000000000e+00 1886740808
0.768823 -0.466130 -0.933989 0.000000000000000e+00 1886740808
0.744295 -0.254076 -0.792031 0.000000000000000e+00 1886740808
2.068529 -0.831911 -2.278726 0.000000000000000e+00 1634890835
0.785519 -0.419747 -0.932845 0.000000000000000e+00 1886740808
0.764549 -0.464111 -0.945878 0.000000000000000e+00 1886740808
0.744295 -0.253673 -0.805478 0.000000000000000e+00 1886740808
2.033383 -0.817181 -2.278726 0.000000000000000e+00 1634890835
0.776431 -0.415161 -0.938648 0.000000000000000e+00 1886740808
1.808581 -1.099258 -2.278726 0.000000000000000e+00 1634890835
2.070471 -0.704526 -2.278726 0.000000000000000e+00 1634890835
1.998813 -0.802691 -2.278726 0.000000000000000e+00 1634890835
0.769417 -0.411684 -0.946931 0.000000000000000e+00 1886740808
1.775830 -1.080734 -2.278726 0.000000000000000e+00 1634890835
2.035872 -0.691612 -2.278726 0.000000000000000e+00 1634890835
1.964800 -0.788435 -2.278727 0.000000000000000e+00 1634890835
0.764805 -0.409492 -0.958243 0.000000000000000e+00 1886740808
0.749057 -0.456456 -0.978943 0.000000000000000e+00 1886740808
2.001817 -0.678901 -2.278726 0.000000000000000e+00 1634890835
1.931323 -0.774405 -2.278726 0.000000000000000e+00 1634890835
0.767166 -0.411038 -0.978582 0.000000000000000e+00 1886740808
1.711907 -1.044581 -2.278727 0.000000000000000e+00 1634890835
1.968293 -0.666389 -2.278726 0.000000000000000e+00 1634890835
0.797682 -0.319597 -0.957507 0.000000000000000e+00 1886740808
1.754622 -0.940768 -2.278726 0.000000000000000e+00 1634890835
1.680700 -1.026932 -2.278726 0.000000000000000e+00 1634890835
1.935280 -0.654068 -2.278726 0.000000000000000e+00 1634890835
0.785811 -0.314588 -0.959661 0.000000000000000e+00 1886740808
0.751063 -0.402982 -0.993126 0.000000000000000e+00 1886740808
1.649975 -1.009555 -2.278727 0.000000000000000e+00 1634890835
1.902761 -0.641932 -2.278726 0.000000000000000e+00 1634890835
0.776731 -0.310699 -0.965105 0.000000000000000e+00 1886740808
1.692477 -0.908759 -2.278726 0.000000000000000e+00 1634890835
1.619716 -0.992442 -2.278726 0.000000000000000e+00 1634890835
0.796758 -0.268312 -0.970531 0.000000000000000e+00 1886740808
0.769655 -0.307611 -0.973021 0.000000000000000e+00 1886740808
1.662097 -0.893113 -2.278726 0.000000000000000e+00 1634890835
1.589906 -0.975583 -2.278726 0.000000000000000e+00 1634890835
0.785168 -0.263918 -0.972832 0.000000000000000e+00 1886740808
0.764880 -0.305443 -0.983925 0.000000000000000e+00 1886740808
1.632161 -0.877695 -2.278727 0.000000000000000e+00 1634890835
1.560533 -0.958973 -2.278727 0.000000000000000e+00 1634890835
0.776222 -0.260416 -0.978303 0.000000000000000e+00 1886740808
0.765616 -0.305471 -1.002179 0.000000000000000e+00 1886740808
1.602653 -0.862498 -2.278727 0.000000000000000e+00 1634890835
1.531581 -0.942599 -2.278727 0.000000000000000e+00 1634890835
0.769282 -0.257587 -0.986297 0.000000000000000e+00 1886740808
1.710671 -0.681928 -2.278726 0.000000000000000e+00 1634890835
1.573560 -0.847513 -2.278727 0.000000000000000e+00 1634890835
1.503037 -0.926458 -2.278727 0.000000000000000e+00 1634890835
0.764661 -0.255532 -0.997356 0.000000000000000e+00 1886740808
1.680925 -0.669462 -2.278726 0.000000000000000e+00 1634890835
1.544869 -0.832737 -2.278727 0.000000000000000e+00 1634890835
1.474889 -0.910540 -2.278727 0.000000000000000e+00 1634890835
0.766223 -0.255534 -1.016768 0.000000000000000e+00 1886740808
0.744043 -0.296055 -1.026575 0.000000000000000e+00 1886740808
1.516567 -0.818161 -2.278727 0.000000000000000e+00 1634890835
1.447124 -0.894838 -2.278727 0.000000000000000e+00 1634890835
1.687758 -0.561696 -2.278727 0.000000000000000e+00 1634890835
1.622623 -0.645028 -2.278727 0.000000000000000e+00 1634890835
1.488642 -0.803779 -2.278726 0.000000000000000e+00 1634890835
1.419728 -0.879347 -2.278727 0.000000000000000e+00 1634890835
0.752072 -0.249762 -1.033210 0.000000000000000e+00 1886740808
1.594047 -0.633052 -2.278727 0.000000000000000e+00 1634890835
1.461082 -0.789587 -2.278726 0.000000000000000e+00 1634890835
1.392691 -0.864060 -2.278726 0.000000000000000e+00 1634890835
1.629982 -0.540137 -2.278727 0.000000000000000e+00 1634890835
1.565837 -0.621229 -2.278726 0.000000000000000e+00 1634890835
1.433877 -0.775575 -2.278727 0.000000000000000e+00 1634890835
1.366004 -0.848968 -2.278726 0.000000000000000e+00 1634890835
1.601641 -0.529563 -2.278727 0.000000000000000e+00 1634890835
1.537981 -0.609555 -2.278726 0.000000000000000e+00 1634890835
1.407014 -0.761740 -2.278726 0.000000000000000e+00 1634890835
1.339653 -0.834067 -2.278726 0.000000000000000e+00 1634890835
1.573652 -0.519120 -2.278726 0.000000000000000e+00 1634890835
1.510470 -0.598026 -2.278727 0.000000000000000e+00 1634890835
1.380484 -0.748077 -2.278727 0.000000000000000e+00 1634890835
1.313628 -0.819351 -2.278727 0.000000000000000e+00 1634890835
1.546004 -0.508803 -2.278727 0.000000000000000e+00 1634890835
1.483295 -0.586636 -2.278727 0.000000000000000e+00 1634890835
1.354277 -0.734580 -2.278727 0.000000000000000e+00 1634890835
1.287921 -0.804815 -2.278727 0.000000000000000e+00 1634890835
1.518686 -0.498610 -2.278727 0.000000000000000e+00 1634890835
1.456443 -0.575382 -2.278727 0.000000000000000e+00 1634890835
1.328382 -0.721244 -2.278727 0.000000000000000e+00 1634890835
1.262519 -0.790452 -2.278727 0.000000000000000e+00 1634890835
1.491688 -0.488535 -2.278726 0.000000000000000e+00 1634890835
1.429906 -0.564261 -2.278727 0.000000000000000e+00 1634890835
1.302791 -0.708064 -2.278727 0.000000000000000e+00 1634890835
1.237416 -0.776258 -2.278727 0.000000000000000e+00 1634890835
1.465000 -0.478578 -2.278727 0.000000000000000e+00 1634890835
1.403673 -0.553268 -2.278727 0.000000000000000e+00 1634890835
1.277493 -0.695036 -2.278727 0.000000000000000e+00 1634890835
1.212601 -0.762228 -2.278727 0.000000000000000e+00 1634890835
1.438615 -0.468734 -2.278727 0.000000000000000e+00 1634890835
1.377737 -0.542399 -2.278727 0.000000000000000e+00 1634890835
1.252480 -0.682154 -2.278727 0.000000000000000e+00 1634890835
1.188066 -0.748354 -2.278727 0.000000000000000e+00 1634890835
1.412522 -0.458998 -2.278727 0.000000000000000e+00 1634890835
1.352087 -0.531649 -2.278726 0.000000000000000e+00 1634890835
1.227743 -0.669413 -2.278726 0.000000000000000e+00 1634890835
1.163801 -0.734634 -2.278727 0.000000000000000e+00 1634890835
1.386713 -0.449370 -2.278727 0.000000000000000e+00 1634890835
1.326717 -0.521017 -2.278726 0.000000000000000e+00 1634890835
1.203275 -0.656813 -2.278727 0.000000000000000e+00 1634890835
1.139799 -0.721064 -2.278727 0.000000000000000e+00 1634890835
1.361180 -0.439844 -2.278726 0.000000000000000e+00 1634890835
1.301617 -0.510498 -2.278727 0.000000000000000e+00 1634890835
1.179066 -0.644345 -2.278727 0.000000000000000e+00 1634890835
1.116052 -0.707638 -2.278727 0.000000000000000e+00 1634890835
1.335915 -0.430417 -2.278727 0.000000000000000e+00 1634890835
1.276779 -0.500089 -2.278727 0.000000000000000e+00 1634890835
1.155109 -0.632009 -2.278727 0.000000000000000e+00 1634890835
1.092553 -0.694350 -2.278727 0.000000000000000e+00 1634890835
1.310909 -0.421088 -2.278727 0.000000000000000e+00 1634890835
1.252195 -0.489786 -2.278727 0.000000000000000e+00 1634890835
1.131398 -0.619797 -2.278727 0.000000000000000e+00 1634890835
1.069293 -0.681200 -2.278727 0.000000000000000e+00 1634890835
1.286156 -0.411854 -2.278727 0.000000000000000e+00 1634890835
1.227860 -0.479588 -2.278727 0.000000000000000e+00 1634890835
1.107924 -0.607707 -2.278727 0.000000000000000e+00 1634890835
1.046266 -0.668181 -2.278727 0.000000000000000e+00 1634890835
1.261647 -0.402710 -2.278727 0.000000000000000e+00 1634890835
1.203764 -0.469490 -2.278727 0.000000000000000e+00 1634890835
1.084680 -0.595737 -2.278727 0.000000000000000e+00 1634890835
1.023464 -0.655289 -2.278727 0.000000000000000e+00 1634890835
1.237376 -0.393657 -2.278727 0.000000000000000e+00 1634890835
1.179899 -0.459490 -2.278727 0.000000000000000e+00 1634890835
1.061658 -0.583882 -2.278727 0.000000000000000e+00 1634890835
1.000880 -0.642521 -2.278727 0.000000000000000e+00 1634890835
1.213336 -0.384688 -2.278727 0.000000000000000e+00 1634890835
1.156262 -0.449584 -2.278727 0.000000000000000e+00 1634890835
1.038854 -0.572138 -2.278727 0.000000000000000e+00 1634890835
0.978510 -0.629874 -2.278727 0.000000000000000e+00 1634890835
1.189520 -0.375802 -2.278727 0.000000000000000e+00 1634890835
1.132844 -0.439770 -2.278727 0.000000000000000e+00 1634890835
1.016261 -0.560501 -2.278727 0.000000000000000e+00 1634890835
0.956343 -0.617343 -2.278727 0.000000000000000e+00 1634890835
1.165920 -0.366999 -2.278726 0.000000000000000e+00 1634890835
1.109637 -0.430046 -2.278727 0.000000000000000e+00 1634890835
0.993869 -0.548971 -2.278727 0.000000000000000e+00 1634890835
0.934377 -0.604923 -2.278727 0.000000000000000e+00 1634890835
1.142533 -0.358274 -2.278727 0.000000000000000e+00 1634890835
1.086638 -0.420407 -2.278727 0.000000000000000e+00 1634890835
0.971676 -0.537541 -2.278727 0.000000000000000e+00 1634890835
0.912604 -0.592614 -2.278727 0.000000000000000e+00 1634890835
1.119349 -0.349626 -2.278727 0.000000000000000e+00 1634890835
1.063839 -0.410853 -2.278727 0.000000000000000e+00 1634890835
0.949675 -0.526211 -2.278727 0.000000000000000e+00 1634890835
0.891018 -0.580411 -2.278727 0.000000000000000e+00 1634890835
1.096363 -0.341051 -2.278727 0.000000000000000e+00 1634890835
1.041233 -0.401379 -2.278727 0.000000000000000e+00 1634890835
0.927858 -0.514976 -2.278727 0.000000000000000e+00 1634890835
0.869613 -0.568309 -2.278727 0.000000000000000e+00 1634890835
1.073571 -0.332549 -2.278727 0.000000000000000e+00 1634890835
1.018817 -0.391985 -2.278727 0.000000000000000e+00 1634890835
0.906222 -0.503834 -2.278727 0.000000000000000e+00 1634890835
0.848384 -0.556308 -2.278727 0.000000000000000e+00 1634890835
1.050966 -0.324117 -2.278727 0.000000000000000e+00 1634890835
0.996583 -0.382668 -2.278727 0.000000000000000e+00 1634890835
0.884761 -0.492782 -2.278727 0.000000000000000e+00 1634890835
0.827326 -0.544404 -2.278727 0.000000000000000e+00 1634890835
1.028542 -0.315752 -2.278727 0.000000000000000e+00 1634890835
0.974527 -0.373425 -2.278727 0.000000000000000e+00 1634890835
0.863469 -0.481816 -2.278727 0.000000000000000e+00 1634890835
0.451011 -0.297861 -1.274413 0.000000000000000e+00 1936876886
1.006294 -0.307453 -2.278726 0.000000000000000e+00 1634890835
0.952641 -0.364254 -2.278727 0.000000000000000e+00 1634890835
0.842340 -0.470936 -2.278727 0.000000000000000e+00 1634890835
0.433313 -0.287261 -1.256716 0.000000000000000e+00 1936876886
0.984217 -0.299218 -2.278727 0.000000000000000e+00 1634890835
0.930923 -0.355153 -2.278727 0.000000000000000e+00 1634890835
0.821371 -0.460137 -2.278727 0.000000000000000e+00 1634890835
0.421233 -0.280358 -1.254537 0.000000000000000e+00 1936876886
0.962305 -0.291044 -2.278727 0.000000000000000e+00 1634890835
0.909366 -0.346119 -2.278727 0.000000000000000e+00 1634890835
0.445942 -0.250344 -1.269344 0.000000000000000e+00 1936876886
0.335129 -0.223972 -1.025478 0.000000000000000e+00 1953264973
0.940553 -0.282931 -2.278727 0.000000000000000e+00 1634890835
0.887966 -0.337151 -2.278727 0.000000000000000e+00 1634890835
0.428906 -0.241307 -1.253204 0.000000000000000e+00 1936876886
0.306474 -0.205705 -0.964051 0.000000000000000e+00 1953264973
0.495093 -0.148090 -1.227674 0.000000000000000e+00 1936876886
0.866717 -0.328247 -2.278727 0.000000000000000e+00 1634890835
0.358557 -0.202190 -1.075968 0.000000000000000e+00 1953264973
0.281224 -0.189609 -0.909925 0.000000000000000e+00 1953264973
0.483539 -0.143780 -1.227674 0.000000000000000e+00 1936876886
0.845615 -0.319403 -2.278727 0.000000000000000e+00 1634890835
0.326696 -0.184665 -1.007401 0.000000000000000e+00 1953264973
0.258803 -0.175316 -0.861862 0.000000000000000e+00 1953264973
0.472063 -0.139500 -1.227674 0.000000000000000e+00 1936876886
0.824655 -0.310620 -2.278727 0.000000000000000e+00 1634890835
0.299056 -0.169465 -0.948149 0.000000000000000e+00 1953264973
0.238757 -0.162538 -0.818890 0.000000000000000e+00 1953264973
