# .PCD v0.7 - Point Cloud Data file format
VERSION 0.7
FIELDS x y z rgb label
SIZE 4 4 4 4 4
TYPE F F F F U
COUNT 1 1 1 1 1
WIDTH 541
HEIGHT 1
VIEWPOINT 0 0 0 1 0 0 0
POINTS 541
DATA ascii
44.309620 -16.867756 9.809661 0.000000000000000e+00 1954047316
41.289192 -15.362309 -2.248462 0.000000000000000e+00 1851878480
34.557480 -14.460291 -1.783456 0.000000000000000e+00 1851878480
30.765108 -15.871297 -1.356877 0.000000000000000e+00 1851878480
30.090822 -17.074440 -1.183868 0.000000000000000e+00 1851878480
31.388172 -11.669634 -1.994223 0.000000000000000e+00 1851878480
30.559914 -12.783060 -1.863002 0.000000000000000e+00 1851878480
28.684633 -14.802572 -1.551131 0.000000000000000e+00 1851878480
27.966431 -15.878356 -1.388799 0.000000000000000e+00 1851878480
28.871063 -10.725673 -2.096583 0.000000000000000e+00 1851878480
28.198994 -11.791390 -1.983065 0.000000000000000e+00 1851878480
27.285233 -14.084785 -1.747797 0.000000000000000e+00 1851878480
26.492495 -15.050384 -1.589218 0.000000000000000e+00 1851878480
26.859234 -9.970691 -2.194712 0.000000000000000e+00 1851878480
26.511169 -11.081728 -2.112804 0.000000000000000e+00 1851878480
25.835415 -13.340512 -1.913098 0.000000000000000e+00 1851878480
24.852730 -14.127154 -1.747866 0.000000000000000e+00 1851878480
24.497393 -9.087016 -2.224710 0.000000000000000e+00 1851878480
24.715471 -10.327493 -2.201567 0.000000000000000e+00 1851878480
23.946487 -12.368961 -2.012841 0.000000000000000e+00 1851878480
23.428032 -13.325192 -1.890303 0.000000000000000e+00 1851878480
22.293571 -8.263236 -2.227740 0.000000000000000e+00 1851878480
22.618166 -9.447809 -2.227209 0.000000000000000e+00 1851878480
22.200430 -11.470649 -2.088547 0.000000000000000e+00 1851878480
21.694431 -12.346471 -1.975462 0.000000000000000e+00 1851878480
20.447094 -7.573054 -2.229810 0.000000000000000e+00 1851878480
20.598146 -8.600992 -2.222059 0.000000000000000e+00 1851878480
20.493717 -10.592095 -2.133686 0.000000000000000e+00 1851878480
20.097872 -11.444644 -2.038922 0.000000000000000e+00 1851878480
18.990776 -7.028298 -2.244551 0.000000000000000e+00 1851878480
18.973520 -7.919817 -2.225562 0.000000000000000e+00 1851878480
19.165462 -9.908684 -2.188114 0.000000000000000e+00 1851878480
18.733952 -10.674295 -2.095599 0.000000000000000e+00 1851878480
17.582264 -6.502036 -2.239024 0.000000000000000e+00 1851878480
17.672104 -7.373979 -2.239698 0.000000000000000e+00 1851878480
17.776003 -9.193190 -2.208577 0.000000000000000e+00 1851878480
17.653276 -10.064534 -2.158893 0.000000000000000e+00 1851878480
16.423065 -6.068698 -2.242011 0.000000000000000e+00 1851878480
16.485434 -6.876391 -2.245189 0.000000000000000e+00 1851878480
16.489449 -8.530494 -2.215218 0.000000000000000e+00 1851878480
16.519077 -9.423521 -2.192924 0.000000000000000e+00 1851878480
8.762275 -3.235374 -1.276698 1.880790849211783e-38 1684957512
15.421788 -6.430435 -2.246448 0.000000000000000e+00 1851878480
15.472608 -8.006956 -2.235187 0.000000000000000e+00 1851878480
15.431660 -8.808452 -2.210318 0.000000000000000e+00 1851878480
8.356496 -3.083163 -1.294512 1.880790849211783e-38 1684957512
14.461592 -6.027916 -2.243900 0.000000000000000e+00 1851878480
14.541626 -7.527545 -2.248205 0.000000000000000e+00 1851878480
14.428770 -8.240933 -2.218300 0.000000000000000e+00 1851878480
8.356946 -3.080949 -1.371696 1.880790849211783e-38 1684957512
13.607329 -5.669824 -2.240863 0.000000000000000e+00 1851878480
13.658807 -7.072779 -2.250630 0.000000000000000e+00 1851878480
13.642074 -7.796295 -2.241106 0.000000000000000e+00 1851878480
8.378735 -3.086589 -1.452771 1.880790849211783e-38 1684957512
12.904531 -5.375059 -2.248255 0.000000000000000e+00 1851878480
12.799167 -6.629734 -2.239511 0.000000000000000e+00 1851878480
12.801762 -7.320473 -2.238352 0.000000000000000e+00 1851878480
8.378237 -3.084005 -1.530377 1.880790849211783e-38 1684957512
12.183006 -5.072714 -2.239103 0.000000000000000e+00 1851878480
12.130612 -6.285427 -2.246606 0.000000000000000e+00 1851878480
12.106771 -6.927243 -2.245176 0.000000000000000e+00 1851878480
8.374977 -3.080403 -1.607649 1.880790849211783e-38 1684957512
11.626446 -4.839232 -2.248350 0.000000000000000e+00 1851878480
11.507236 -5.964319 -2.249211 0.000000000000000e+00 1851878480
11.414364 -6.535012 -2.238159 0.000000000000000e+00 1851878480
8.414778 -3.092620 -1.693749 1.880790849211783e-38 1684957512
11.028831 -4.588830 -2.238899 0.000000000000000e+00 1851878480
10.919547 -5.661511 -2.246729 0.000000000000000e+00 1851878480
10.839451 -6.209633 -2.241095 0.000000000000000e+00 1851878480
8.359557 -3.069915 -1.760810 1.880790849211783e-38 1684957512
10.610711 -4.413263 -2.256428 0.000000000000000e+00 1851878480
10.462627 -5.426342 -2.260767 0.000000000000000e+00 1851878480
10.269876 -5.886929 -2.233312 0.000000000000000e+00 1851878480
8.402609 -3.083297 -1.848706 1.880790849211783e-38 1684957512
10.122741 -4.208774 -2.250680 0.000000000000000e+00 1851878480
9.965267 -5.170056 -2.256580 0.000000000000000e+00 1851878480
9.840279 -5.644126 -2.245664 0.000000000000000e+00 1851878480
8.328304 -3.053617 -1.910742 1.880790849211783e-38 1684957512
9.609639 -3.993985 -2.229965 0.000000000000000e+00 1851878480
9.448831 -4.903700 -2.237927 0.000000000000000e+00 1851878480
9.337139 -5.358830 -2.231595 0.000000000000000e+00 1851878480
8.381161 -3.070560 -2.002022 1.880790849211783e-38 1684957512
9.288300 -3.859018 -2.245965 0.000000000000000e+00 1851878480
9.084633 -4.716215 -2.246538 0.000000000000000e+00 1851878480
8.951595 -5.140726 -2.236434 0.000000000000000e+00 1851878480
8.360091 -3.060400 -2.076226 1.880790849211783e-38 1684957512
8.894691 -3.694126 -2.237840 0.000000000000000e+00 1851878480
8.717975 -4.527334 -2.247276 0.000000000000000e+00 1851878480
8.594014 -4.938427 -2.240602 0.000000000000000e+00 1851878480
8.362413 -3.058808 -2.156360 1.880790849211783e-38 1684957512
8.529753 -3.541256 -2.229830 0.000000000000000e+00 1851878480
8.401982 -4.364657 -2.254287 0.000000000000000e+00 1851878480
8.250130 -4.743770 -2.241104 0.000000000000000e+00 1851878480
8.447006 -3.087272 -2.258847 1.880790849211783e-38 1684957512
8.280644 -3.436563 -2.246395 0.000000000000000e+00 1851878480
8.061734 -4.189278 -2.248253 0.000000000000000e+00 1851878480
7.959801 -4.579695 -2.249621 0.000000000000000e+00 1851878480
8.112068 -2.962464 -2.247071 0.000000000000000e+00 1851878480
7.971683 -3.307112 -2.241550 0.000000000000000e+00 1851878480
7.795784 -4.052403 -2.256904 0.000000000000000e+00 1851878480
7.637177 -4.396828 -2.242680 0.000000000000000e+00 1851878480
7.773382 -2.836475 -2.228109 0.000000000000000e+00 1851878480
7.704322 -3.195003 -2.243025 0.000000000000000e+00 1851878480
7.432136 -3.864650 -2.230952 0.000000000000000e+00 1851878480
7.354558 -4.236789 -2.241207 0.000000000000000e+00 1851878480
7.621846 -2.778919 -2.258389 0.000000000000000e+00 1851878480
7.465843 -3.094942 -2.248210 0.000000000000000e+00 1851878480
7.218542 -3.754828 -2.244258 0.000000000000000e+00 1851878480
7.095114 -4.089923 -2.241188 0.000000000000000e+00 1851878480
7.274283 -2.650028 -2.226076 0.000000000000000e+00 1851878480
7.198522 -2.983002 -2.239991 0.000000000000000e+00 1851878480
6.995482 -3.640011 -2.250315 0.000000000000000e+00 1851878480
6.829138 -3.939106 -2.233651 0.000000000000000e+00 1851878480
7.087567 -2.579890 -2.238120 0.000000000000000e+00 1851878480
7.018449 -2.907279 -2.254773 0.000000000000000e+00 1851878480
6.751568 -3.514271 -2.245012 0.000000000000000e+00 1851878480
6.661024 -3.844597 -2.253669 0.000000000000000e+00 1851878480
6.847323 -2.490379 -2.229414 0.000000000000000e+00 1851878480
6.787575 -2.810571 -2.249428 0.000000000000000e+00 1851878480
6.555243 -3.413229 -2.251143 0.000000000000000e+00 1851878480
6.442425 -3.720821 -2.252657 0.000000000000000e+00 1851878480
6.719176 -2.441741 -2.253921 0.000000000000000e+00 1851878480
6.568345 -2.718753 -2.243721 0.000000000000000e+00 1851878480
6.373710 -3.319835 -2.258624 0.000000000000000e+00 1851878480
6.187323 -3.575798 -2.233921 0.000000000000000e+00 1851878480
6.529621 -2.370876 -2.255029 0.000000000000000e+00 1851878480
6.412586 -2.653259 -2.256223 0.000000000000000e+00 1851878480
6.204626 -3.232864 -2.267064 0.000000000000000e+00 1851878480
5.975042 -3.455366 -2.225729 0.000000000000000e+00 1851878480
6.303464 -2.286838 -2.239711 0.000000000000000e+00 1851878480
6.259911 -2.589088 -2.267002 0.000000000000000e+00 1851878480
5.982298 -3.118090 -2.252127 0.000000000000000e+00 1851878480
5.843583 -3.381555 -2.244117 0.000000000000000e+00 1851878480
6.168229 -2.235885 -2.253435 0.000000000000000e+00 1851878480
6.025297 -2.491078 -2.244468 0.000000000000000e+00 1851878480
5.813928 -3.031375 -2.253567 0.000000000000000e+00 1851878480
5.665384 -3.280595 -2.241400 0.000000000000000e+00 1851878480
5.983999 -2.167261 -2.246398 0.000000000000000e+00 1851878480
5.865825 -2.424199 -2.246196 0.000000000000000e+00 1851878480
5.655870 -2.949987 -2.255756 0.000000000000000e+00 1851878480
5.491640 -3.182092 -2.236773 0.000000000000000e+00 1851878480
5.838549 -2.112776 -2.250940 0.000000000000000e+00 1851878480
5.744538 -2.373139 -2.259978 0.000000000000000e+00 1851878480
5.530617 -2.885663 -2.268249 0.000000000000000e+00 1851878480
5.369251 -3.113252 -2.250027 0.000000000000000e+00 1851878480
5.711239 -2.064927 -2.260058 0.000000000000000e+00 1851878480
5.562895 -2.297188 -2.247199 0.000000000000000e+00 1851878480
5.342599 -2.788542 -2.251862 0.000000000000000e+00 1851878480
5.238806 -3.039654 -2.257355 0.000000000000000e+00 1851878480
5.575427 -2.014077 -2.263477 0.000000000000000e+00 1851878480
5.485425 -2.264291 -2.274133 0.000000000000000e+00 1851878480
5.168491 -2.698619 -2.237620 0.000000000000000e+00 1851878480
5.069678 -2.943515 -2.244893 0.000000000000000e+00 1851878480
5.420439 -1.956383 -2.256483 0.000000000000000e+00 1851878480
5.295958 -2.185207 -2.252171 0.000000000000000e+00 1851878480
5.050712 -2.638063 -2.244830 0.000000000000000e+00 1851878480
4.910751 -2.853181 -2.233463 0.000000000000000e+00 1851878480
5.275763 -1.902492 -2.251039 0.000000000000000e+00 1851878480
5.146349 -2.122615 -2.243901 0.000000000000000e+00 1851878480
4.931477 -2.576707 -2.249065 0.000000000000000e+00 1851878480
4.829908 -2.808136 -2.255099 0.000000000000000e+00 1851878480
5.153518 -1.856766 -2.252750 0.000000000000000e+00 1851878480
5.034937 -2.075818 -2.249850 0.000000000000000e+00 1851878480
4.788203 -2.502750 -2.239699 0.000000000000000e+00 1851878480
4.716238 -2.743939 -2.259487 0.000000000000000e+00 1851878480
4.991997 -1.796971 -2.234681 0.000000000000000e+00 1851878480
4.891079 -2.015680 -2.238906 0.000000000000000e+00 1851878480
4.713697 -2.464699 -2.260366 0.000000000000000e+00 1851878480
4.537434 -2.641748 -2.229539 0.000000000000000e+00 1851878480
4.891898 -1.759360 -2.241714 0.000000000000000e+00 1851878480
4.803383 -1.978722 -2.251523 0.000000000000000e+00 1851878480
4.610437 -2.411590 -2.265569 0.000000000000000e+00 1851878480
4.434687 -2.583738 -2.233940 0.000000000000000e+00 1851878480
4.787209 -1.720149 -2.244836 0.000000000000000e+00 1851878480
4.681689 -1.927788 -2.246285 0.000000000000000e+00 1851878480
4.475071 -2.341647 -2.252584 0.000000000000000e+00 1851878480
4.392694 -2.561080 -2.267601 0.000000000000000e+00 1851878480
4.675733 -1.678564 -2.242833 0.000000000000000e+00 1851878480
4.553019 -1.874017 -2.235307 0.000000000000000e+00 1851878480
4.377833 -2.291619 -2.256430 0.000000000000000e+00 1851878480
4.268717 -2.490571 -2.257313 0.000000000000000e+00 1851878480
4.563743 -1.636855 -2.238548 0.000000000000000e+00 1851878480
4.501824 -1.852162 -2.260750 0.000000000000000e+00 1851878480
4.279059 -2.240755 -2.257547 0.000000000000000e+00 1851878480
4.136652 -2.415252 -2.239972 0.000000000000000e+00 1851878480
4.480433 -1.605490 -2.246589 0.000000000000000e+00 1851878480
4.356134 -1.791457 -2.236912 0.000000000000000e+00 1851878480
4.150411 -2.174208 -2.240565 0.000000000000000e+00 1851878480
4.059901 -2.372158 -2.250386 0.000000000000000e+00 1851878480
4.384133 -1.569513 -2.246532 0.000000000000000e+00 1851878480
4.269410 -1.755036 -2.241116 0.000000000000000e+00 1851878480
4.069239 -2.132498 -2.247072 0.000000000000000e+00 1851878480
3.945318 -2.306891 -2.237835 0.000000000000000e+00 1851878480
4.270439 -1.527374 -2.235628 0.000000000000000e+00 1851878480
4.184857 -1.719532 -2.244899 0.000000000000000e+00 1851878480
3.962229 -2.077219 -2.237418 0.000000000000000e+00 1851878480
3.904199 -2.284532 -2.265404 0.000000000000000e+00 1851878480
4.209464 -1.504133 -2.250769 0.000000000000000e+00 1851878480
4.102917 -1.685126 -2.248566 0.000000000000000e+00 1851878480
3.910105 -2.050688 -2.257211 0.000000000000000e+00 1851878480
3.782046 -2.214701 -2.244287 0.000000000000000e+00 1851878480
4.097826 -1.462841 -2.237276 0.000000000000000e+00 1851878480
4.019034 -1.649946 -2.249647 0.000000000000000e+00 1851878480
3.863086 -2.026823 -2.279153 0.000000000000000e+00 1851878480
3.714514 -2.176790 -2.253554 0.000000000000000e+00 1851878480
4.031574 -1.437798 -2.246946 0.000000000000000e+00 1851878480
3.918280 -1.607867 -2.239529 0.000000000000000e+00 1851878480
3.705127 -1.944716 -2.233482 0.000000000000000e+00 1851878480
3.641798 -2.135794 -2.258287 0.000000000000000e+00 1851878480
4.023736 -1.433604 -2.288731 0.000000000000000e+00 1634890835
3.905778 -1.602016 -2.278930 0.000000000000000e+00 1851878480
3.714721 -1.950530 -2.287370 0.000000000000000e+00 1851878480
3.591147 -2.107699 -2.275528 0.000000000000000e+00 1851878480
3.950464 -1.406110 -2.292772 0.000000000000000e+00 1634890835
3.769749 -1.545521 -2.244902 0.000000000000000e+00 1851878480
3.572169 -1.876431 -2.246308 0.000000000000000e+00 1851878480
3.506706 -2.059730 -2.270015 0.000000000000000e+00 1851878480
3.848962 -1.368619 -2.278812 0.000000000000000e+00 1634890835
3.686236 -1.510589 -2.239923 0.000000000000000e+00 1851878480
3.546114 -1.863503 -2.276763 0.000000000000000e+00 1851878480
3.388245 -1.991703 -2.240185 0.000000000000000e+00 1851878480
3.791622 -1.346877 -2.289558 0.000000000000000e+00 1634890835
3.666653 -1.501871 -2.272968 0.000000000000000e+00 1851878480
3.430101 -1.803280 -2.248051 0.000000000000000e+00 1851878480
3.351513 -1.971664 -2.262738 0.000000000000000e+00 1851878480
3.697867 -1.312240 -2.276947 0.000000000000000e+00 1634890835
3.552174 -1.454301 -2.245970 0.000000000000000e+00 1851878480
3.389686 -1.782773 -2.267271 0.000000000000000e+00 1851878480
3.279598 -1.930897 -2.260519 0.000000000000000e+00 1851878480
3.625708 -1.285315 -2.276081 0.000000000000000e+00 1634890835
3.500211 -1.432348 -2.256873 0.000000000000000e+00 1851878480
3.281821 -1.726765 -2.239849 0.000000000000000e+00 1851878480
3.202674 -1.887123 -2.253244 0.000000000000000e+00 1851878480
3.569803 -1.264186 -2.284302 0.000000000000000e+00 1634890835
3.443814 -1.408598 -2.264003 0.000000000000000e+00 1634890835
3.243629 -1.707394 -2.258471 0.000000000000000e+00 1851878480
3.128452 -1.844890 -2.246216 0.000000000000000e+00 1851878480
3.515107 -1.243511 -2.292386 0.000000000000000e+00 1634890835
3.427630 -1.401301 -2.297102 0.000000000000000e+00 1634890835
3.193290 -1.681615 -2.267904 0.000000000000000e+00 1851878480
3.090044 -1.823740 -2.263790 0.000000000000000e+00 1851878480
3.442804 -1.216646 -2.287867 0.000000000000000e+00 1634890835
3.339355 -1.364547 -2.281007 0.000000000000000e+00 1634890835
3.147316 -1.658123 -2.279592 0.000000000000000e+00 1851878480
3.022372 -1.785284 -2.258893 0.000000000000000e+00 1851878480
3.394856 -1.198418 -2.298485 0.000000000000000e+00 1634890835
3.276985 -1.338402 -2.281123 0.000000000000000e+00 1634890835
3.071831 -1.619065 -2.268696 0.000000000000000e+00 1851878480
2.948134 -1.742898 -2.247514 0.000000000000000e+00 1851878480
3.319844 -1.170667 -2.289685 0.000000000000000e+00 1634890835
3.227487 -1.317528 -2.289206 0.000000000000000e+00 1634890835
3.033267 -1.599447 -2.283953 0.000000000000000e+00 1851878480
2.882096 -1.705308 -2.240816 0.000000000000000e+00 1851878480
3.192112 -1.124393 -2.242402 0.000000000000000e+00 1634890835
3.164986 -1.291362 -2.287059 0.000000000000000e+00 1634890835
2.896155 -1.527832 -2.222975 0.000000000000000e+00 1851878480
2.814101 -1.666511 -2.231096 0.000000000000000e+00 1851878480
3.176209 -1.117552 -2.272291 0.000000000000000e+00 1634890835
3.151977 -1.285398 -2.320150 0.000000000000000e+00 1634890835
2.894834 -1.527827 -2.264720 0.000000000000000e+00 1851878480
2.778947 -1.647129 -2.246373 0.000000000000000e+00 1851878480
3.137687 -1.102759 -2.285753 0.000000000000000e+00 1634890835
3.042575 -1.240144 -2.281116 0.000000000000000e+00 1634890835
2.819399 -1.488700 -2.247871 0.000000000000000e+00 1851878480
2.729831 -1.619445 -2.249603 0.000000000000000e+00 1851878480
3.031658 -1.064285 -2.248608 0.000000000000000e+00 1634890835
3.017474 -1.229269 -2.303941 0.000000000000000e+00 1634890835
2.782017 -1.469643 -2.260203 0.000000000000000e+00 1851878480
0.821659 -0.487877 -0.690207 0.000000000000000e+00 1886740808
3.005517 -1.053894 -2.269436 0.000000000000000e+00 1634890835
2.937527 -1.196067 -2.283933 0.000000000000000e+00 1634890835
2.721421 -1.438311 -2.252727 0.000000000000000e+00 1851878480
0.823762 -0.489568 -0.705277 0.000000000000000e+00 1886740808
2.983245 -1.044867 -2.293015 0.000000000000000e+00 1634890835
2.920862 -1.188646 -2.312280 0.000000000000000e+00 1634890835
0.873299 -0.461771 -0.736471 0.000000000000000e+00 1886740808
0.852975 -0.507396 -0.744252 0.000000000000000e+00 1886740808
2.951063 -1.032376 -2.308727 0.000000000000000e+00 1634890835
2.800972 -1.139235 -2.257476 0.000000000000000e+00 1634890835
0.834624 -0.441534 -0.717004 0.000000000000000e+00 1886740808
0.782087 -0.465660 -0.695380 0.000000000000000e+00 1886740808
2.881861 -1.006962 -2.294579 0.000000000000000e+00 1634890835
2.810582 -1.142516 -2.305982 0.000000000000000e+00 1634890835
0.880098 -0.465819 -0.770125 0.000000000000000e+00 1886740808
0.849819 -0.506465 -0.769910 0.000000000000000e+00 1886740808
2.820356 -0.984279 -2.285241 0.000000000000000e+00 1634890835
2.770188 -1.125468 -2.313539 0.000000000000000e+00 1634890835
0.823664 -0.436166 -0.734079 0.000000000000000e+00 1886740808
0.786565 -0.469216 -0.726037 0.000000000000000e+00 1886740808
2.796094 -0.974611 -2.305381 0.000000000000000e+00 1634890835
0.827687 -0.336082 -0.703570 0.000000000000000e+00 1886740808
0.819626 -0.434246 -0.743941 0.000000000000000e+00 1886740808
0.748615 -0.447010 -0.703980 0.000000000000000e+00 1886740808
0.841676 -0.293011 -0.706099 0.000000000000000e+00 1886740808
0.827008 -0.335614 -0.715471 0.000000000000000e+00 1886740808
0.782436 -0.414754 -0.723221 0.000000000000000e+00 1886740808
0.762239 -0.455592 -0.730199 0.000000000000000e+00 1886740808
0.876012 -0.304579 -0.747706 0.000000000000000e+00 1886740808
0.841447 -0.341274 -0.740834 0.000000000000000e+00 1886740808
0.793304 -0.420732 -0.746678 0.000000000000000e+00 1886740808
0.768008 -0.459499 -0.749441 0.000000000000000e+00 1886740808
0.822066 -0.285457 -0.713837 0.000000000000000e+00 1886740808
0.808616 -0.327766 -0.724471 0.000000000000000e+00 1886740808
0.785721 -0.416930 -0.753023 0.000000000000000e+00 1886740808
0.732142 -0.438483 -0.727721 0.000000000000000e+00 1886740808
0.784842 -0.272176 -0.693300 0.000000000000000e+00 1886740808
0.836386 -0.338820 -0.762510 0.000000000000000e+00 1886740808
0.778318 -0.413222 -0.759489 0.000000000000000e+00 1886740808
0.759054 -0.455068 -0.768455 0.000000000000000e+00 1886740808
0.764784 -0.264871 -0.687228 0.000000000000000e+00 1886740808
0.774418 -0.313526 -0.718376 0.000000000000000e+00 1886740808
0.792296 -0.420870 -0.787145 0.000000000000000e+00 1886740808
0.743897 -0.446446 -0.767037 0.000000000000000e+00 1886740808
0.800033 -0.276707 -0.731260 0.000000000000000e+00 1886740808
0.792542 -0.320666 -0.748025 0.000000000000000e+00 1886740808
0.763947 -0.406034 -0.772711 0.000000000000000e+00 1886740808
0.752298 -0.451966 -0.790013 0.000000000000000e+00 1886740808
0.779734 -0.269319 -0.724926 0.000000000000000e+00 1886740808
0.808476 -0.326908 -0.776356 0.000000000000000e+00 1886740808
0.733766 -0.390211 -0.755584 0.000000000000000e+00 1886740808
0.793419 -0.477183 -0.848546 0.000000000000000e+00 1886740808
0.766711 -0.264454 -0.725011 0.000000000000000e+00 1886740808
0.745671 -0.301321 -0.728493 0.000000000000000e+00 1886740808
0.716095 -0.381029 -0.750679 0.000000000000000e+00 1886740808
2.095647 -1.261758 -2.282489 0.000000000000000e+00 1634890835
0.802247 -0.276322 -0.771566 0.000000000000000e+00 1886740808
0.766768 -0.309646 -0.762103 0.000000000000000e+00 1886740808
0.783457 -0.417113 -0.836080 0.000000000000000e+00 1886740808
2.086250 -1.257496 -2.314017 0.000000000000000e+00 1634890835
0.792453 -0.272560 -0.775139 0.000000000000000e+00 1886740808
0.758259 -0.306008 -0.766705 0.000000000000000e+00 1886740808
2.119795 -1.129239 -2.302862 0.000000000000000e+00 1634890835
2.055733 -1.240503 -2.322046 0.000000000000000e+00 1634890835
0.776838 -0.266800 -0.772798 0.000000000000000e+00 1886740808
0.726220 -0.292883 -0.747018 0.000000000000000e+00 1886740808
2.054897 -1.095321 -2.272482 0.000000000000000e+00 1634890835
0.809723 -0.489177 -0.931411 0.000000000000000e+00 1886740808
0.787188 -0.269956 -0.796408 0.000000000000000e+00 1886740808
0.795688 -0.320682 -0.832629 0.000000000000000e+00 1886740808
2.071012 -1.104578 -2.331452 0.000000000000000e+00 1634890835
0.811390 -0.490758 -0.950463 0.000000000000000e+00 1886740808
0.746723 -0.255694 -0.768304 0.000000000000000e+00 1886740808
0.780080 -0.314174 -0.830405 0.000000000000000e+00 1886740808
2.009768 -1.072574 -2.303153 0.000000000000000e+00 1634890835
0.801582 -0.485403 -0.956216 0.000000000000000e+00 1886740808
0.758142 -0.259207 -0.793299 0.000000000000000e+00 1886740808
2.070057 -0.833121 -2.241675 0.000000000000000e+00 1634890835
0.819218 -0.437476 -0.955680 0.000000000000000e+00 1886740808
0.787816 -0.477645 -0.957063 0.000000000000000e+00 1886740808
0.759516 -0.259272 -0.808229 0.000000000000000e+00 1886740808
2.087412 -0.839505 -2.299527 0.000000000000000e+00 1634890835
0.809791 -0.432717 -0.961669 0.000000000000000e+00 1886740808
0.780118 -0.473562 -0.965140 0.000000000000000e+00 1886740808
0.758664 -0.258571 -0.821029 0.000000000000000e+00 1886740808
2.038539 -0.819253 -2.284504 0.000000000000000e+00 1634890835
0.819161 -0.438009 -0.990306 0.000000000000000e+00 1886740808
1.835200 -1.115437 -2.312264 0.000000000000000e+00 1634890835
2.075867 -0.706362 -2.284665 0.000000000000000e+00 1634890835
2.053612 -0.824698 -2.341200 0.000000000000000e+00 1634890835
0.785516 -0.420298 -0.966745 0.000000000000000e+00 1886740808
1.773681 -1.079426 -2.275968 0.000000000000000e+00 1634890835
2.040410 -0.693154 -2.283807 0.000000000000000e+00 1634890835
1.988054 -0.797767 -2.305696 0.000000000000000e+00 1634890835
0.756891 -0.405255 -0.948328 0.000000000000000e+00 1886740808
0.759346 -0.462726 -0.992390 0.000000000000000e+00 1886740808
2.020850 -0.685356 -2.300392 0.000000000000000e+00 1634890835
1.948103 -0.781133 -2.298524 0.000000000000000e+00 1634890835
0.813590 -0.435912 -1.037801 0.000000000000000e+00 1886740808
1.747182 -1.066105 -2.325681 0.000000000000000e+00 1634890835
1.967435 -0.666098 -2.277733 0.000000000000000e+00 1634890835
0.826188 -0.331018 -0.991724 0.000000000000000e+00 1886740808
1.781538 -0.955199 -2.313682 0.000000000000000e+00 1634890835
1.667483 -1.018856 -2.260806 0.000000000000000e+00 1634890835
1.917616 -0.648098 -2.257927 0.000000000000000e+00 1634890835
0.794515 -0.318072 -0.970291 0.000000000000000e+00 1886740808
0.762718 -0.409236 -1.008538 0.000000000000000e+00 1886740808
1.631094 -0.998003 -2.252650 0.000000000000000e+00 1634890835
1.896713 -0.639892 -2.271483 0.000000000000000e+00 1634890835
0.834619 -0.333855 -1.037032 0.000000000000000e+00 1886740808
1.730730 -0.929298 -2.330229 0.000000000000000e+00 1634890835
1.603661 -0.982605 -2.256139 0.000000000000000e+00 1634890835
0.824131 -0.277530 -1.003873 0.000000000000000e+00 1886740808
0.793459 -0.317125 -1.003114 0.000000000000000e+00 1886740808
1.713725 -0.920855 -2.349508 0.000000000000000e+00 1634890835
1.601058 -0.982426 -2.294710 0.000000000000000e+00 1634890835
0.796215 -0.267631 -0.986519 0.000000000000000e+00 1886740808
0.793012 -0.316677 -1.020114 0.000000000000000e+00 1886740808
1.655386 -0.890184 -2.311152 0.000000000000000e+00 1634890835
1.553271 -0.954511 -2.268123 0.000000000000000e+00 1634890835
0.780535 -0.261863 -0.983739 0.000000000000000e+00 1886740808
0.783486 -0.312601 -1.025571 0.000000000000000e+00 1886740808
1.615668 -0.869502 -2.297232 0.000000000000000e+00 1634890835
1.562414 -0.961575 -2.324601 0.000000000000000e+00 1634890835
0.785681 -0.263078 -1.007322 0.000000000000000e+00 1886740808
1.726208 -0.688122 -2.299421 0.000000000000000e+00 1634890835
1.614736 -0.869691 -2.338356 0.000000000000000e+00 1634890835
1.517708 -0.935501 -2.300968 0.000000000000000e+00 1634890835
0.752494 -0.251466 -0.981486 0.000000000000000e+00 1886740808
1.689710 -0.672961 -2.290636 0.000000000000000e+00 1634890835
1.570320 -0.846456 -2.316267 0.000000000000000e+00 1634890835
1.479976 -0.913681 -2.286586 0.000000000000000e+00 1634890835
0.784977 -0.261789 -1.041655 0.000000000000000e+00 1886740808
0.758253 -0.301709 -1.046181 0.000000000000000e+00 1886740808
1.566796 -0.845258 -2.354197 0.000000000000000e+00 1634890835
1.441599 -0.891422 -2.270027 0.000000000000000e+00 1634890835
1.681938 -0.559759 -2.270869 0.000000000000000e+00 1634890835
1.624422 -0.645743 -2.281253 0.000000000000000e+00 1634890835
1.521578 -0.821562 -2.329143 0.000000000000000e+00 1634890835
1.418212 -0.878408 -2.276293 0.000000000000000e+00 1634890835
0.748305 -0.248511 -1.028034 0.000000000000000e+00 1886740808
1.596386 -0.633981 -2.282071 0.000000000000000e+00 1634890835
1.491413 -0.805978 -2.326031 0.000000000000000e+00 1634890835
1.392967 -0.864231 -2.279177 0.000000000000000e+00 1634890835
1.641550 -0.543970 -2.294899 0.000000000000000e+00 1634890835
1.586787 -0.629540 -2.309215 0.000000000000000e+00 1634890835
1.451337 -0.785019 -2.306474 0.000000000000000e+00 1634890835
1.373262 -0.853479 -2.290834 0.000000000000000e+00 1634890835
1.627180 -0.538007 -2.315062 0.000000000000000e+00 1634890835
1.526453 -0.604986 -2.261646 0.000000000000000e+00 1634890835
1.448059 -0.783961 -2.345201 0.000000000000000e+00 1634890835
1.371954 -0.854178 -2.333671 0.000000000000000e+00 1634890835
1.581332 -0.521653 -2.289847 0.000000000000000e+00 1634890835
1.533628 -0.607194 -2.313662 0.000000000000000e+00 1634890835
1.410575 -0.764383 -2.328396 0.000000000000000e+00 1634890835
1.328841 -0.828840 -2.305117 0.000000000000000e+00 1634890835
1.544484 -0.508302 -2.276486 0.000000000000000e+00 1634890835
1.500968 -0.593626 -2.305878 0.000000000000000e+00 1634890835
1.374272 -0.745426 -2.312371 0.000000000000000e+00 1634890835
1.289330 -0.805696 -2.281221 0.000000000000000e+00 1634890835
1.534544 -0.503816 -2.302521 0.000000000000000e+00 1634890835
1.449268 -0.572548 -2.267500 0.000000000000000e+00 1634890835
1.368746 -0.743160 -2.347968 0.000000000000000e+00 1634890835
1.278518 -0.800468 -2.307602 0.000000000000000e+00 1634890835
1.487255 -0.487083 -2.271953 0.000000000000000e+00 1634890835
1.432901 -0.565443 -2.283498 0.000000000000000e+00 1634890835
1.308884 -0.711376 -2.289385 0.000000000000000e+00 1634890835
1.232113 -0.772932 -2.268961 0.000000000000000e+00 1634890835
1.481615 -0.484006 -2.304570 0.000000000000000e+00 1634890835
1.394695 -0.549730 -2.264151 0.000000000000000e+00 1634890835
1.317653 -0.716885 -2.350363 0.000000000000000e+00 1634890835
1.215287 -0.763916 -2.283775 0.000000000000000e+00 1634890835
1.460793 -0.475960 -2.313856 0.000000000000000e+00 1634890835
1.431456 -0.563547 -2.367576 0.000000000000000e+00 1634890835
1.248753 -0.680124 -2.271946 0.000000000000000e+00 1634890835
1.200385 -0.756113 -2.302354 0.000000000000000e+00 1634890835
1.407333 -0.457312 -2.270355 0.000000000000000e+00 1634890835
1.369211 -0.538382 -2.307586 0.000000000000000e+00 1634890835
1.235372 -0.673573 -2.292886 0.000000000000000e+00 1634890835
1.180936 -0.745450 -2.312278 0.000000000000000e+00 1634890835
1.384180 -0.448549 -2.274564 0.000000000000000e+00 1634890835
1.357911 -0.533267 -2.332304 0.000000000000000e+00 1634890835
1.206012 -0.658307 -2.283910 0.000000000000000e+00 1634890835
1.154429 -0.730320 -2.307976 0.000000000000000e+00 1634890835
1.387377 -0.448309 -2.322582 0.000000000000000e+00 1634890835
1.310562 -0.514006 -2.294386 0.000000000000000e+00 1634890835
1.181986 -0.645941 -2.284369 0.000000000000000e+00 1634890835
1.136896 -0.720854 -2.321284 0.000000000000000e+00 1634890835
1.329151 -0.428238 -2.267190 0.000000000000000e+00 1634890835
1.289793 -0.505186 -2.301954 0.000000000000000e+00 1634890835
1.176074 -0.643479 -2.320084 0.000000000000000e+00 1634890835
1.096232 -0.696688 -2.286400 0.000000000000000e+00 1634890835
1.340034 -0.430443 -2.329354 0.000000000000000e+00 1634890835
1.276533 -0.499306 -2.323016 0.000000000000000e+00 1634890835
1.153172 -0.631725 -2.322581 0.000000000000000e+00 1634890835
1.079146 -0.687478 -2.299725 0.000000000000000e+00 1634890835
1.299564 -0.416147 -2.302483 0.000000000000000e+00 1634890835
1.260229 -0.492231 -2.338800 0.000000000000000e+00 1634890835
1.145894 -0.628534 -2.356822 0.000000000000000e+00 1634890835
1.053627 -0.672882 -2.294760 0.000000000000000e+00 1634890835
1.291189 -0.412140 -2.332084 0.000000000000000e+00 1634890835
1.234916 -0.481640 -2.337698 0.000000000000000e+00 1634890835
1.110129 -0.609714 -2.332191 0.000000000000000e+00 1634890835
1.035354 -0.662902 -2.305200 0.000000000000000e+00 1634890835
1.262437 -0.401630 -2.324879 0.000000000000000e+00 1634890835
1.209552 -0.471037 -2.335994 0.000000000000000e+00 1634890835
1.071133 -0.589093 -2.299063 0.000000000000000e+00 1634890835
1.009668 -0.648163 -2.298734 0.000000000000000e+00 1634890835
1.214473 -0.385048 -2.280860 0.000000000000000e+00 1634890835
1.185210 -0.460840 -2.335777 0.000000000000000e+00 1634890835
1.078338 -0.593883 -2.365335 0.000000000000000e+00 1634890835
0.961434 -0.618882 -2.238961 0.000000000000000e+00 1634890835
1.185041 -0.374387 -2.270146 0.000000000000000e+00 1634890835
1.129954 -0.438649 -2.272915 0.000000000000000e+00 1634890835
1.041188 -0.574250 -2.334622 0.000000000000000e+00 1634890835
0.964380 -0.622531 -2.297876 0.000000000000000e+00 1634890835
1.163947 -0.366378 -2.274870 0.000000000000000e+00 1634890835
1.117572 -0.433121 -2.295022 0.000000000000000e+00 1634890835
1.016279 -0.561349 -2.330109 0.000000000000000e+00 1634890835
0.951015 -0.615695 -2.319303 0.000000000000000e+00 1634890835
1.141701 -0.358013 -2.277068 0.000000000000000e+00 1634890835
1.110570 -0.429666 -2.328914 0.000000000000000e+00 1634890835
1.004648 -0.555782 -2.356052 0.000000000000000e+00 1634890835
0.924239 -0.600169 -2.307779 0.000000000000000e+00 1634890835
1.126650 -0.351906 -2.293589 0.000000000000000e+00 1634890835
1.086224 -0.419498 -2.326676 0.000000000000000e+00 1634890835
0.965216 -0.534822 -2.316019 0.000000000000000e+00 1634890835
0.885986 -0.577133 -2.265860 0.000000000000000e+00 1634890835
1.114872 -0.346808 -2.317196 0.000000000000000e+00 1634890835
1.047761 -0.403896 -2.293013 0.000000000000000e+00 1634890835
0.954587 -0.529811 -2.344371 0.000000000000000e+00 1634890835
0.886148 -0.579115 -2.322056 0.000000000000000e+00 1634890835
1.058090 -0.327754 -2.245867 0.000000000000000e+00 1634890835
1.040974 -0.400510 -2.328284 0.000000000000000e+00 1634890835
0.941367 -0.523374 -2.367101 0.000000000000000e+00 1634890835
0.861833 -0.565127 -2.314851 0.000000000000000e+00 1634890835
1.067605 -0.329248 -2.314804 0.000000000000000e+00 1634890835
1.007362 -0.386808 -2.303375 0.000000000000000e+00 1634890835
0.888330 -0.494769 -2.287919 0.000000000000000e+00 1634890835
0.835192 -0.549580 -2.300391 0.000000000000000e+00 1634890835
1.031476 -0.316653 -2.285226 0.000000000000000e+00 1634890835
1.003280 -0.384443 -2.345960 0.000000000000000e+00 1634890835
0.870394 -0.485680 -2.297001 0.000000000000000e+00 1634890835
0.454312 -0.300041 -1.283743 0.000000000000000e+00 1936876886
1.018612 -0.311216 -2.306619 0.000000000000000e+00 1634890835
0.976081 -0.373216 -2.334794 0.000000000000000e+00 1634890835
0.845503 -0.472705 -2.287283 0.000000000000000e+00 1634890835
0.409676 -0.271590 -1.188161 0.000000000000000e+00 1936876886
0.990268 -0.301058 -2.292735 0.000000000000000e+00 1634890835
0.932570 -0.355781 -2.282758 0.000000000000000e+00 1634890835
0.837751 -0.469314 -2.324172 0.000000000000000e+00 1634890835
0.422696 -0.281332 -1.258895 0.000000000000000e+00 1936876886
0.968998 -0.293068 -2.294576 0.000000000000000e+00 1634890835
0.923789 -0.351608 -2.314868 0.000000000000000e+00 1634890835
0.461652 -0.259163 -1.314062 0.000000000000000e+00 1936876886
0.341715 -0.228373 -1.045629 0.000000000000000e+00 1953264973
0.938153 -0.282209 -2.272913 0.000000000000000e+00 1634890835
0.892037 -0.338697 -2.289175 0.000000000000000e+00 1634890835
0.437073 -0.245902 -1.277067 0.000000000000000e+00 1936876886
0.293856 -0.197236 -0.924361 0.000000000000000e+00 1953264973
0.495739 -0.148283 -1.229278 0.000000000000000e+00 1936876886
0.859462 -0.325499 -2.259654 0.000000000000000e+00 1634890835
0.374297 -0.211066 -1.123203 0.000000000000000e+00 1953264973
0.280807 -0.189328 -0.908574 0.000000000000000e+00 1953264973
0.489568 -0.145573 -1.242982 0.000000000000000e+00 1936876886
0.858557 -0.324291 -2.313602 0.000000000000000e+00 1634890835
0.339442 -0.191869 -1.046703 0.000000000000000e+00 1953264973
0.263723 -0.178649 -0.878246 0.000000000000000e+00 1953264973
0.488834 -0.144456 -1.271290 0.000000000000000e+00 1936876886
0.853165 -0.321359 -2.357508 0.000000000000000e+00 1634890835
0.313677 -0.177750 -0.994505 0.000000000000000e+00 1953264973
0.235026 -0.159998 -0.806092 0.000000000000000e+00 1953264973
