# .PCD v0.7 - Point Cloud Data file format
VERSION 0.7
FIELDS x y z rgb label
SIZE 4 4 4 4 4
TYPE F F F F U
COUNT 1 1 1 1 1
WIDTH 536
HEIGHT 1
VIEWPOINT 0 0 0 1 0 0 0
POINTS 536
DATA ascii
32.591084 -12.116858 -2.070649 0.000000000000000e+00 1851878480
31.891134 -13.339904 -1.944155 0.000000000000000e+00 1851878480
29.330633 -15.135937 -1.586064 0.000000000000000e+00 1851878480
27.771029 -15.767413 -1.379097 0.000000000000000e+00 1851878480
29.034700 -10.786464 -2.108466 0.000000000000000e+00 1851878480
28.224625 -11.802108 -1.984868 0.000000000000000e+00 1851878480
26.725063 -13.795623 -1.711915 0.000000000000000e+00 1851878480
25.879251 -14.702001 -1.552431 0.000000000000000e+00 1851878480
26.510767 -9.841332 -2.166238 0.000000000000000e+00 1851878480
26.060759 -10.893455 -2.076908 0.000000000000000e+00 1851878480
24.967878 -12.892547 -1.848857 0.000000000000000e+00 1851878480
24.539368 -13.949030 -1.725827 0.000000000000000e+00 1851878480
24.177750 -8.968449 -2.195683 0.000000000000000e+00 1851878480
24.385006 -10.189405 -2.172130 0.000000000000000e+00 1851878480
23.628490 -12.204707 -1.986111 0.000000000000000e+00 1851878480
23.420416 -13.320861 -1.889687 0.000000000000000e+00 1851878480
22.194254 -8.226423 -2.217815 0.000000000000000e+00 1851878480
22.410969 -9.361260 -2.206806 0.000000000000000e+00 1851878480
22.149807 -11.444492 -2.083784 0.000000000000000e+00 1851878480
21.883755 -12.454216 -1.992701 0.000000000000000e+00 1851878480
20.484375 -7.586863 -2.233876 0.000000000000000e+00 1851878480
20.648737 -8.622116 -2.227516 0.000000000000000e+00 1851878480
20.742876 -10.720873 -2.159627 0.000000000000000e+00 1851878480
20.453121 -11.646940 -2.074961 0.000000000000000e+00 1851878480
18.929642 -7.005673 -2.237326 0.000000000000000e+00 1851878480
19.020010 -7.939223 -2.231015 0.000000000000000e+00 1851878480
19.374371 -10.016691 -2.211966 0.000000000000000e+00 1851878480
19.079325 -10.871084 -2.134233 0.000000000000000e+00 1851878480
17.577671 -6.500338 -2.238439 0.000000000000000e+00 1851878480
17.634583 -7.358323 -2.234942 0.000000000000000e+00 1851878480
17.832853 -9.222591 -2.215641 0.000000000000000e+00 1851878480
17.855900 -10.180055 -2.183672 0.000000000000000e+00 1851878480
16.396902 -6.059031 -2.238439 0.000000000000000e+00 1851878480
16.435873 -6.855719 -2.238439 0.000000000000000e+00 1851878480
16.516233 -8.544351 -2.218817 0.000000000000000e+00 1851878480
16.620800 -9.481549 -2.206427 0.000000000000000e+00 1851878480
15.362931 -5.672595 -2.238439 0.000000000000000e+00 1851878480
15.366806 -6.407509 -2.238439 0.000000000000000e+00 1851878480
15.391339 -7.964900 -2.223447 0.000000000000000e+00 1851878480
15.425594 -8.804989 -2.209450 0.000000000000000e+00 1851878480
14.449850 -5.331330 -2.238438 0.000000000000000e+00 1851878480
14.426386 -6.013242 -2.238438 0.000000000000000e+00 1851878480
14.424605 -7.466968 -2.230113 0.000000000000000e+00 1851878480
14.416293 -8.233807 -2.216383 0.000000000000000e+00 1851878480
13.637504 -5.027729 -2.238438 0.000000000000000e+00 1851878480
13.592606 -5.663689 -2.238438 0.000000000000000e+00 1851878480
13.584812 -7.034464 -2.238438 0.000000000000000e+00 1851878480
13.561149 -7.750048 -2.227812 0.000000000000000e+00 1851878480
12.910004 -4.755834 -2.238438 0.000000000000000e+00 1851878480
12.848186 -5.351590 -2.238438 0.000000000000000e+00 1851878480
12.793030 -6.626555 -2.238438 0.000000000000000e+00 1851878480
12.799685 -7.319286 -2.237989 0.000000000000000e+00 1851878480
12.254613 -4.510888 -2.238439 0.000000000000000e+00 1851878480
12.179394 -5.071209 -2.238439 0.000000000000000e+00 1851878480
12.086510 -6.262576 -2.238438 0.000000000000000e+00 1851878480
12.070436 -6.906454 -2.238438 0.000000000000000e+00 1851878480
6.661459 -2.450154 -1.278725 1.880790849211783e-38 1684957512
6.612413 -2.752260 -1.278725 1.880790849211783e-38 1684957512
6.542108 -3.390842 -1.278724 1.880790849211783e-38 1684957512
11.415784 -6.535826 -2.238438 0.000000000000000e+00 1851878480
6.352880 -2.334826 -1.278725 1.880790849211783e-38 1684957512
6.299006 -2.620864 -1.278725 1.880790849211783e-38 1684957512
6.214853 -3.222246 -1.278724 1.880790849211783e-38 1684957512
10.826599 -6.202271 -2.238438 0.000000000000000e+00 1851878480
6.070826 -2.229414 -1.278724 1.880790849211783e-38 1684957512
6.013122 -2.501010 -1.278725 1.880790849211783e-38 1684957512
5.917824 -3.069223 -1.278725 1.880790849211783e-38 1684957512
5.880210 -3.370671 -1.278725 1.880790849211783e-38 1684957512
5.811970 -2.132675 -1.278725 1.880790849211783e-38 1684957512
5.751238 -2.391216 -1.278724 1.880790849211783e-38 1684957512
5.646967 -2.929689 -1.278725 1.880790849211783e-38 1684957512
5.603246 -3.213875 -1.278724 1.880790849211783e-38 1684957512
5.573545 -2.043569 -1.278724 1.880790849211783e-38 1684957512
5.510437 -2.290263 -1.278724 1.880790849211783e-38 1684957512
5.398948 -2.801915 -1.278725 1.880790849211783e-38 1684957512
5.350268 -3.070660 -1.278725 1.880790849211783e-38 1684957512
5.353185 -1.961217 -1.278724 1.880790849211783e-38 1684957512
5.288230 -2.197106 -1.278725 1.880790849211783e-38 1684957512
5.170954 -2.684460 -1.278725 1.880790849211783e-38 1684957512
5.118248 -2.939310 -1.278725 1.880790849211783e-38 1684957512
5.148887 -1.884867 -1.278725 1.880790849211783e-38 1684957512
5.082517 -2.110861 -1.278725 1.880790849211783e-38 1684957512
4.960623 -2.576102 -1.278725 1.880790849211783e-38 1684957512
4.904655 -2.818390 -1.278725 1.880790849211783e-38 1684957512
4.958923 -1.813878 -1.278724 1.880790849211783e-38 1684957512
4.891497 -2.030779 -1.278725 1.880790849211783e-38 1684957512
4.825136 -2.506559 -1.294604 1.880790849211783e-38 1684957512
4.825136 -2.774421 -1.310722 1.880790849211783e-38 1684957512
4.825136 -1.763525 -1.290309 1.880790849211783e-38 1684957512
4.825135 -2.002486 -1.308975 1.880790849211783e-38 1684957512
4.825135 -2.507380 -1.345632 1.880790849211783e-38 1684957512
4.825136 -2.776156 -1.363693 1.880790849211783e-38 1684957512
4.825136 -1.762102 -1.336579 1.880790849211783e-38 1684957512
4.825136 -2.001744 -1.356776 1.880790849211783e-38 1684957512
4.825136 -2.508202 -1.396892 1.880790849211783e-38 1684957512
4.825135 -2.777897 -1.416915 1.880790849211783e-38 1684957512
4.825135 -1.760672 -1.383044 1.880790849211783e-38 1684957512
4.825135 -2.000996 -1.404783 1.880790849211783e-38 1684957512
4.825135 -2.509031 -1.448392 1.880790849211783e-38 1684957512
4.825136 -2.779648 -1.470398 1.880790849211783e-38 1684957512
4.825136 -1.759240 -1.429710 1.880790849211783e-38 1684957512
4.825136 -2.000245 -1.453007 1.880790849211783e-38 1684957512
4.825135 -2.509863 -1.500143 1.880790849211783e-38 1684957512
4.825135 -2.781411 -1.524153 1.880790849211783e-38 1684957512
4.825136 -1.757802 -1.476588 1.880790849211783e-38 1684957512
4.825136 -1.999492 -1.501456 1.880790849211783e-38 1684957512
4.825135 -2.510698 -1.552155 1.880790849211783e-38 1684957512
4.825135 -2.783180 -1.578189 1.880790849211783e-38 1684957512
4.825135 -1.756360 -1.523687 1.880790849211783e-38 1684957512
4.825136 -1.998735 -1.550141 1.880790849211783e-38 1684957512
4.825135 -2.511540 -1.604440 1.880790849211783e-38 1684957512
4.825136 -2.784963 -1.632521 1.880790849211783e-38 1684957512
4.825136 -1.754907 -1.571011 1.880790849211783e-38 1684957512
4.825135 -1.997972 -1.599068 1.880790849211783e-38 1684957512
4.825135 -2.512384 -1.657005 1.880790849211783e-38 1684957512
4.825136 -2.786756 -1.687156 1.880790849211783e-38 1684957512
4.825135 -1.753449 -1.618572 1.880790849211783e-38 1684957512
4.825135 -1.997208 -1.648248 1.880790849211783e-38 1684957512
4.825136 -2.513238 -1.709863 1.880790849211783e-38 1684957512
4.825136 -2.788558 -1.742106 1.880790849211783e-38 1684957512
4.825135 -1.751985 -1.666379 1.880790849211783e-38 1684957512
4.825136 -1.996439 -1.697690 1.880790849211783e-38 1684957512
4.825135 -2.514093 -1.763022 1.880790849211783e-38 1684957512
4.825135 -2.790375 -1.797384 1.880790849211783e-38 1684957512
4.825135 -1.750514 -1.714439 1.880790849211783e-38 1684957512
4.825137 -1.995668 -1.747404 1.880790849211783e-38 1684957512
4.825136 -2.514955 -1.816496 1.880790849211783e-38 1684957512
4.825136 -2.792202 -1.853002 1.880790849211783e-38 1684957512
4.825135 -1.749035 -1.762764 1.880790849211783e-38 1684957512
4.825136 -1.994887 -1.797399 1.880790849211783e-38 1684957512
4.825135 -2.515820 -1.870295 1.880790849211783e-38 1684957512
4.825137 -2.794042 -1.908972 1.880790849211783e-38 1684957512
4.825136 -1.747549 -1.811360 1.880790849211783e-38 1684957512
4.825136 -1.994108 -1.847686 1.880790849211783e-38 1684957512
4.825135 -2.516692 -1.924430 1.880790849211783e-38 1684957512
4.825137 -2.795892 -1.965303 1.880790849211783e-38 1684957512
4.825136 -1.746055 -1.860238 1.880790849211783e-38 1684957512
4.825136 -1.993323 -1.898273 1.880790849211783e-38 1684957512
4.825136 -2.517570 -1.978913 1.880790849211783e-38 1684957512
4.825137 -2.797758 -2.022012 1.880790849211783e-38 1684957512
4.825136 -1.744552 -1.909408 1.880790849211783e-38 1684957512
4.825136 -1.992532 -1.949172 1.880790849211783e-38 1684957512
4.825135 -2.518454 -2.033755 1.880790849211783e-38 1684957512
4.825137 -2.799635 -2.079108 1.880790849211783e-38 1684957512
4.825135 -1.743041 -1.958879 1.880790849211783e-38 1684957512
4.825136 -1.991735 -2.000392 1.880790849211783e-38 1684957512
4.825136 -2.519344 -2.088969 1.880790849211783e-38 1684957512
4.825137 -2.801531 -2.136609 1.880790849211783e-38 1684957512
4.825137 -1.741522 -2.008663 1.880790849211783e-38 1684957512
4.825136 -1.990937 -2.051949 1.880790849211783e-38 1684957512
4.825136 -2.520241 -2.144570 1.880790849211783e-38 1684957512
4.825136 -2.803438 -2.194525 1.880790849211783e-38 1684957512
4.825136 -1.739992 -2.058768 1.880790849211783e-38 1684957512
4.825135 -1.990130 -2.103847 1.880790849211783e-38 1684957512
4.825137 -2.521143 -2.200567 1.880790849211783e-38 1684957512
4.794225 -2.787389 -2.238438 0.000000000000000e+00 1851878480
4.825135 -1.738453 -2.109204 1.880790849211783e-38 1684957512
4.825137 -1.989321 -2.156101 1.880790849211783e-38 1684957512
4.785507 -2.501341 -2.238438 0.000000000000000e+00 1851878480
4.672302 -2.718377 -2.238438 0.000000000000000e+00 1851878480
4.825136 -1.736906 -2.159985 1.880790849211783e-38 1684957512
4.825135 -1.988503 -2.208720 1.880790849211783e-38 1684957512
4.667969 -2.440788 -2.238438 0.000000000000000e+00 1851878480
4.555544 -2.652292 -2.238438 0.000000000000000e+00 1851878480
4.825136 -1.735350 -2.211120 1.880790849211783e-38 1684957512
4.775466 -1.967222 -2.238438 0.000000000000000e+00 1851878480
4.555224 -2.382709 -2.238438 0.000000000000000e+00 1851878480
4.443616 -2.588939 -2.238438 0.000000000000000e+00 1851878480
4.773565 -1.715247 -2.238438 0.000000000000000e+00 1851878480
4.665335 -1.921054 -2.238438 0.000000000000000e+00 1851878480
4.446967 -2.326941 -2.238438 0.000000000000000e+00 1851878480
4.336201 -2.528143 -2.238438 0.000000000000000e+00 1851878480
4.666571 -1.675275 -2.238438 0.000000000000000e+00 1851878480
4.559396 -1.876642 -2.238438 0.000000000000000e+00 1851878480
4.342924 -2.273346 -2.238438 0.000000000000000e+00 1851878480
4.233023 -2.469745 -2.238438 0.000000000000000e+00 1851878480
4.563518 -1.636774 -2.238437 0.000000000000000e+00 1851878480
4.457396 -1.833883 -2.238438 0.000000000000000e+00 1851878480
4.242838 -2.221788 -2.238438 0.000000000000000e+00 1851878480
4.133819 -2.413598 -2.238438 0.000000000000000e+00 1851878480
4.464176 -1.599664 -2.238438 0.000000000000000e+00 1851878480
4.359104 -1.792678 -2.238438 0.000000000000000e+00 1851878480
4.146471 -2.172143 -2.238438 0.000000000000000e+00 1851878480
4.038345 -2.359563 -2.238438 0.000000000000000e+00 1851878480
4.368337 -1.563859 -2.238437 0.000000000000000e+00 1851878480
4.264308 -1.752939 -2.238438 0.000000000000000e+00 1851878480
4.053603 -2.124304 -2.238438 0.000000000000000e+00 1851878480
3.946381 -2.307513 -2.238438 0.000000000000000e+00 1851878480
4.275805 -1.529293 -2.238437 0.000000000000000e+00 1851878480
4.172813 -1.714584 -2.238438 0.000000000000000e+00 1851878480
3.964037 -2.078167 -2.238438 0.000000000000000e+00 1851878480
3.857726 -2.257339 -2.238438 0.000000000000000e+00 1851878480
4.186401 -1.495893 -2.238438 0.000000000000000e+00 1851878480
4.084437 -1.677536 -2.238438 0.000000000000000e+00 1851878480
3.877585 -2.033633 -2.238438 0.000000000000000e+00 1851878480
3.772191 -2.208929 -2.238438 0.000000000000000e+00 1851878480
4.099954 -1.463601 -2.238438 0.000000000000000e+00 1851878480
3.999008 -1.641725 -2.238437 0.000000000000000e+00 1851878480
3.794075 -1.990616 -2.238438 0.000000000000000e+00 1851878480
3.689599 -2.162189 -2.238438 0.000000000000000e+00 1851878480
4.016308 -1.432354 -2.238438 0.000000000000000e+00 1851878480
3.916371 -1.607084 -2.238438 0.000000000000000e+00 1851878480
3.713349 -1.949031 -2.238438 0.000000000000000e+00 1851878480
3.609790 -2.117022 -2.238438 0.000000000000000e+00 1851878480
4.006151 -1.427338 -2.278728 0.000000000000000e+00 1634890835
3.836380 -1.573551 -2.238438 0.000000000000000e+00 1851878480
3.635253 -1.908803 -2.238437 0.000000000000000e+00 1851878480
3.532612 -2.073345 -2.238438 0.000000000000000e+00 1851878480
3.926266 -1.397497 -2.278728 0.000000000000000e+00 1634890835
3.758893 -1.541070 -2.238438 0.000000000000000e+00 1851878480
3.559654 -1.869857 -2.238438 0.000000000000000e+00 1851878480
3.457926 -2.031078 -2.238438 0.000000000000000e+00 1851878480
3.848820 -1.368569 -2.278728 0.000000000000000e+00 1634890835
3.683792 -1.509588 -2.238438 0.000000000000000e+00 1851878480
3.486421 -1.832134 -2.238438 0.000000000000000e+00 1851878480
3.385602 -1.990149 -2.238438 0.000000000000000e+00 1851878480
3.773688 -1.340507 -2.278728 0.000000000000000e+00 1634890835
3.610950 -1.479055 -2.238438 0.000000000000000e+00 1851878480
3.415433 -1.795569 -2.238438 0.000000000000000e+00 1851878480
3.315519 -1.950489 -2.238438 0.000000000000000e+00 1851878480
3.700760 -1.313267 -2.278728 0.000000000000000e+00 1634890835
3.540261 -1.449423 -2.238438 0.000000000000000e+00 1851878480
3.346579 -1.760101 -2.238438 0.000000000000000e+00 1851878480
3.247563 -1.912036 -2.238438 0.000000000000000e+00 1851878480
3.629926 -1.286811 -2.278729 0.000000000000000e+00 1634890835
3.471619 -1.420647 -2.238438 0.000000000000000e+00 1851878480
3.279752 -1.725677 -2.238438 0.000000000000000e+00 1851878480
3.181629 -1.874723 -2.238437 0.000000000000000e+00 1851878480
3.561092 -1.261101 -2.278728 0.000000000000000e+00 1634890835
3.466213 -1.417760 -2.278728 0.000000000000000e+00 1634890835
3.214857 -1.692249 -2.238438 0.000000000000000e+00 1851878480
3.117619 -1.838501 -2.238438 0.000000000000000e+00 1851878480
3.494164 -1.236102 -2.278728 0.000000000000000e+00 1634890835
3.400214 -1.390093 -2.278728 0.000000000000000e+00 1634890835
3.151800 -1.659767 -2.238438 0.000000000000000e+00 1851878480
3.055439 -1.803316 -2.238438 0.000000000000000e+00 1851878480
3.429053 -1.211786 -2.278728 0.000000000000000e+00 1634890835
3.336019 -1.363183 -2.278728 0.000000000000000e+00 1634890835
3.090495 -1.628188 -2.238437 0.000000000000000e+00 1851878480
2.995003 -1.769118 -2.238438 0.000000000000000e+00 1851878480
3.365677 -1.188118 -2.278728 0.000000000000000e+00 1634890835
3.273545 -1.336997 -2.278729 0.000000000000000e+00 1634890835
3.030861 -1.597471 -2.238438 0.000000000000000e+00 1851878480
2.936229 -1.735860 -2.238438 0.000000000000000e+00 1851878480
3.303958 -1.165065 -2.278728 0.000000000000000e+00 1634890835
3.212715 -1.311498 -2.278728 0.000000000000000e+00 1634890835
2.972820 -1.567573 -2.238438 0.000000000000000e+00 1851878480
2.879037 -1.703498 -2.238437 0.000000000000000e+00 1851878480
3.243825 -1.142609 -2.278729 0.000000000000000e+00 1634890835
3.153458 -1.286659 -2.278728 0.000000000000000e+00 1634890835
2.916301 -1.538460 -2.238438 0.000000000000000e+00 1851878480
2.823361 -1.671995 -2.238437 0.000000000000000e+00 1851878480
3.185207 -1.120718 -2.278728 0.000000000000000e+00 1634890835
3.095705 -1.262450 -2.278728 0.000000000000000e+00 1634890835
2.861239 -1.510097 -2.238438 0.000000000000000e+00 1851878480
2.769130 -1.641311 -2.238438 0.000000000000000e+00 1851878480
3.128044 -1.099369 -2.278728 0.000000000000000e+00 1634890835
3.039390 -1.238846 -2.278728 0.000000000000000e+00 1634890835
2.807567 -1.482452 -2.238437 0.000000000000000e+00 1851878480
2.716283 -1.611408 -2.238438 0.000000000000000e+00 1851878480
3.072268 -1.078541 -2.278728 0.000000000000000e+00 1634890835
2.984453 -1.215817 -2.278729 0.000000000000000e+00 1634890835
2.755227 -1.455490 -2.238438 0.000000000000000e+00 1851878480
0.840391 -0.499000 -0.705943 0.000000000000000e+00 1886740808
3.017824 -1.058209 -2.278728 0.000000000000000e+00 1634890835
2.930834 -1.193341 -2.278728 0.000000000000000e+00 1634890835
2.704159 -1.429187 -2.238438 0.000000000000000e+00 1851878480
0.824539 -0.490030 -0.705943 0.000000000000000e+00 1886740808
2.964658 -1.038357 -2.278728 0.000000000000000e+00 1634890835
2.878480 -1.171398 -2.278728 0.000000000000000e+00 1634890835
0.837099 -0.442630 -0.705943 0.000000000000000e+00 1886740808
0.809069 -0.481278 -0.705943 0.000000000000000e+00 1886740808
2.912718 -1.018962 -2.278729 0.000000000000000e+00 1634890835
2.827341 -1.149960 -2.278729 0.000000000000000e+00 1634890835
0.821748 -0.434722 -0.705943 0.000000000000000e+00 1886740808
0.793966 -0.472733 -0.705943 0.000000000000000e+00 1886740808
2.861954 -1.000006 -2.278728 0.000000000000000e+00 1634890835
2.777365 -1.129013 -2.278728 0.000000000000000e+00 1634890835
0.806751 -0.426998 -0.705943 0.000000000000000e+00 1886740808
0.779213 -0.464386 -0.705943 0.000000000000000e+00 1886740808
2.812319 -0.981474 -2.278728 0.000000000000000e+00 1634890835
2.728506 -1.108534 -2.278728 0.000000000000000e+00 1634890835
0.792093 -0.419448 -0.705943 0.000000000000000e+00 1886740808
0.764796 -0.456230 -0.705943 0.000000000000000e+00 1886740808
2.763768 -0.963344 -2.278728 0.000000000000000e+00 1634890835
0.830478 -0.337215 -0.705943 0.000000000000000e+00 1886740808
0.777761 -0.412066 -0.705943 0.000000000000000e+00 1886740808
0.750702 -0.448256 -0.705943 0.000000000000000e+00 1886740808
0.841489 -0.292945 -0.705943 0.000000000000000e+00 1886740808
0.815994 -0.331144 -0.705943 0.000000000000000e+00 1886740808
0.763743 -0.404845 -0.705943 0.000000000000000e+00 1886740808
0.744297 -0.444868 -0.713011 0.000000000000000e+00 1886740808
0.827082 -0.287567 -0.705943 0.000000000000000e+00 1886740808
0.801817 -0.325201 -0.705943 0.000000000000000e+00 1886740808
0.750025 -0.397779 -0.705943 0.000000000000000e+00 1886740808
0.744297 -0.445312 -0.726303 0.000000000000000e+00 1886740808
0.812974 -0.282300 -0.705943 0.000000000000000e+00 1886740808
0.787936 -0.319383 -0.705943 0.000000000000000e+00 1886740808
0.744297 -0.394949 -0.713323 0.000000000000000e+00 1886740808
0.744297 -0.445763 -0.739802 0.000000000000000e+00 1886740808
0.799154 -0.277139 -0.705943 0.000000000000000e+00 1886740808
0.774338 -0.313684 -0.705943 0.000000000000000e+00 1886740808
0.744297 -0.395159 -0.726290 0.000000000000000e+00 1886740808
0.744297 -0.446221 -0.753515 0.000000000000000e+00 1886740808
0.785611 -0.272084 -0.705943 0.000000000000000e+00 1886740808
0.761015 -0.308099 -0.705943 0.000000000000000e+00 1886740808
0.744297 -0.395373 -0.739459 0.000000000000000e+00 1886740808
0.744297 -0.446686 -0.767449 0.000000000000000e+00 1886740808
0.772335 -0.267127 -0.705943 0.000000000000000e+00 1886740808
0.747955 -0.302626 -0.705942 0.000000000000000e+00 1886740808
0.744297 -0.395591 -0.752836 0.000000000000000e+00 1886740808
0.744297 -0.447159 -0.781612 0.000000000000000e+00 1886740808
0.759316 -0.262267 -0.705943 0.000000000000000e+00 1886740808
0.744297 -0.300957 -0.714727 0.000000000000000e+00 1886740808
0.744297 -0.395811 -0.766428 0.000000000000000e+00 1886740808
0.744297 -0.447640 -0.796012 0.000000000000000e+00 1886740808
0.746545 -0.257499 -0.705943 0.000000000000000e+00 1886740808
0.744297 -0.300766 -0.727151 0.000000000000000e+00 1886740808
0.744297 -0.396036 -0.780243 0.000000000000000e+00 1886740808
2.092195 -1.259679 -2.278729 0.000000000000000e+00 1634890835
0.744297 -0.256362 -0.715833 0.000000000000000e+00 1886740808
0.744297 -0.300571 -0.739769 0.000000000000000e+00 1886740808
0.744297 -0.396264 -0.794290 0.000000000000000e+00 1886740808
2.054436 -1.238320 -2.278729 0.000000000000000e+00 1634890835
0.744297 -0.255997 -0.728035 0.000000000000000e+00 1886740808
0.744297 -0.300374 -0.752588 0.000000000000000e+00 1886740808
2.097581 -1.117406 -2.278729 0.000000000000000e+00 1634890835
2.017384 -1.217362 -2.278729 0.000000000000000e+00 1634890835
0.744297 -0.255624 -0.740426 0.000000000000000e+00 1886740808
0.744297 -0.300173 -0.765613 0.000000000000000e+00 1886740808
2.060547 -1.098332 -2.278729 0.000000000000000e+00 1634890835
0.796275 -0.481053 -0.915942 0.000000000000000e+00 1886740808
0.744297 -0.255247 -0.753015 0.000000000000000e+00 1886740808
0.744297 -0.299970 -0.778853 0.000000000000000e+00 1886740808
2.024179 -1.079600 -2.278729 0.000000000000000e+00 1634890835
0.784636 -0.474577 -0.919124 0.000000000000000e+00 1886740808
0.744297 -0.254863 -0.765808 0.000000000000000e+00 1886740808
0.744297 -0.299763 -0.792313 0.000000000000000e+00 1886740808
1.988455 -1.061200 -2.278729 0.000000000000000e+00 1634890835
0.775674 -0.469714 -0.925310 0.000000000000000e+00 1886740808
0.744297 -0.254474 -0.778813 0.000000000000000e+00 1886740808
2.104275 -0.846892 -2.278729 0.000000000000000e+00 1634890835
0.797388 -0.425818 -0.930214 0.000000000000000e+00 1886740808
0.768824 -0.466131 -0.933991 0.000000000000000e+00 1886740808
0.744297 -0.254077 -0.792034 0.000000000000000e+00 1886740808
2.068532 -0.831913 -2.278729 0.000000000000000e+00 1634890835
0.785519 -0.419748 -0.932845 0.000000000000000e+00 1886740808
0.764551 -0.464112 -0.945881 0.000000000000000e+00 1886740808
0.744297 -0.253674 -0.805481 0.000000000000000e+00 1886740808
2.033386 -0.817182 -2.278729 0.000000000000000e+00 1634890835
0.776432 -0.415161 -0.938649 0.000000000000000e+00 1886740808
1.808584 -1.099260 -2.278729 0.000000000000000e+00 1634890835
2.070474 -0.704527 -2.278729 0.000000000000000e+00 1634890835
1.998816 -0.802693 -2.278729 0.000000000000000e+00 1634890835
0.769418 -0.411685 -0.946932 0.000000000000000e+00 1886740808
1.775832 -1.080736 -2.278729 0.000000000000000e+00 1634890835
2.035874 -0.691613 -2.278729 0.000000000000000e+00 1634890835
1.964802 -0.788436 -2.278729 0.000000000000000e+00 1634890835
0.764806 -0.409493 -0.958245 0.000000000000000e+00 1886740808
0.749057 -0.456456 -0.978943 0.000000000000000e+00 1886740808
2.001820 -0.678902 -2.278729 0.000000000000000e+00 1634890835
1.931326 -0.774406 -2.278729 0.000000000000000e+00 1634890835
0.767174 -0.411043 -0.978593 0.000000000000000e+00 1886740808
1.711909 -1.044582 -2.278729 0.000000000000000e+00 1634890835
1.968295 -0.666390 -2.278729 0.000000000000000e+00 1634890835
0.797682 -0.319597 -0.957506 0.000000000000000e+00 1886740808
1.754624 -0.940769 -2.278729 0.000000000000000e+00 1634890835
1.680702 -1.026933 -2.278729 0.000000000000000e+00 1634890835
1.935282 -0.654069 -2.278729 0.000000000000000e+00 1634890835
0.785811 -0.314588 -0.959662 0.000000000000000e+00 1886740808
0.751062 -0.402982 -0.993125 0.000000000000000e+00 1886740808
1.649977 -1.009557 -2.278729 0.000000000000000e+00 1634890835
1.902764 -0.641933 -2.278729 0.000000000000000e+00 1634890835
0.776732 -0.310699 -0.965106 0.000000000000000e+00 1886740808
1.692480 -0.908760 -2.278729 0.000000000000000e+00 1634890835
1.619718 -0.992443 -2.278729 0.000000000000000e+00 1634890835
0.796758 -0.268312 -0.970530 0.000000000000000e+00 1886740808
0.769656 -0.307612 -0.973023 0.000000000000000e+00 1886740808
1.662099 -0.893114 -2.278729 0.000000000000000e+00 1634890835
1.589908 -0.975585 -2.278729 0.000000000000000e+00 1634890835
0.785169 -0.263918 -0.972832 0.000000000000000e+00 1886740808
0.764880 -0.305443 -0.983926 0.000000000000000e+00 1886740808
1.632163 -0.877696 -2.278729 0.000000000000000e+00 1634890835
1.560535 -0.958974 -2.278729 0.000000000000000e+00 1634890835
0.776223 -0.260416 -0.978304 0.000000000000000e+00 1886740808
0.765621 -0.305472 -1.002185 0.000000000000000e+00 1886740808
1.602655 -0.862499 -2.278729 0.000000000000000e+00 1634890835
1.531583 -0.942601 -2.278729 0.000000000000000e+00 1634890835
0.769283 -0.257587 -0.986298 0.000000000000000e+00 1886740808
1.710674 -0.681929 -2.278729 0.000000000000000e+00 1634890835
1.573562 -0.847514 -2.278729 0.000000000000000e+00 1634890835
1.503039 -0.926459 -2.278729 0.000000000000000e+00 1634890835
0.764663 -0.255533 -0.997358 0.000000000000000e+00 1886740808
1.680926 -0.669463 -2.278729 0.000000000000000e+00 1634890835
1.544871 -0.832738 -2.278729 0.000000000000000e+00 1634890835
1.474891 -0.910541 -2.278729 0.000000000000000e+00 1634890835
0.766230 -0.255536 -1.016778 0.000000000000000e+00 1886740808
0.744047 -0.296057 -1.026581 0.000000000000000e+00 1886740808
1.516569 -0.818162 -2.278729 0.000000000000000e+00 1634890835
1.447126 -0.894839 -2.278729 0.000000000000000e+00 1634890835
1.687760 -0.561696 -2.278729 0.000000000000000e+00 1634890835
1.622625 -0.645029 -2.278729 0.000000000000000e+00 1634890835
1.488644 -0.803779 -2.278729 0.000000000000000e+00 1634890835
1.419729 -0.879348 -2.278729 0.000000000000000e+00 1634890835
0.752067 -0.249760 -1.033202 0.000000000000000e+00 1886740808
1.594049 -0.633053 -2.278729 0.000000000000000e+00 1634890835
1.461084 -0.789588 -2.278729 0.000000000000000e+00 1634890835
1.392693 -0.864061 -2.278729 0.000000000000000e+00 1634890835
1.629984 -0.540138 -2.278729 0.000000000000000e+00 1634890835
1.565839 -0.621229 -2.278729 0.000000000000000e+00 1634890835
1.433879 -0.775576 -2.278729 0.000000000000000e+00 1634890835
1.366006 -0.848969 -2.278729 0.000000000000000e+00 1634890835
1.601643 -0.529564 -2.278729 0.000000000000000e+00 1634890835
1.537983 -0.609556 -2.278729 0.000000000000000e+00 1634890835
1.407016 -0.761741 -2.278729 0.000000000000000e+00 1634890835
1.339655 -0.834068 -2.278729 0.000000000000000e+00 1634890835
1.573653 -0.519120 -2.278729 0.000000000000000e+00 1634890835
1.510472 -0.598027 -2.278729 0.000000000000000e+00 1634890835
1.380486 -0.748078 -2.278729 0.000000000000000e+00 1634890835
1.313629 -0.819352 -2.278729 0.000000000000000e+00 1634890835
1.546006 -0.508803 -2.278729 0.000000000000000e+00 1634890835
1.483297 -0.586637 -2.278729 0.000000000000000e+00 1634890835
1.354278 -0.734581 -2.278729 0.000000000000000e+00 1634890835
1.287922 -0.804816 -2.278729 0.000000000000000e+00 1634890835
1.518687 -0.498610 -2.278729 0.000000000000000e+00 1634890835
1.456445 -0.575383 -2.278729 0.000000000000000e+00 1634890835
1.328384 -0.721245 -2.278729 0.000000000000000e+00 1634890835
1.262521 -0.790453 -2.278729 0.000000000000000e+00 1634890835
1.491690 -0.488535 -2.278729 0.000000000000000e+00 1634890835
1.429908 -0.564262 -2.278729 0.000000000000000e+00 1634890835
1.302792 -0.708065 -2.278729 0.000000000000000e+00 1634890835
1.237418 -0.776259 -2.278729 0.000000000000000e+00 1634890835
1.465002 -0.478579 -2.278729 0.000000000000000e+00 1634890835
1.403675 -0.553269 -2.278729 0.000000000000000e+00 1634890835
1.277494 -0.695036 -2.278729 0.000000000000000e+00 1634890835
1.212602 -0.762228 -2.278729 0.000000000000000e+00 1634890835
1.438617 -0.468735 -2.278729 0.000000000000000e+00 1634890835
1.377739 -0.542400 -2.278729 0.000000000000000e+00 1634890835
1.252481 -0.682154 -2.278729 0.000000000000000e+00 1634890835
1.188067 -0.748354 -2.278729 0.000000000000000e+00 1634890835
1.412524 -0.458999 -2.278729 0.000000000000000e+00 1634890835
1.352089 -0.531650 -2.278729 0.000000000000000e+00 1634890835
1.227744 -0.669414 -2.278729 0.000000000000000e+00 1634890835
1.163802 -0.734634 -2.278729 0.000000000000000e+00 1634890835
1.386715 -0.449371 -2.278729 0.000000000000000e+00 1634890835
1.326718 -0.521018 -2.278729 0.000000000000000e+00 1634890835
1.203276 -0.656814 -2.278729 0.000000000000000e+00 1634890835
1.139800 -0.721065 -2.278729 0.000000000000000e+00 1634890835
1.361182 -0.439845 -2.278729 0.000000000000000e+00 1634890835
1.301618 -0.510498 -2.278729 0.000000000000000e+00 1634890835
1.179067 -0.644346 -2.278729 0.000000000000000e+00 1634890835
1.116053 -0.707639 -2.278729 0.000000000000000e+00 1634890835
1.335916 -0.430417 -2.278729 0.000000000000000e+00 1634890835
1.276780 -0.500089 -2.278729 0.000000000000000e+00 1634890835
1.155111 -0.632010 -2.278729 0.000000000000000e+00 1634890835
1.092554 -0.694351 -2.278729 0.000000000000000e+00 1634890835
1.310910 -0.421088 -2.278729 0.000000000000000e+00 1634890835
1.252197 -0.489786 -2.278729 0.000000000000000e+00 1634890835
1.131399 -0.619797 -2.278729 0.000000000000000e+00 1634890835
1.069294 -0.681201 -2.278729 0.000000000000000e+00 1634890835
1.286157 -0.411854 -2.278729 0.000000000000000e+00 1634890835
1.227861 -0.479588 -2.278729 0.000000000000000e+00 1634890835
1.107925 -0.607708 -2.278729 0.000000000000000e+00 1634890835
1.046267 -0.668182 -2.278729 0.000000000000000e+00 1634890835
1.261649 -0.402711 -2.278729 0.000000000000000e+00 1634890835
1.203765 -0.469490 -2.278729 0.000000000000000e+00 1634890835
1.084681 -0.595737 -2.278729 0.000000000000000e+00 1634890835
1.023465 -0.655290 -2.278729 0.000000000000000e+00 1634890835
1.237377 -0.393657 -2.278729 0.000000000000000e+00 1634890835
1.179901 -0.459490 -2.278729 0.000000000000000e+00 1634890835
1.061659 -0.583882 -2.278729 0.000000000000000e+00 1634890835
1.000881 -0.642522 -2.278729 0.000000000000000e+00 1634890835
1.213338 -0.384688 -2.278729 0.000000000000000e+00 1634890835
1.156263 -0.449585 -2.278729 0.000000000000000e+00 1634890835
1.038855 -0.572138 -2.278729 0.000000000000000e+00 1634890835
0.978511 -0.629875 -2.278729 0.000000000000000e+00 1634890835
1.189522 -0.375803 -2.278729 0.000000000000000e+00 1634890835
1.132845 -0.439771 -2.278729 0.000000000000000e+00 1634890835
1.016261 -0.560502 -2.278729 0.000000000000000e+00 1634890835
0.956344 -0.617344 -2.278729 0.000000000000000e+00 1634890835
1.165922 -0.366999 -2.278729 0.000000000000000e+00 1634890835
1.109638 -0.430046 -2.278729 0.000000000000000e+00 1634890835
0.993870 -0.548971 -2.278729 0.000000000000000e+00 1634890835
0.934378 -0.604924 -2.278729 0.000000000000000e+00 1634890835
1.142534 -0.358274 -2.278729 0.000000000000000e+00 1634890835
1.086639 -0.420407 -2.278729 0.000000000000000e+00 1634890835
0.971677 -0.537542 -2.278729 0.000000000000000e+00 1634890835
0.912605 -0.592614 -2.278729 0.000000000000000e+00 1634890835
1.119350 -0.349626 -2.278729 0.000000000000000e+00 1634890835
1.063840 -0.410853 -2.278729 0.000000000000000e+00 1634890835
0.949676 -0.526211 -2.278729 0.000000000000000e+00 1634890835
0.891019 -0.580411 -2.278729 0.000000000000000e+00 1634890835
1.096365 -0.341051 -2.278729 0.000000000000000e+00 1634890835
1.041234 -0.401380 -2.278729 0.000000000000000e+00 1634890835
0.927859 -0.514976 -2.278729 0.000000000000000e+00 1634890835
0.869614 -0.568310 -2.278729 0.000000000000000e+00 1634890835
1.073572 -0.332550 -2.278729 0.000000000000000e+00 1634890835
1.018818 -0.391986 -2.278729 0.000000000000000e+00 1634890835
0.906223 -0.503835 -2.278729 0.000000000000000e+00 1634890835
0.848385 -0.556309 -2.278729 0.000000000000000e+00 1634890835
1.050967 -0.324117 -2.278729 0.000000000000000e+00 1634890835
0.996583 -0.382669 -2.278729 0.000000000000000e+00 1634890835
0.884762 -0.492782 -2.278729 0.000000000000000e+00 1634890835
0.827327 -0.544404 -2.278729 0.000000000000000e+00 1634890835
1.028543 -0.315753 -2.278729 0.000000000000000e+00 1634890835
0.974528 -0.373425 -2.278729 0.000000000000000e+00 1634890835
0.863470 -0.481817 -2.278729 0.000000000000000e+00 1634890835
0.451009 -0.297859 -1.274408 0.000000000000000e+00 1936876886
1.006295 -0.307453 -2.278728 0.000000000000000e+00 1634890835
0.952642 -0.364254 -2.278729 0.000000000000000e+00 1634890835
0.842341 -0.470937 -2.278729 0.000000000000000e+00 1634890835
0.433311 -0.287260 -1.256711 0.000000000000000e+00 1936876886
0.984218 -0.299219 -2.278729 0.000000000000000e+00 1634890835
0.930924 -0.355153 -2.278729 0.000000000000000e+00 1634890835
0.821372 -0.460138 -2.278729 0.000000000000000e+00 1634890835
0.421227 -0.280354 -1.254519 0.000000000000000e+00 1936876886
0.962306 -0.291044 -2.278729 0.000000000000000e+00 1634890835
0.909367 -0.346119 -2.278729 0.000000000000000e+00 1634890835
0.445940 -0.250343 -1.269339 0.000000000000000e+00 1936876886
0.335121 -0.223967 -1.025454 0.000000000000000e+00 1953264973
0.940554 -0.282931 -2.278729 0.000000000000000e+00 1634890835
0.887966 -0.337151 -2.278729 0.000000000000000e+00 1634890835
0.428905 -0.241307 -1.253204 0.000000000000000e+00 1936876886
0.306467 -0.205700 -0.964028 0.000000000000000e+00 1953264973
0.495093 -0.148090 -1.227676 0.000000000000000e+00 1936876886
0.866718 -0.328247 -2.278729 0.000000000000000e+00 1634890835
0.358548 -0.202185 -1.075940 0.000000000000000e+00 1953264973
0.281218 -0.189605 -0.909903 0.000000000000000e+00 1953264973
0.483540 -0.143780 -1.227676 0.000000000000000e+00 1936876886
0.845616 -0.319403 -2.278729 0.000000000000000e+00 1634890835
0.326689 -0.184660 -1.007377 0.000000000000000e+00 1953264973
0.258797 -0.175312 -0.861841 0.000000000000000e+00 1953264973
0.472064 -0.139500 -1.227676 0.000000000000000e+00 1936876886
0.824656 -0.310620 -2.278729 0.000000000000000e+00 1634890835
0.299049 -0.169461 -0.948126 0.000000000000000e+00 1953264973
0.238751 -0.162534 -0.818870 0.000000000000000e+00 1953264973
