# .PCD v0.7 - Point Cloud Data file format
VERSION 0.7
FIELDS x y z rgb label
SIZE 4 4 4 4 4
TYPE F F F F U
COUNT 1 1 1 1 1
WIDTH 540
HEIGHT 1
VIEWPOINT 0 0 0 1 0 0 0
POINTS 540
DATA ascii
40.703804 -20.809130 10.081401 0.000000000000000e+00 1954047316
39.735481 -22.174625 9.992840 0.000000000000000e+00 1954047316
31.398571 -16.198092 -1.384815 0.000000000000000e+00 1851878480
30.156029 -17.111441 -1.186433 0.000000000000000e+00 1851878480
31.817238 -11.829154 -2.021483 0.000000000000000e+00 1851878480
30.652967 -12.821985 -1.868675 0.000000000000000e+00 1851878480
28.663385 -14.791607 -1.549982 0.000000000000000e+00 1851878480
27.769053 -15.766292 -1.378997 0.000000000000000e+00 1851878480
28.867744 -10.724439 -2.096342 0.000000000000000e+00 1851878480
28.034418 -11.722573 -1.971493 0.000000000000000e+00 1851878480
27.031042 -13.953571 -1.731514 0.000000000000000e+00 1851878480
26.346790 -14.967608 -1.580477 0.000000000000000e+00 1851878480
26.703650 -9.912934 -2.181999 0.000000000000000e+00 1851878480
26.332325 -11.006970 -2.098551 0.000000000000000e+00 1851878480
25.718502 -13.280143 -1.904440 0.000000000000000e+00 1851878480
24.978773 -14.198802 -1.756729 0.000000000000000e+00 1851878480
24.425272 -9.060264 -2.218161 0.000000000000000e+00 1851878480
24.636652 -10.294558 -2.194546 0.000000000000000e+00 1851878480
23.907768 -12.348960 -2.009586 0.000000000000000e+00 1851878480
23.547279 -13.393017 -1.899924 0.000000000000000e+00 1851878480
22.306335 -8.267967 -2.229016 0.000000000000000e+00 1851878480
22.560072 -9.423542 -2.221490 0.000000000000000e+00 1851878480
22.261631 -11.502271 -2.094305 0.000000000000000e+00 1851878480
21.962875 -12.499245 -1.999906 0.000000000000000e+00 1851878480
20.525482 -7.602087 -2.238359 0.000000000000000e+00 1851878480
20.603432 -8.603198 -2.222629 0.000000000000000e+00 1851878480
20.606302 -10.650285 -2.145408 0.000000000000000e+00 1851878480
20.268375 -11.541737 -2.056220 0.000000000000000e+00 1851878480
18.970865 -7.020930 -2.242199 0.000000000000000e+00 1851878480
19.030560 -7.943626 -2.232253 0.000000000000000e+00 1851878480
19.257490 -9.956263 -2.198621 0.000000000000000e+00 1851878480
18.831596 -10.729934 -2.106522 0.000000000000000e+00 1851878480
17.583063 -6.502332 -2.239125 0.000000000000000e+00 1851878480
17.631439 -7.357011 -2.234544 0.000000000000000e+00 1851878480
17.742167 -9.175691 -2.204374 0.000000000000000e+00 1851878480
17.604534 -10.036745 -2.152932 0.000000000000000e+00 1851878480
16.351238 -6.042156 -2.232205 0.000000000000000e+00 1851878480
16.462545 -6.866843 -2.242071 0.000000000000000e+00 1851878480
16.512066 -8.542194 -2.218257 0.000000000000000e+00 1851878480
16.555082 -9.444059 -2.197704 0.000000000000000e+00 1851878480
8.829635 -3.260246 -1.286512 1.880790849211783e-38 1684957512
15.391348 -6.417742 -2.242014 0.000000000000000e+00 1851878480
15.425090 -7.982366 -2.228323 0.000000000000000e+00 1851878480
15.378403 -8.778052 -2.202690 0.000000000000000e+00 1851878480
8.192444 -3.022635 -1.269098 1.880790849211783e-38 1684957512
8.241006 -3.435036 -1.278697 1.880790849211783e-38 1684957512
14.479388 -7.495327 -2.238583 0.000000000000000e+00 1851878480
14.441172 -8.248016 -2.220207 0.000000000000000e+00 1851878480
7.820363 -2.883127 -1.283622 1.880790849211783e-38 1684957512
7.795470 -3.248171 -1.283762 1.880790849211783e-38 1684957512
13.597941 -7.041262 -2.240601 0.000000000000000e+00 1851878480
13.544248 -7.740389 -2.225036 0.000000000000000e+00 1851878480
7.396543 -2.724766 -1.282471 1.880790849211783e-38 1684957512
7.401551 -3.082930 -1.289514 1.880790849211783e-38 1684957512
12.840084 -6.650928 -2.246671 0.000000000000000e+00 1851878480
12.821739 -7.331897 -2.241845 0.000000000000000e+00 1851878480
7.451073 -2.742719 -1.361020 1.880790849211783e-38 1684957512
7.395910 -3.079481 -1.359287 1.880790849211783e-38 1684957512
12.145782 -6.293287 -2.249415 0.000000000000000e+00 1851878480
12.089541 -6.917385 -2.241981 0.000000000000000e+00 1851878480
7.418421 -2.728572 -1.424030 1.880790849211783e-38 1684957512
7.386651 -3.074518 -1.428449 1.880790849211783e-38 1684957512
11.477836 -5.949080 -2.243465 0.000000000000000e+00 1851878480
11.443400 -6.551637 -2.243853 0.000000000000000e+00 1851878480
7.400865 -2.719984 -1.489666 1.880790849211783e-38 1684957512
7.441156 -3.096085 -1.510586 1.880790849211783e-38 1684957512
10.873965 -5.637878 -2.237351 0.000000000000000e+00 1851878480
10.822499 -6.199922 -2.237591 0.000000000000000e+00 1851878480
7.399869 -2.717484 -1.558667 1.880790849211783e-38 1684957512
7.453656 -3.100164 -1.585062 1.880790849211783e-38 1684957512
10.411998 -5.400084 -2.249826 0.000000000000000e+00 1851878480
10.316568 -5.913693 -2.243466 0.000000000000000e+00 1851878480
7.414269 -2.720631 -1.631255 1.880790849211783e-38 1684957512
7.403235 -3.078074 -1.646028 1.880790849211783e-38 1684957512
9.934229 -5.153953 -2.249552 0.000000000000000e+00 1851878480
9.826398 -5.636164 -2.242496 0.000000000000000e+00 1851878480
7.382092 -2.706682 -1.693655 1.880790849211783e-38 1684957512
7.424598 -3.085832 -1.722915 1.880790849211783e-38 1684957512
9.456597 -4.907731 -2.239767 0.000000000000000e+00 1851878480
9.366019 -5.375405 -2.238497 0.000000000000000e+00 1851878480
7.384504 -2.705421 -1.763949 1.880790849211783e-38 1684957512
7.400697 -3.074774 -1.789531 1.880790849211783e-38 1684957512
9.108986 -4.728858 -2.252560 0.000000000000000e+00 1851878480
8.960041 -5.145576 -2.238544 0.000000000000000e+00 1851878480
7.425508 -2.718275 -1.844123 1.880790849211783e-38 1684957512
7.385017 -3.067131 -1.858017 1.880790849211783e-38 1684957512
8.669209 -4.502009 -2.234705 0.000000000000000e+00 1851878480
8.608361 -4.946672 -2.244342 0.000000000000000e+00 1851878480
7.448877 -2.724654 -1.920792 1.880790849211783e-38 1684957512
7.419458 -3.080301 -1.939579 1.880790849211783e-38 1684957512
8.400330 -4.363799 -2.253844 0.000000000000000e+00 1851878480
8.290956 -4.767245 -2.252194 0.000000000000000e+00 1851878480
7.423758 -2.713288 -1.985216 1.880790849211783e-38 1684957512
7.427644 -3.082558 -2.014991 1.880790849211783e-38 1684957512
8.065938 -4.191463 -2.249425 0.000000000000000e+00 1851878480
7.916893 -4.555007 -2.237494 0.000000000000000e+00 1851878480
7.435068 -2.715229 -2.059540 1.880790849211783e-38 1684957512
7.395249 -3.067975 -2.079464 1.880790849211783e-38 1684957512
7.764905 -4.036352 -2.247964 0.000000000000000e+00 1851878480
7.666080 -4.413467 -2.251167 0.000000000000000e+00 1851878480
7.438597 -2.714314 -2.132148 1.880790849211783e-38 1684957512
7.435232 -3.083411 -2.164682 1.880790849211783e-38 1684957512
7.470992 -3.884855 -2.242616 0.000000000000000e+00 1851878480
7.317068 -4.215192 -2.229782 0.000000000000000e+00 1851878480
7.387535 -2.693489 -2.188962 1.880790849211783e-38 1684957512
7.458370 -3.091844 -2.245959 1.880790849211783e-38 1684957512
7.250842 -3.771629 -2.254300 0.000000000000000e+00 1851878480
7.151599 -4.122483 -2.259031 0.000000000000000e+00 1851878480
7.300444 -2.659559 -2.234082 0.000000000000000e+00 1851878480
7.233305 -2.997416 -2.250815 0.000000000000000e+00 1851878480
6.944757 -3.613617 -2.233998 0.000000000000000e+00 1851878480
6.822069 -3.935028 -2.231339 0.000000000000000e+00 1851878480
7.051049 -2.566597 -2.226588 0.000000000000000e+00 1851878480
6.974863 -2.889224 -2.240770 0.000000000000000e+00 1851878480
6.745717 -3.511225 -2.243067 0.000000000000000e+00 1851878480
6.652853 -3.839881 -2.250905 0.000000000000000e+00 1851878480
6.928604 -2.519941 -2.255878 0.000000000000000e+00 1851878480
6.774892 -2.805320 -2.245224 0.000000000000000e+00 1851878480
6.589938 -3.431294 -2.263058 0.000000000000000e+00 1851878480
6.405220 -3.699333 -2.239647 0.000000000000000e+00 1851878480
6.710347 -2.438533 -2.250959 0.000000000000000e+00 1851878480
6.576099 -2.721963 -2.246371 0.000000000000000e+00 1851878480
6.388805 -3.327697 -2.263973 0.000000000000000e+00 1851878480
6.196430 -3.581060 -2.237209 0.000000000000000e+00 1851878480
6.505047 -2.361953 -2.246542 0.000000000000000e+00 1851878480
6.367289 -2.634517 -2.240285 0.000000000000000e+00 1851878480
6.170754 -3.215216 -2.254688 0.000000000000000e+00 1851878480
6.049781 -3.498587 -2.253570 0.000000000000000e+00 1851878480
6.358935 -2.306963 -2.259420 0.000000000000000e+00 1851878480
6.245203 -2.583004 -2.261676 0.000000000000000e+00 1851878480
5.997675 -3.126105 -2.257916 0.000000000000000e+00 1851878480
5.862656 -3.392593 -2.251441 0.000000000000000e+00 1851878480
6.165401 -2.234860 -2.252402 0.000000000000000e+00 1851878480
6.038476 -2.496527 -2.249378 0.000000000000000e+00 1851878480
5.818796 -3.033913 -2.255453 0.000000000000000e+00 1851878480
5.666251 -3.281097 -2.241742 0.000000000000000e+00 1851878480
6.001098 -2.173454 -2.252817 0.000000000000000e+00 1851878480
5.860931 -2.422176 -2.244322 0.000000000000000e+00 1851878480
5.658547 -2.951383 -2.256823 0.000000000000000e+00 1851878480
5.512837 -3.194375 -2.245407 0.000000000000000e+00 1851878480
5.806865 -2.101310 -2.238725 0.000000000000000e+00 1851878480
5.730935 -2.367519 -2.254627 0.000000000000000e+00 1851878480
5.498497 -2.868904 -2.255076 0.000000000000000e+00 1851878480
5.371494 -3.114552 -2.250967 0.000000000000000e+00 1851878480
5.663904 -2.047813 -2.241326 0.000000000000000e+00 1851878480
5.635368 -2.327116 -2.276475 0.000000000000000e+00 1851878480
5.334567 -2.784349 -2.248477 0.000000000000000e+00 1851878480
5.229616 -3.034322 -2.253395 0.000000000000000e+00 1851878480
5.516505 -1.992792 -2.239556 0.000000000000000e+00 1851878480
5.399527 -2.228833 -2.238522 0.000000000000000e+00 1851878480
5.175169 -2.702106 -2.240511 0.000000000000000e+00 1851878480
5.093658 -2.957438 -2.255512 0.000000000000000e+00 1851878480
5.381948 -1.942490 -2.240459 0.000000000000000e+00 1851878480
5.312368 -2.191978 -2.259150 0.000000000000000e+00 1851878480
5.040413 -2.632684 -2.240252 0.000000000000000e+00 1851878480
4.905046 -2.849867 -2.230869 0.000000000000000e+00 1851878480
5.223197 -1.883537 -2.228611 0.000000000000000e+00 1851878480
5.158080 -2.127454 -2.249017 0.000000000000000e+00 1851878480
4.972290 -2.598032 -2.267678 0.000000000000000e+00 1851878480
4.821789 -2.803415 -2.251307 0.000000000000000e+00 1851878480
5.181109 -1.866707 -2.264811 0.000000000000000e+00 1851878480
5.046791 -2.080705 -2.255146 0.000000000000000e+00 1851878480
4.814566 -2.516529 -2.252030 0.000000000000000e+00 1851878480
4.630279 -2.693927 -2.218305 0.000000000000000e+00 1851878480
4.990899 -1.796576 -2.234189 0.000000000000000e+00 1851878480
4.926046 -2.030090 -2.254912 0.000000000000000e+00 1851878480
4.707115 -2.461257 -2.257210 0.000000000000000e+00 1851878480
4.553147 -2.650896 -2.237260 0.000000000000000e+00 1851878480
4.922310 -1.770298 -2.255650 0.000000000000000e+00 1851878480
4.758422 -1.960201 -2.230448 0.000000000000000e+00 1851878480
4.590460 -2.401140 -2.255753 0.000000000000000e+00 1851878480
4.472704 -2.605887 -2.253091 0.000000000000000e+00 1851878480
4.769769 -1.713883 -2.236658 0.000000000000000e+00 1851878480
4.754246 -1.957665 -2.281098 0.000000000000000e+00 1851878480
4.457390 -2.332396 -2.243684 0.000000000000000e+00 1851878480
4.353660 -2.538321 -2.247450 0.000000000000000e+00 1851878480
4.707981 -1.690141 -2.258301 0.000000000000000e+00 1851878480
4.608133 -1.896702 -2.262365 0.000000000000000e+00 1851878480
4.353172 -2.278711 -2.243720 0.000000000000000e+00 1851878480
4.247387 -2.478126 -2.246033 0.000000000000000e+00 1851878480
4.587191 -1.645265 -2.250050 0.000000000000000e+00 1851878480
4.511580 -1.856176 -2.265648 0.000000000000000e+00 1851878480
4.307489 -2.255643 -2.272547 0.000000000000000e+00 1851878480
4.174403 -2.437293 -2.260414 0.000000000000000e+00 1851878480
4.469288 -1.601496 -2.241001 0.000000000000000e+00 1851878480
4.371344 -1.797712 -2.244723 0.000000000000000e+00 1851878480
4.167386 -2.183100 -2.249729 0.000000000000000e+00 1851878480
4.094421 -2.392327 -2.269521 0.000000000000000e+00 1851878480
4.434562 -1.587567 -2.272372 0.000000000000000e+00 1851878480
4.347283 -1.787047 -2.281993 0.000000000000000e+00 1851878480
4.101868 -2.149598 -2.265091 0.000000000000000e+00 1851878480
3.945145 -2.306790 -2.237737 0.000000000000000e+00 1851878480
4.337541 -1.551374 -2.270757 0.000000000000000e+00 1851878480
4.198706 -1.725223 -2.252327 0.000000000000000e+00 1851878480
4.006692 -2.100529 -2.262525 0.000000000000000e+00 1851878480
3.860175 -2.258772 -2.239859 0.000000000000000e+00 1851878480
4.196408 -1.499468 -2.243788 0.000000000000000e+00 1851878480
4.091464 -1.680421 -2.242289 0.000000000000000e+00 1851878480
3.915012 -2.053262 -2.260044 0.000000000000000e+00 1851878480
3.795892 -2.222809 -2.252503 0.000000000000000e+00 1851878480
4.087966 -1.459321 -2.231893 0.000000000000000e+00 1851878480
4.023870 -1.651932 -2.252354 0.000000000000000e+00 1851878480
3.857051 -2.023657 -2.275592 0.000000000000000e+00 1851878480
3.668058 -2.149565 -2.225369 0.000000000000000e+00 1851878480
4.014627 -1.431754 -2.237500 0.000000000000000e+00 1851878480
3.983443 -1.634606 -2.276773 0.000000000000000e+00 1851878480
3.758625 -1.972795 -2.265731 0.000000000000000e+00 1851878480
3.610219 -2.117273 -2.238704 0.000000000000000e+00 1851878480
4.019829 -1.432211 -2.286508 0.000000000000000e+00 1634890835
3.853559 -1.580597 -2.248462 0.000000000000000e+00 1851878480
3.639719 -1.911148 -2.241187 0.000000000000000e+00 1851878480
3.590704 -2.107440 -2.275248 0.000000000000000e+00 1851878480
3.936507 -1.401142 -2.284672 0.000000000000000e+00 1634890835
3.768667 -1.545077 -2.244258 0.000000000000000e+00 1851878480
3.563311 -1.871778 -2.240737 0.000000000000000e+00 1851878480
3.448046 -2.025275 -2.232043 0.000000000000000e+00 1851878480
3.866836 -1.374975 -2.289395 0.000000000000000e+00 1634890835
3.719166 -1.524084 -2.259933 0.000000000000000e+00 1851878480
3.503686 -1.841207 -2.249523 0.000000000000000e+00 1851878480
3.406729 -2.002568 -2.252406 0.000000000000000e+00 1851878480
3.772045 -1.339923 -2.277736 0.000000000000000e+00 1634890835
3.635195 -1.488985 -2.253467 0.000000000000000e+00 1851878480
3.470996 -1.824779 -2.274853 0.000000000000000e+00 1851878480
3.338578 -1.964054 -2.254005 0.000000000000000e+00 1851878480
3.718354 -1.319510 -2.289562 0.000000000000000e+00 1634890835
3.497671 -1.431986 -2.211509 0.000000000000000e+00 1851878480
3.360539 -1.767443 -2.247775 0.000000000000000e+00 1851878480
3.253613 -1.915598 -2.242607 0.000000000000000e+00 1851878480
3.656221 -1.296133 -2.295236 0.000000000000000e+00 1634890835
3.507464 -1.435316 -2.261550 0.000000000000000e+00 1851878480
3.348753 -1.761983 -2.285531 0.000000000000000e+00 1851878480
3.240646 -1.909497 -2.279958 0.000000000000000e+00 1851878480
3.555526 -1.259130 -2.275167 0.000000000000000e+00 1634890835
3.516807 -1.438454 -2.311989 0.000000000000000e+00 1634890835
3.283601 -1.728434 -2.286303 0.000000000000000e+00 1851878480
3.142546 -1.853201 -2.256335 0.000000000000000e+00 1851878480
3.509076 -1.241378 -2.288453 0.000000000000000e+00 1634890835
3.400915 -1.390379 -2.279198 0.000000000000000e+00 1634890835
3.236771 -1.704513 -2.298784 0.000000000000000e+00 1851878480
3.089514 -1.823427 -2.263401 0.000000000000000e+00 1851878480
3.406108 -1.203678 -2.263481 0.000000000000000e+00 1634890835
3.327798 -1.359824 -2.273113 0.000000000000000e+00 1634890835
3.112989 -1.640038 -2.254730 0.000000000000000e+00 1851878480
3.009018 -1.777396 -2.248912 0.000000000000000e+00 1851878480
3.399685 -1.200123 -2.301754 0.000000000000000e+00 1634890835
3.298232 -1.347080 -2.295913 0.000000000000000e+00 1634890835
3.050626 -1.607888 -2.253035 0.000000000000000e+00 1851878480
2.961100 -1.750563 -2.257398 0.000000000000000e+00 1851878480
3.301348 -1.164145 -2.276928 0.000000000000000e+00 1634890835
3.248520 -1.326114 -2.304124 0.000000000000000e+00 1634890835
3.002443 -1.583193 -2.260744 0.000000000000000e+00 1851878480
2.888899 -1.709334 -2.246105 0.000000000000000e+00 1851878480
3.266357 -1.150545 -2.294557 0.000000000000000e+00 1634890835
3.199377 -1.305394 -2.311910 0.000000000000000e+00 1634890835
2.912138 -1.536264 -2.235243 0.000000000000000e+00 1851878480
2.840665 -1.682242 -2.252157 0.000000000000000e+00 1851878480
3.217514 -1.132085 -2.301841 0.000000000000000e+00 1634890835
3.120825 -1.272694 -2.297219 0.000000000000000e+00 1634890835
2.890525 -1.525553 -2.261350 0.000000000000000e+00 1851878480
2.794219 -1.656182 -2.258719 0.000000000000000e+00 1851878480
3.166111 -1.112748 -2.306460 0.000000000000000e+00 1634890835
3.055916 -1.245582 -2.291119 0.000000000000000e+00 1634890835
2.843972 -1.501675 -2.267463 0.000000000000000e+00 1851878480
2.773948 -1.645617 -2.285959 0.000000000000000e+00 1851878480
3.096851 -1.087171 -2.296962 0.000000000000000e+00 1634890835
3.050832 -1.242858 -2.329411 0.000000000000000e+00 1634890835
2.768496 -1.462500 -2.249218 0.000000000000000e+00 1851878480
0.885832 -0.525981 -0.744114 0.000000000000000e+00 1886740808
3.014640 -1.057093 -2.276325 0.000000000000000e+00 1634890835
2.943820 -1.198629 -2.288825 0.000000000000000e+00 1634890835
2.744320 -1.450413 -2.271682 0.000000000000000e+00 1851878480
0.852158 -0.506445 -0.729589 0.000000000000000e+00 1886740808
2.954535 -1.034812 -2.270948 0.000000000000000e+00 1634890835
2.887045 -1.174884 -2.285509 0.000000000000000e+00 1634890835
0.889238 -0.470199 -0.749913 0.000000000000000e+00 1886740808
0.785726 -0.467392 -0.685574 0.000000000000000e+00 1886740808
2.907563 -1.017159 -2.274696 0.000000000000000e+00 1634890835
2.903436 -1.180910 -2.340058 0.000000000000000e+00 1634890835
0.862420 -0.456239 -0.740883 0.000000000000000e+00 1886740808
0.779231 -0.463960 -0.692842 0.000000000000000e+00 1886740808
2.829934 -0.988818 -2.253234 0.000000000000000e+00 1634890835
2.819751 -1.146243 -2.313505 0.000000000000000e+00 1634890835
0.858905 -0.454602 -0.751580 0.000000000000000e+00 1886740808
0.815160 -0.485809 -0.738509 0.000000000000000e+00 1886740808
2.827034 -0.986609 -2.290651 0.000000000000000e+00 1634890835
2.705027 -1.098995 -2.259120 0.000000000000000e+00 1634890835
0.787603 -0.417070 -0.701941 0.000000000000000e+00 1886740808
0.764594 -0.456109 -0.705756 0.000000000000000e+00 1886740808
2.807898 -0.978725 -2.315113 0.000000000000000e+00 1634890835
0.794588 -0.322642 -0.675435 0.000000000000000e+00 1886740808
0.795692 -0.421566 -0.722218 0.000000000000000e+00 1886740808
0.723623 -0.432087 -0.680479 0.000000000000000e+00 1886740808
0.857255 -0.298434 -0.719169 0.000000000000000e+00 1886740808
0.785658 -0.318833 -0.679698 0.000000000000000e+00 1886740808
0.794730 -0.421271 -0.734585 0.000000000000000e+00 1886740808
0.747176 -0.446589 -0.715769 0.000000000000000e+00 1886740808
0.838126 -0.291407 -0.715369 0.000000000000000e+00 1886740808
0.788508 -0.319804 -0.694225 0.000000000000000e+00 1886740808
0.778318 -0.412784 -0.732573 0.000000000000000e+00 1886740808
0.774073 -0.463127 -0.755359 0.000000000000000e+00 1886740808
0.819874 -0.284696 -0.711934 0.000000000000000e+00 1886740808
0.836277 -0.338978 -0.749253 0.000000000000000e+00 1886740808
0.757486 -0.401947 -0.725963 0.000000000000000e+00 1886740808
0.771668 -0.462155 -0.767007 0.000000000000000e+00 1886740808
0.799255 -0.277174 -0.706032 0.000000000000000e+00 1886740808
0.816708 -0.330848 -0.744570 0.000000000000000e+00 1886740808
0.756617 -0.401700 -0.738312 0.000000000000000e+00 1886740808
0.755562 -0.452975 -0.764920 0.000000000000000e+00 1886740808
0.818933 -0.283624 -0.735885 0.000000000000000e+00 1886740808
0.772403 -0.312710 -0.716507 0.000000000000000e+00 1886740808
0.773523 -0.410899 -0.768495 0.000000000000000e+00 1886740808
0.768531 -0.461230 -0.792437 0.000000000000000e+00 1886740808
0.808283 -0.279560 -0.738801 0.000000000000000e+00 1886740808
0.756377 -0.306033 -0.713891 0.000000000000000e+00 1886740808
0.755424 -0.401504 -0.764090 0.000000000000000e+00 1886740808
0.759254 -0.456145 -0.797319 0.000000000000000e+00 1886740808
0.781482 -0.269923 -0.726551 0.000000000000000e+00 1886740808
0.752378 -0.304225 -0.722487 0.000000000000000e+00 1886740808
0.789982 -0.420106 -0.813472 0.000000000000000e+00 1886740808
0.789022 -0.474539 -0.843844 0.000000000000000e+00 1886740808
0.740698 -0.255482 -0.700413 0.000000000000000e+00 1886740808
0.757679 -0.306173 -0.740224 0.000000000000000e+00 1886740808
0.785580 -0.418002 -0.823521 0.000000000000000e+00 1886740808
2.070731 -1.246756 -2.255352 0.000000000000000e+00 1634890835
0.718051 -0.247322 -0.690590 0.000000000000000e+00 1886740808
0.791654 -0.319696 -0.786838 0.000000000000000e+00 1886740808
0.775714 -0.412991 -0.827817 0.000000000000000e+00 1886740808
2.069960 -1.247677 -2.295948 0.000000000000000e+00 1634890835
0.746434 -0.256731 -0.730124 0.000000000000000e+00 1886740808
0.772248 -0.311654 -0.780850 0.000000000000000e+00 1886740808
2.129631 -1.134479 -2.313547 0.000000000000000e+00 1634890835
2.038074 -1.229847 -2.302099 0.000000000000000e+00 1634890835
0.789345 -0.271096 -0.785240 0.000000000000000e+00 1886740808
0.750166 -0.302540 -0.771650 0.000000000000000e+00 1886740808
2.071933 -1.104401 -2.291321 0.000000000000000e+00 1634890835
0.794244 -0.479826 -0.913607 0.000000000000000e+00 1886740808
0.778570 -0.267000 -0.787690 0.000000000000000e+00 1886740808
0.745016 -0.300260 -0.779605 0.000000000000000e+00 1886740808
2.088311 -1.113805 -2.350926 0.000000000000000e+00 1634890835
0.782229 -0.473121 -0.916303 0.000000000000000e+00 1886740808
0.729905 -0.249935 -0.751000 0.000000000000000e+00 1886740808
0.740645 -0.298292 -0.788426 0.000000000000000e+00 1886740808
2.024386 -1.080375 -2.319906 0.000000000000000e+00 1634890835
0.807487 -0.488978 -0.963260 0.000000000000000e+00 1886740808
0.776803 -0.265587 -0.812826 0.000000000000000e+00 1886740808
2.139361 -0.861013 -2.316725 0.000000000000000e+00 1634890835
0.800789 -0.427634 -0.934181 0.000000000000000e+00 1886740808
0.778499 -0.471996 -0.945744 0.000000000000000e+00 1886740808
0.720125 -0.245826 -0.766312 0.000000000000000e+00 1886740808
2.079013 -0.836128 -2.290276 0.000000000000000e+00 1634890835
0.834864 -0.446115 -0.991445 0.000000000000000e+00 1886740808
0.770898 -0.467965 -0.953733 0.000000000000000e+00 1886740808
0.795590 -0.271156 -0.860990 0.000000000000000e+00 1886740808
2.109862 -0.847916 -2.364433 0.000000000000000e+00 1634890835
0.828135 -0.442807 -1.001154 0.000000000000000e+00 1886740808
1.827615 -1.110827 -2.302707 0.000000000000000e+00 1634890835
2.075382 -0.706197 -2.284131 0.000000000000000e+00 1634890835
2.025797 -0.813528 -2.309489 0.000000000000000e+00 1634890835
0.824505 -0.441159 -1.014729 0.000000000000000e+00 1886740808
1.785401 -1.086559 -2.291008 0.000000000000000e+00 1634890835
2.039509 -0.692848 -2.282798 0.000000000000000e+00 1634890835
1.992960 -0.799736 -2.311387 0.000000000000000e+00 1634890835
0.777993 -0.416553 -0.974767 0.000000000000000e+00 1886740808
0.746793 -0.455077 -0.975984 0.000000000000000e+00 1886740808
2.020849 -0.685356 -2.300391 0.000000000000000e+00 1634890835
1.979047 -0.793541 -2.335034 0.000000000000000e+00 1634890835
0.804067 -0.430810 -1.025653 0.000000000000000e+00 1886740808
1.728950 -1.054981 -2.301413 0.000000000000000e+00 1634890835
1.963282 -0.664692 -2.272926 0.000000000000000e+00 1634890835
0.817720 -0.327625 -0.981559 0.000000000000000e+00 1886740808
1.820206 -0.975931 -2.363899 0.000000000000000e+00 1634890835
1.716851 -1.049021 -2.327741 0.000000000000000e+00 1634890835
1.929181 -0.652007 -2.271545 0.000000000000000e+00 1634890835
0.802604 -0.321311 -0.980169 0.000000000000000e+00 1886740808
0.764767 -0.410335 -1.011247 0.000000000000000e+00 1886740808
1.654699 -1.012446 -2.285250 0.000000000000000e+00 1634890835
1.911346 -0.644829 -2.289007 0.000000000000000e+00 1634890835
0.809796 -0.323925 -1.006189 0.000000000000000e+00 1886740808
1.698228 -0.911847 -2.286469 0.000000000000000e+00 1634890835
1.631399 -0.999600 -2.295162 0.000000000000000e+00 1634890835
0.840661 -0.283097 -1.024009 0.000000000000000e+00 1886740808
0.798807 -0.319263 -1.009876 0.000000000000000e+00 1886740808
1.703616 -0.915423 -2.335649 0.000000000000000e+00 1634890835
1.572797 -0.965085 -2.254204 0.000000000000000e+00 1634890835
0.792387 -0.266344 -0.981776 0.000000000000000e+00 1886740808
0.806449 -0.322043 -1.037399 0.000000000000000e+00 1886740808
1.650921 -0.887783 -2.304919 0.000000000000000e+00 1634890835
1.569767 -0.964647 -2.292210 0.000000000000000e+00 1634890835
0.784159 -0.263078 -0.988306 0.000000000000000e+00 1886740808
0.771758 -0.307921 -1.010220 0.000000000000000e+00 1886740808
1.642224 -0.883794 -2.334991 0.000000000000000e+00 1634890835
1.518542 -0.934574 -2.259326 0.000000000000000e+00 1634890835
0.754170 -0.252526 -0.966921 0.000000000000000e+00 1886740808
1.714655 -0.683517 -2.284033 0.000000000000000e+00 1634890835
1.595278 -0.859211 -2.310177 0.000000000000000e+00 1634890835
1.548445 -0.954447 -2.347568 0.000000000000000e+00 1634890835
0.780877 -0.260951 -1.018506 0.000000000000000e+00 1886740808
1.713798 -0.682554 -2.323291 0.000000000000000e+00 1634890835
1.577230 -0.850181 -2.326460 0.000000000000000e+00 1634890835
1.483914 -0.916112 -2.292670 0.000000000000000e+00 1634890835
0.769060 -0.256480 -1.020534 0.000000000000000e+00 1886740808
0.790969 -0.314727 -1.091321 0.000000000000000e+00 1886740808
1.554728 -0.838748 -2.336064 0.000000000000000e+00 1634890835
1.472033 -0.910241 -2.317950 0.000000000000000e+00 1634890835
1.671616 -0.556324 -2.256933 0.000000000000000e+00 1634890835
1.645846 -0.654260 -2.311339 0.000000000000000e+00 1634890835
1.542821 -0.833032 -2.361661 0.000000000000000e+00 1634890835
1.437124 -0.890122 -2.306649 0.000000000000000e+00 1634890835
0.784835 -0.260643 -1.078219 0.000000000000000e+00 1886740808
1.584671 -0.629328 -2.265324 0.000000000000000e+00 1634890835
1.491440 -0.805993 -2.326074 0.000000000000000e+00 1634890835
1.404449 -0.871354 -2.297963 0.000000000000000e+00 1634890835
1.652145 -0.547481 -2.309710 0.000000000000000e+00 1634890835
1.576995 -0.625655 -2.294964 0.000000000000000e+00 1634890835
1.429826 -0.773384 -2.272289 0.000000000000000e+00 1634890835
1.397608 -0.868609 -2.331446 0.000000000000000e+00 1634890835
1.624375 -0.537080 -2.311071 0.000000000000000e+00 1634890835
1.552909 -0.615472 -2.300843 0.000000000000000e+00 1634890835
1.426686 -0.772390 -2.310585 0.000000000000000e+00 1634890835
1.356548 -0.844586 -2.307464 0.000000000000000e+00 1634890835
1.585862 -0.523148 -2.296407 0.000000000000000e+00 1634890835
1.524578 -0.603611 -2.300009 0.000000000000000e+00 1634890835
1.363288 -0.738758 -2.250340 0.000000000000000e+00 1634890835
1.307842 -0.815743 -2.268691 0.000000000000000e+00 1634890835
1.536471 -0.505665 -2.264675 0.000000000000000e+00 1634890835
1.508269 -0.596513 -2.317094 0.000000000000000e+00 1634890835
1.368410 -0.742246 -2.302507 0.000000000000000e+00 1634890835
1.261451 -0.788274 -2.231894 0.000000000000000e+00 1634890835
1.546307 -0.507678 -2.320172 0.000000000000000e+00 1634890835
1.522420 -0.601447 -2.381952 0.000000000000000e+00 1634890835
1.330472 -0.722379 -2.282311 0.000000000000000e+00 1634890835
1.295239 -0.810938 -2.337783 0.000000000000000e+00 1634890835
1.522927 -0.498766 -2.326448 0.000000000000000e+00 1634890835
1.426408 -0.562881 -2.273152 0.000000000000000e+00 1634890835
1.338009 -0.727205 -2.340328 0.000000000000000e+00 1634890835
1.259567 -0.790154 -2.319518 0.000000000000000e+00 1634890835
1.454133 -0.475029 -2.261823 0.000000000000000e+00 1634890835
1.417444 -0.558696 -2.301082 0.000000000000000e+00 1634890835
1.302417 -0.708596 -2.323185 0.000000000000000e+00 1634890835
1.233496 -0.775363 -2.317994 0.000000000000000e+00 1634890835
1.459214 -0.475446 -2.311355 0.000000000000000e+00 1634890835
1.395870 -0.549538 -2.308719 0.000000000000000e+00 1634890835
1.261678 -0.687163 -2.295461 0.000000000000000e+00 1634890835
1.207542 -0.760621 -2.316082 0.000000000000000e+00 1634890835
1.428957 -0.464339 -2.305240 0.000000000000000e+00 1634890835
1.376192 -0.541127 -2.319351 0.000000000000000e+00 1634890835
1.253022 -0.683196 -2.325645 0.000000000000000e+00 1634890835
1.151809 -0.727064 -2.255246 0.000000000000000e+00 1634890835
1.397997 -0.453027 -2.297269 0.000000000000000e+00 1634890835
1.331292 -0.522814 -2.286585 0.000000000000000e+00 1634890835
1.221617 -0.666826 -2.313463 0.000000000000000e+00 1634890835
1.160338 -0.734057 -2.319788 0.000000000000000e+00 1634890835
1.360728 -0.439698 -2.277969 0.000000000000000e+00 1634890835
1.279966 -0.502006 -2.240822 0.000000000000000e+00 1634890835
1.195503 -0.653327 -2.310492 0.000000000000000e+00 1634890835
1.117042 -0.708266 -2.280748 0.000000000000000e+00 1634890835
1.349796 -0.434889 -2.302405 0.000000000000000e+00 1634890835
1.298014 -0.508406 -2.316627 0.000000000000000e+00 1634890835
1.163727 -0.636724 -2.295727 0.000000000000000e+00 1634890835
1.094142 -0.695360 -2.282040 0.000000000000000e+00 1634890835
1.318755 -0.423608 -2.292366 0.000000000000000e+00 1634890835
1.306209 -0.510913 -2.377019 0.000000000000000e+00 1634890835
1.130977 -0.619566 -2.277880 0.000000000000000e+00 1634890835
1.057220 -0.673509 -2.252998 0.000000000000000e+00 1634890835
1.285098 -0.411515 -2.276853 0.000000000000000e+00 1634890835
1.231165 -0.480879 -2.284862 0.000000000000000e+00 1634890835
1.138824 -0.624656 -2.342280 0.000000000000000e+00 1634890835
1.045531 -0.667712 -2.277126 0.000000000000000e+00 1634890835
1.283907 -0.409815 -2.318931 0.000000000000000e+00 1634890835
1.229882 -0.479676 -2.328168 0.000000000000000e+00 1634890835
1.088123 -0.597628 -2.285960 0.000000000000000e+00 1634890835
1.033951 -0.662004 -2.302076 0.000000000000000e+00 1634890835
1.274477 -0.405460 -2.347052 0.000000000000000e+00 1634890835
1.199988 -0.467313 -2.317524 0.000000000000000e+00 1634890835
1.088010 -0.598374 -2.335287 0.000000000000000e+00 1634890835
0.994733 -0.638575 -2.264730 0.000000000000000e+00 1634890835
1.237250 -0.392269 -2.323638 0.000000000000000e+00 1634890835
1.165944 -0.453349 -2.297807 0.000000000000000e+00 1634890835
1.072376 -0.590600 -2.352257 0.000000000000000e+00 1634890835
0.968049 -0.623140 -2.254365 0.000000000000000e+00 1634890835
1.205867 -0.380967 -2.310042 0.000000000000000e+00 1634890835
1.149823 -0.446362 -2.312881 0.000000000000000e+00 1634890835
1.038020 -0.572502 -2.327518 0.000000000000000e+00 1634890835
0.938455 -0.605795 -2.236102 0.000000000000000e+00 1634890835
1.148056 -0.361376 -2.243813 0.000000000000000e+00 1634890835
1.119937 -0.434038 -2.299879 0.000000000000000e+00 1634890835
1.003071 -0.554053 -2.299825 0.000000000000000e+00 1634890835
0.933988 -0.604671 -2.277778 0.000000000000000e+00 1634890835
1.160339 -0.363857 -2.314240 0.000000000000000e+00 1634890835
1.120092 -0.433350 -2.348881 0.000000000000000e+00 1634890835
0.991643 -0.548587 -2.325553 0.000000000000000e+00 1634890835
0.918772 -0.596619 -2.294129 0.000000000000000e+00 1634890835
1.126554 -0.351876 -2.293395 0.000000000000000e+00 1634890835
1.074065 -0.414802 -2.300631 0.000000000000000e+00 1634890835
0.967687 -0.536192 -2.321948 0.000000000000000e+00 1634890835
0.907182 -0.590940 -2.320066 0.000000000000000e+00 1634890835
1.096124 -0.340976 -2.278228 0.000000000000000e+00 1634890835
1.076714 -0.415057 -2.356377 0.000000000000000e+00 1634890835
0.957312 -0.531324 -2.351063 0.000000000000000e+00 1634890835
0.875214 -0.571970 -2.293404 0.000000000000000e+00 1634890835
1.090411 -0.337765 -2.314471 0.000000000000000e+00 1634890835
1.015371 -0.390659 -2.271019 0.000000000000000e+00 1634890835
0.916159 -0.509359 -2.303714 0.000000000000000e+00 1634890835
0.875746 -0.574250 -2.352219 0.000000000000000e+00 1634890835
1.033087 -0.318603 -2.239961 0.000000000000000e+00 1634890835
1.013301 -0.389088 -2.316954 0.000000000000000e+00 1634890835
0.913983 -0.509057 -2.353988 0.000000000000000e+00 1634890835
0.831664 -0.547258 -2.290674 0.000000000000000e+00 1634890835
1.027622 -0.315470 -2.276689 0.000000000000000e+00 1634890835
0.972120 -0.372503 -2.273098 0.000000000000000e+00 1634890835
0.876882 -0.489301 -2.314125 0.000000000000000e+00 1634890835
0.449548 -0.296894 -1.270280 0.000000000000000e+00 1936876886
1.010275 -0.308669 -2.287740 0.000000000000000e+00 1634890835
0.967639 -0.369989 -2.314601 0.000000000000000e+00 1634890835
0.866084 -0.484211 -2.342961 0.000000000000000e+00 1634890835
0.439219 -0.291176 -1.273845 0.000000000000000e+00 1936876886
0.974554 -0.296281 -2.256354 0.000000000000000e+00 1634890835
0.931763 -0.355474 -2.280783 0.000000000000000e+00 1634890835
0.839032 -0.470031 -2.327724 0.000000000000000e+00 1634890835
0.430891 -0.286786 -1.283301 0.000000000000000e+00 1936876886
0.977261 -0.295567 -2.314142 0.000000000000000e+00 1634890835
0.931898 -0.354695 -2.335189 0.000000000000000e+00 1634890835
0.455153 -0.255515 -1.295565 0.000000000000000e+00 1936876886
0.335671 -0.224334 -1.027134 0.000000000000000e+00 1953264973
0.937025 -0.281869 -2.270178 0.000000000000000e+00 1634890835
0.900533 -0.341922 -2.310977 0.000000000000000e+00 1634890835
0.430072 -0.241964 -1.256613 0.000000000000000e+00 1936876886
0.308713 -0.207208 -0.971095 0.000000000000000e+00 1953264973
0.491737 -0.147086 -1.219353 0.000000000000000e+00 1936876886
0.875169 -0.331448 -2.300950 0.000000000000000e+00 1634890835
0.372852 -0.210251 -1.118865 0.000000000000000e+00 1953264973
0.273147 -0.184163 -0.883790 0.000000000000000e+00 1953264973
0.506018 -0.150464 -1.284748 0.000000000000000e+00 1936876886
0.865116 -0.326769 -2.331275 0.000000000000000e+00 1634890835
0.340356 -0.192385 -1.049520 0.000000000000000e+00 1953264973
0.259678 -0.175909 -0.864777 0.000000000000000e+00 1953264973
0.464334 -0.137216 -1.207572 0.000000000000000e+00 1936876886
0.822066 -0.309645 -2.271572 0.000000000000000e+00 1634890835
0.322349 -0.182664 -1.022001 0.000000000000000e+00 1953264973
0.234896 -0.159909 -0.805647 0.000000000000000e+00 1953264973
