# .PCD v0.7 - Point Cloud Data file format
VERSION 0.7
FIELDS x y z rgb label
SIZE 4 4 4 4 4
TYPE F F F F U
COUNT 1 1 1 1 1
WIDTH 531
HEIGHT 1
VIEWPOINT 0 0 0 1 0 0 0
POINTS 531
DATA ascii
34.855473 -17.796078 10.091652 0.000000000000000e+00 1954047316
34.033855 -18.945831 10.024070 0.000000000000000e+00 1954047316
30.801939 -11.442997 -2.236801 0.000000000000000e+00 1851878480
31.850466 -13.318251 -2.239852 0.000000000000000e+00 1851878480
26.914120 -9.991066 -2.199197 0.000000000000000e+00 1851878480
26.641455 -11.136188 -2.123186 0.000000000000000e+00 1851878480
25.972179 -13.411133 -1.923226 0.000000000000000e+00 1851878480
25.164244 -14.304230 -1.769773 0.000000000000000e+00 1851878480
24.279060 -9.006029 -2.204883 0.000000000000000e+00 1851878480
24.311382 -10.158643 -2.165572 0.000000000000000e+00 1851878480
23.499001 -12.137823 -1.975227 0.000000000000000e+00 1851878480
22.945263 -13.050608 -1.851350 0.000000000000000e+00 1851878480
22.093903 -8.189227 -2.207787 0.000000000000000e+00 1851878480
22.204411 -9.274980 -2.186467 0.000000000000000e+00 1851878480
21.721136 -11.223003 -2.043456 0.000000000000000e+00 1851878480
21.317122 -12.131742 -1.941105 0.000000000000000e+00 1851878480
20.390245 -7.551999 -2.223611 0.000000000000000e+00 1851878480
20.410732 -8.522735 -2.201842 0.000000000000000e+00 1851878480
20.384502 -10.535648 -2.122316 0.000000000000000e+00 1851878480
19.947880 -11.359232 -2.023705 0.000000000000000e+00 1851878480
18.910322 -6.998523 -2.235043 0.000000000000000e+00 1851878480
18.861101 -7.872892 -2.212375 0.000000000000000e+00 1851878480
19.142029 -9.896568 -2.185439 0.000000000000000e+00 1851878480
18.840706 -10.735124 -2.107540 0.000000000000000e+00 1851878480
17.571764 -6.498153 -2.237686 0.000000000000000e+00 1851878480
17.640741 -7.360892 -2.235723 0.000000000000000e+00 1851878480
17.737974 -9.173523 -2.203853 0.000000000000000e+00 1851878480
17.914675 -10.213564 -2.190860 0.000000000000000e+00 1851878480
16.398529 -6.059631 -2.238661 0.000000000000000e+00 1851878480
16.506969 -6.885374 -2.248122 0.000000000000000e+00 1851878480
16.575300 -8.574907 -2.226752 0.000000000000000e+00 1851878480
16.701151 -9.527386 -2.217094 0.000000000000000e+00 1851878480
15.372866 -5.676263 -2.239886 0.000000000000000e+00 1851878480
15.442512 -6.439076 -2.249467 0.000000000000000e+00 1851878480
15.492538 -8.017270 -2.238066 0.000000000000000e+00 1851878480
15.516677 -8.856980 -2.222496 0.000000000000000e+00 1851878480
14.482769 -5.343475 -2.243538 0.000000000000000e+00 1851878480
14.491974 -6.040580 -2.248614 0.000000000000000e+00 1851878480
14.520050 -7.516376 -2.244869 0.000000000000000e+00 1851878480
14.464890 -8.261563 -2.223853 0.000000000000000e+00 1851878480
13.670991 -5.040074 -2.243934 0.000000000000000e+00 1851878480
13.640138 -5.683494 -2.246266 0.000000000000000e+00 1851878480
13.647637 -7.066996 -2.248790 0.000000000000000e+00 1851878480
13.589219 -7.766090 -2.232423 0.000000000000000e+00 1851878480
12.946020 -4.769103 -2.244683 0.000000000000000e+00 1851878480
12.823010 -5.341104 -2.234051 0.000000000000000e+00 1851878480
12.849000 -6.655547 -2.248231 0.000000000000000e+00 1851878480
12.806624 -7.323254 -2.239202 0.000000000000000e+00 1851878480
12.245112 -4.507391 -2.236704 0.000000000000000e+00 1851878480
12.231838 -5.093046 -2.248078 0.000000000000000e+00 1851878480
12.099515 -6.269314 -2.240847 0.000000000000000e+00 1851878480
12.100801 -6.923828 -2.244069 0.000000000000000e+00 1851878480
11.662249 -4.289495 -2.238669 0.000000000000000e+00 1851878480
11.615548 -4.834697 -2.246243 0.000000000000000e+00 1851878480
11.486204 -5.953418 -2.245100 0.000000000000000e+00 1851878480
11.418005 -6.537098 -2.238873 0.000000000000000e+00 1851878480
11.153108 -4.099018 -2.244927 0.000000000000000e+00 1851878480
11.071436 -4.606557 -2.247548 0.000000000000000e+00 1851878480
10.922116 -5.662844 -2.247258 0.000000000000000e+00 1851878480
10.857486 -6.219965 -2.244824 0.000000000000000e+00 1851878480
10.649896 -3.911005 -2.243234 0.000000000000000e+00 1851878480
10.606009 -4.411308 -2.255428 0.000000000000000e+00 1851878480
10.456651 -5.423243 -2.259475 0.000000000000000e+00 1851878480
10.323578 -5.917711 -2.244990 0.000000000000000e+00 1851878480
10.205316 -3.744792 -2.245329 0.000000000000000e+00 1851878480
10.089770 -4.195065 -2.243349 0.000000000000000e+00 1851878480
9.930813 -5.152181 -2.248778 0.000000000000000e+00 1851878480
9.842120 -5.645183 -2.246084 0.000000000000000e+00 1851878480
9.809630 -3.596752 -2.250599 0.000000000000000e+00 1851878480
9.698400 -4.030877 -2.250562 0.000000000000000e+00 1851878480
9.488014 -4.924037 -2.247208 0.000000000000000e+00 1851878480
9.365623 -5.375177 -2.238402 0.000000000000000e+00 1851878480
9.429589 -3.454667 -2.252462 0.000000000000000e+00 1851878480
9.284423 -3.857407 -2.245027 0.000000000000000e+00 1851878480
9.051279 -4.698900 -2.238290 0.000000000000000e+00 1851878480
9.013567 -5.176316 -2.251917 0.000000000000000e+00 1851878480
9.007195 -3.297288 -2.236934 0.000000000000000e+00 1851878480
8.916013 -3.702981 -2.243204 0.000000000000000e+00 1851878480
8.783215 -4.561213 -2.264093 0.000000000000000e+00 1851878480
8.611072 -4.948229 -2.245049 0.000000000000000e+00 1851878480
8.721313 -3.190087 -2.248907 0.000000000000000e+00 1851878480
8.624968 -3.580786 -2.254720 0.000000000000000e+00 1851878480
8.377862 -4.352127 -2.247816 0.000000000000000e+00 1851878480
8.268091 -4.754097 -2.245983 0.000000000000000e+00 1851878480
8.410282 -3.073850 -2.249027 0.000000000000000e+00 1851878480
8.274038 -3.433821 -2.244603 0.000000000000000e+00 1851878480
8.059053 -4.187885 -2.247506 0.000000000000000e+00 1851878480
7.971253 -4.586284 -2.252857 0.000000000000000e+00 1851878480
8.087552 -2.953511 -2.240280 0.000000000000000e+00 1851878480
8.018246 -3.326429 -2.254643 0.000000000000000e+00 1851878480
7.757393 -4.032447 -2.245789 0.000000000000000e+00 1851878480
7.669470 -4.415420 -2.252163 0.000000000000000e+00 1851878480
7.848101 -2.863740 -2.249525 0.000000000000000e+00 1851878480
7.708663 -3.196803 -2.244288 0.000000000000000e+00 1851878480
7.508368 -3.904290 -2.253836 0.000000000000000e+00 1851878480
7.377822 -4.250190 -2.248296 0.000000000000000e+00 1851878480
7.486143 -2.729442 -2.218180 0.000000000000000e+00 1851878480
7.507774 -3.112325 -2.260837 0.000000000000000e+00 1851878480
7.276966 -3.785218 -2.262422 0.000000000000000e+00 1851878480
7.112785 -4.100110 -2.246770 0.000000000000000e+00 1851878480
7.352686 -2.678590 -2.250069 0.000000000000000e+00 1851878480
7.215652 -2.990100 -2.245322 0.000000000000000e+00 1851878480
6.970340 -3.626929 -2.242228 0.000000000000000e+00 1851878480
6.877264 -3.966865 -2.249392 0.000000000000000e+00 1851878480
7.141593 -2.599555 -2.255181 0.000000000000000e+00 1851878480
6.987497 -2.894458 -2.244829 0.000000000000000e+00 1851878480
6.745501 -3.511112 -2.242995 0.000000000000000e+00 1851878480
6.620772 -3.821364 -2.240051 0.000000000000000e+00 1851878480
6.869497 -2.498444 -2.236633 0.000000000000000e+00 1851878480
6.744316 -2.792659 -2.235091 0.000000000000000e+00 1851878480
6.542725 -3.406711 -2.246845 0.000000000000000e+00 1851878480
6.393332 -3.692467 -2.235491 0.000000000000000e+00 1851878480
6.667320 -2.422897 -2.236526 0.000000000000000e+00 1851878480
6.560456 -2.715488 -2.241027 0.000000000000000e+00 1851878480
6.329976 -3.297055 -2.243127 0.000000000000000e+00 1851878480
6.211716 -3.589895 -2.242728 0.000000000000000e+00 1851878480
6.485525 -2.354865 -2.239801 0.000000000000000e+00 1851878480
6.387567 -2.642907 -2.247420 0.000000000000000e+00 1851878480
6.179143 -3.219586 -2.257753 0.000000000000000e+00 1851878480
6.042773 -3.494534 -2.250959 0.000000000000000e+00 1851878480
6.314043 -2.290676 -2.243469 0.000000000000000e+00 1851878480
6.197936 -2.563455 -2.244558 0.000000000000000e+00 1851878480
5.960515 -3.106736 -2.243927 0.000000000000000e+00 1851878480
5.798546 -3.355493 -2.226821 0.000000000000000e+00 1851878480
6.116874 -2.217269 -2.234674 0.000000000000000e+00 1851878480
6.002066 -2.481473 -2.235815 0.000000000000000e+00 1851878480
5.804995 -3.026718 -2.250104 0.000000000000000e+00 1851878480
5.678298 -3.288073 -2.246508 0.000000000000000e+00 1851878480
5.990336 -2.169557 -2.248777 0.000000000000000e+00 1851878480
5.876367 -2.428555 -2.250232 0.000000000000000e+00 1851878480
5.637566 -2.940440 -2.248455 0.000000000000000e+00 1851878480
5.506668 -3.190800 -2.242894 0.000000000000000e+00 1851878480
5.836519 -2.112041 -2.250158 0.000000000000000e+00 1851878480
5.726952 -2.365874 -2.253060 0.000000000000000e+00 1851878480
5.500150 -2.869766 -2.255754 0.000000000000000e+00 1851878480
5.333137 -3.092312 -2.234893 0.000000000000000e+00 1851878480
5.692007 -2.057974 -2.252447 0.000000000000000e+00 1851878480
5.561452 -2.296592 -2.246616 0.000000000000000e+00 1851878480
5.330637 -2.782298 -2.246820 0.000000000000000e+00 1851878480
5.229818 -3.034439 -2.253482 0.000000000000000e+00 1851878480
5.554962 -2.006685 -2.255169 0.000000000000000e+00 1851878480
5.410110 -2.233202 -2.242909 0.000000000000000e+00 1851878480
5.188081 -2.708848 -2.246101 0.000000000000000e+00 1851878480
5.112452 -2.968349 -2.263834 0.000000000000000e+00 1851878480
5.402595 -1.949942 -2.249054 0.000000000000000e+00 1851878480
5.286678 -2.181378 -2.248225 0.000000000000000e+00 1851878480
5.082126 -2.654471 -2.258792 0.000000000000000e+00 1851878480
4.960195 -2.881908 -2.255951 0.000000000000000e+00 1851878480
5.283061 -1.905124 -2.254153 0.000000000000000e+00 1851878480
5.117420 -2.110683 -2.231288 0.000000000000000e+00 1851878480
4.944642 -2.583585 -2.255069 0.000000000000000e+00 1851878480
4.791860 -2.786014 -2.237334 0.000000000000000e+00 1851878480
5.113798 -1.842456 -2.235387 0.000000000000000e+00 1851878480
5.059376 -2.085893 -2.260770 0.000000000000000e+00 1851878480
4.811057 -2.514695 -2.250389 0.000000000000000e+00 1851878480
4.683499 -2.724891 -2.243802 0.000000000000000e+00 1851878480
4.981419 -1.793163 -2.229946 0.000000000000000e+00 1851878480
4.936519 -2.034406 -2.259706 0.000000000000000e+00 1851878480
4.705002 -2.460152 -2.256196 0.000000000000000e+00 1851878480
4.544721 -2.645991 -2.233119 0.000000000000000e+00 1851878480
4.885415 -1.757029 -2.238743 0.000000000000000e+00 1851878480
4.786356 -1.971708 -2.243542 0.000000000000000e+00 1851878480
4.568916 -2.389872 -2.245166 0.000000000000000e+00 1851878480
4.478627 -2.609337 -2.256074 0.000000000000000e+00 1851878480
4.775137 -1.715812 -2.239175 0.000000000000000e+00 1851878480
4.694805 -1.933189 -2.252577 0.000000000000000e+00 1851878480
4.480356 -2.344413 -2.255244 0.000000000000000e+00 1851878480
4.359287 -2.541602 -2.250355 0.000000000000000e+00 1851878480
4.667308 -1.675539 -2.238791 0.000000000000000e+00 1851878480
4.623844 -1.903169 -2.270079 0.000000000000000e+00 1851878480
4.418513 -2.312914 -2.277398 0.000000000000000e+00 1851878480
4.252581 -2.481156 -2.248780 0.000000000000000e+00 1851878480
4.551462 -1.632450 -2.232524 0.000000000000000e+00 1851878480
4.461713 -1.835660 -2.240606 0.000000000000000e+00 1851878480
4.240552 -2.220591 -2.237232 0.000000000000000e+00 1851878480
4.194284 -2.448902 -2.271180 0.000000000000000e+00 1851878480
4.497624 -1.611650 -2.255209 0.000000000000000e+00 1851878480
4.362227 -1.793963 -2.240042 0.000000000000000e+00 1851878480
4.146018 -2.171906 -2.238193 0.000000000000000e+00 1851878480
4.052385 -2.367766 -2.246220 0.000000000000000e+00 1851878480
4.377003 -1.566961 -2.242878 0.000000000000000e+00 1851878480
4.291283 -1.764027 -2.252598 0.000000000000000e+00 1851878480
4.112194 -2.155009 -2.270793 0.000000000000000e+00 1851878480
3.973571 -2.323411 -2.253860 0.000000000000000e+00 1851878480
4.287005 -1.533299 -2.244301 0.000000000000000e+00 1851878480
4.174913 -1.715446 -2.239564 0.000000000000000e+00 1851878480
4.049809 -2.123133 -2.286872 0.000000000000000e+00 1851878480
3.846332 -2.250672 -2.231827 0.000000000000000e+00 1851878480
4.190283 -1.497280 -2.240513 0.000000000000000e+00 1851878480
4.092973 -1.681041 -2.243116 0.000000000000000e+00 1851878480
3.933929 -2.063183 -2.270964 0.000000000000000e+00 1851878480
3.812960 -2.232803 -2.262630 0.000000000000000e+00 1851878480
4.084330 -1.458023 -2.229907 0.000000000000000e+00 1851878480
4.021070 -1.650782 -2.250786 0.000000000000000e+00 1851878480
3.860225 -2.025322 -2.277465 0.000000000000000e+00 1851878480
3.701673 -2.169264 -2.245763 0.000000000000000e+00 1851878480
4.086257 -1.457300 -2.277423 0.000000000000000e+00 1634890835
3.944521 -1.618635 -2.254527 0.000000000000000e+00 1851878480
3.759444 -1.973225 -2.266225 0.000000000000000e+00 1851878480
3.614311 -2.119673 -2.241241 0.000000000000000e+00 1851878480
4.042900 -1.440431 -2.299631 0.000000000000000e+00 1634890835
3.884050 -1.593104 -2.266253 0.000000000000000e+00 1851878480
3.679953 -1.932274 -2.265962 0.000000000000000e+00 1851878480
3.542111 -2.078920 -2.244457 0.000000000000000e+00 1851878480
3.988039 -1.419485 -2.314580 0.000000000000000e+00 1634890835
3.808052 -1.561224 -2.267712 0.000000000000000e+00 1851878480
3.595536 -1.888706 -2.261002 0.000000000000000e+00 1851878480
3.451187 -2.027120 -2.234076 0.000000000000000e+00 1851878480
3.878250 -1.379034 -2.296153 0.000000000000000e+00 1634890835
3.706382 -1.518845 -2.252165 0.000000000000000e+00 1851878480
3.519859 -1.849706 -2.259906 0.000000000000000e+00 1851878480
3.429235 -2.015798 -2.267286 0.000000000000000e+00 1851878480
3.754131 -1.333560 -2.266919 0.000000000000000e+00 1634890835
3.591208 -1.470968 -2.226200 0.000000000000000e+00 1851878480
3.437754 -1.807304 -2.253067 0.000000000000000e+00 1851878480
3.301549 -1.942271 -2.229006 0.000000000000000e+00 1851878480
3.716464 -1.318840 -2.288399 0.000000000000000e+00 1634890835
3.383742 -1.779647 -2.263295 0.000000000000000e+00 1851878480
3.230925 -1.902240 -2.226970 0.000000000000000e+00 1851878480
3.623976 -1.284702 -2.274993 0.000000000000000e+00 1634890835
3.544525 -1.450482 -2.285446 0.000000000000000e+00 1634890835
3.321787 -1.747794 -2.267126 0.000000000000000e+00 1851878480
3.238682 -1.908340 -2.278577 0.000000000000000e+00 1851878480
3.562371 -1.261554 -2.279547 0.000000000000000e+00 1634890835
3.471528 -1.419933 -2.282222 0.000000000000000e+00 1634890835
3.197980 -1.683365 -2.226687 0.000000000000000e+00 1851878480
3.143589 -1.853816 -2.257084 0.000000000000000e+00 1851878480
3.478822 -1.230675 -2.268723 0.000000000000000e+00 1634890835
3.457739 -1.413610 -2.317280 0.000000000000000e+00 1634890835
3.169658 -1.669170 -2.251120 0.000000000000000e+00 1851878480
3.041662 -1.795184 -2.228344 0.000000000000000e+00 1851878480
3.444126 -1.217113 -2.288745 0.000000000000000e+00 1634890835
3.366593 -1.375677 -2.299613 0.000000000000000e+00 1634890835
3.135299 -1.651792 -2.270888 0.000000000000000e+00 1851878480
3.045916 -1.799191 -2.276490 0.000000000000000e+00 1851878480
3.367333 -1.188702 -2.279850 0.000000000000000e+00 1634890835
3.285600 -1.341921 -2.287120 0.000000000000000e+00 1634890835
3.068051 -1.617072 -2.265905 0.000000000000000e+00 1851878480
2.947865 -1.742739 -2.247309 0.000000000000000e+00 1851878480
3.288870 -1.159745 -2.268322 0.000000000000000e+00 1634890835
3.247610 -1.325742 -2.303479 0.000000000000000e+00 1634890835
3.029551 -1.597487 -2.281154 0.000000000000000e+00 1851878480
2.887062 -1.708246 -2.244676 0.000000000000000e+00 1851878480
3.213991 -1.132100 -2.257771 0.000000000000000e+00 1634890835
3.199097 -1.305280 -2.311708 0.000000000000000e+00 1634890835
2.927051 -1.544131 -2.246689 0.000000000000000e+00 1851878480
2.817877 -1.668747 -2.234090 0.000000000000000e+00 1851878480
3.183904 -1.120259 -2.277796 0.000000000000000e+00 1634890835
3.122166 -1.273241 -2.298206 0.000000000000000e+00 1634890835
2.893827 -1.527296 -2.263933 0.000000000000000e+00 1851878480
2.765733 -1.639297 -2.235692 0.000000000000000e+00 1851878480
3.151105 -1.107475 -2.295528 0.000000000000000e+00 1634890835
3.052717 -1.244278 -2.288720 0.000000000000000e+00 1634890835
2.806988 -1.482147 -2.237976 0.000000000000000e+00 1851878480
2.716213 -1.611367 -2.238381 0.000000000000000e+00 1851878480
3.070693 -1.077988 -2.277560 0.000000000000000e+00 1634890835
3.007856 -1.225350 -2.296597 0.000000000000000e+00 1634890835
2.813958 -1.486516 -2.286153 0.000000000000000e+00 1851878480
0.838704 -0.497998 -0.704525 0.000000000000000e+00 1886740808
3.050851 -1.069791 -2.303667 0.000000000000000e+00 1634890835
2.967593 -1.208309 -2.307309 0.000000000000000e+00 1634890835
2.792179 -1.475707 -2.311298 0.000000000000000e+00 1634890835
0.875094 -0.520076 -0.749226 0.000000000000000e+00 1886740808
2.960646 -1.036952 -2.275645 0.000000000000000e+00 1634890835
2.877433 -1.170972 -2.277900 0.000000000000000e+00 1634890835
0.839373 -0.443833 -0.707861 0.000000000000000e+00 1886740808
0.837887 -0.498420 -0.731087 0.000000000000000e+00 1886740808
2.898377 -1.013945 -2.267509 0.000000000000000e+00 1634890835
2.893005 -1.176667 -2.331651 0.000000000000000e+00 1634890835
0.856589 -0.453154 -0.735874 0.000000000000000e+00 1886740808
0.801595 -0.477275 -0.712726 0.000000000000000e+00 1886740808
2.889362 -1.009583 -2.300551 0.000000000000000e+00 1634890835
2.799330 -1.137942 -2.296750 0.000000000000000e+00 1634890835
0.852432 -0.451176 -0.745916 0.000000000000000e+00 1886740808
0.797292 -0.475160 -0.722321 0.000000000000000e+00 1886740808
2.859843 -0.998059 -2.317235 0.000000000000000e+00 1634890835
2.737776 -1.112300 -2.286470 0.000000000000000e+00 1634890835
0.808253 -0.428005 -0.720345 0.000000000000000e+00 1886740808
0.772206 -0.460650 -0.712782 0.000000000000000e+00 1886740808
2.786200 -0.971163 -2.297223 0.000000000000000e+00 1634890835
0.842356 -0.342038 -0.716039 0.000000000000000e+00 1886740808
0.790679 -0.418910 -0.717668 0.000000000000000e+00 1886740808
0.750638 -0.448218 -0.705883 0.000000000000000e+00 1886740808
0.844670 -0.294053 -0.708611 0.000000000000000e+00 1886740808
0.803369 -0.326020 -0.695020 0.000000000000000e+00 1886740808
0.800464 -0.424310 -0.739885 0.000000000000000e+00 1886740808
0.772778 -0.461892 -0.740295 0.000000000000000e+00 1886740808
0.867183 -0.301509 -0.740170 0.000000000000000e+00 1886740808
0.796603 -0.323087 -0.701351 0.000000000000000e+00 1886740808
0.807490 -0.428256 -0.760031 0.000000000000000e+00 1886740808
0.773414 -0.462733 -0.754716 0.000000000000000e+00 1886740808
0.829996 -0.288210 -0.720723 0.000000000000000e+00 1886740808
0.791135 -0.320679 -0.708808 0.000000000000000e+00 1886740808
0.791007 -0.419734 -0.758089 0.000000000000000e+00 1886740808
0.746703 -0.447204 -0.742193 0.000000000000000e+00 1886740808
0.809167 -0.280612 -0.714788 0.000000000000000e+00 1886740808
0.835512 -0.338466 -0.761713 0.000000000000000e+00 1886740808
0.751411 -0.398936 -0.733232 0.000000000000000e+00 1886740808
0.803172 -0.481517 -0.813119 0.000000000000000e+00 1886740808
0.764880 -0.264904 -0.687314 0.000000000000000e+00 1886740808
0.776963 -0.314556 -0.720737 0.000000000000000e+00 1886740808
0.767716 -0.407813 -0.762725 0.000000000000000e+00 1886740808
0.763382 -0.458140 -0.787128 0.000000000000000e+00 1886740808
0.769090 -0.266004 -0.702977 0.000000000000000e+00 1886740808
0.773606 -0.313004 -0.730152 0.000000000000000e+00 1886740808
0.747505 -0.397295 -0.756080 0.000000000000000e+00 1886740808
0.729410 -0.438215 -0.765979 0.000000000000000e+00 1886740808
0.780428 -0.269559 -0.725570 0.000000000000000e+00 1886740808
0.760597 -0.307548 -0.730379 0.000000000000000e+00 1886740808
0.725254 -0.385684 -0.746819 0.000000000000000e+00 1886740808
0.748500 -0.450168 -0.800506 0.000000000000000e+00 1886740808
0.733402 -0.252965 -0.693514 0.000000000000000e+00 1886740808
0.783244 -0.316504 -0.765201 0.000000000000000e+00 1886740808
0.827592 -0.440356 -0.867561 0.000000000000000e+00 1886740808
2.130498 -1.282741 -2.320448 0.000000000000000e+00 1634890835
0.735864 -0.253458 -0.707722 0.000000000000000e+00 1886740808
0.735989 -0.297216 -0.731512 0.000000000000000e+00 1886740808
0.791554 -0.421424 -0.844721 0.000000000000000e+00 1886740808
2.059602 -1.241434 -2.284460 0.000000000000000e+00 1634890835
0.751720 -0.258549 -0.735295 0.000000000000000e+00 1886740808
0.725352 -0.292728 -0.733432 0.000000000000000e+00 1886740808
2.095561 -1.116330 -2.276535 0.000000000000000e+00 1634890835
2.054885 -1.239991 -2.321089 0.000000000000000e+00 1634890835
0.754952 -0.259284 -0.751026 0.000000000000000e+00 1886740808
0.762042 -0.307330 -0.783866 0.000000000000000e+00 1886740808
2.117425 -1.128650 -2.341631 0.000000000000000e+00 1634890835
0.814317 -0.491953 -0.936696 0.000000000000000e+00 1886740808
0.755506 -0.259091 -0.764356 0.000000000000000e+00 1886740808
0.725876 -0.292546 -0.759576 0.000000000000000e+00 1886740808
2.048867 -1.092767 -2.306522 0.000000000000000e+00 1634890835
0.797238 -0.482199 -0.933885 0.000000000000000e+00 1886740808
0.772892 -0.264655 -0.795230 0.000000000000000e+00 1886740808
0.757188 -0.304955 -0.806036 0.000000000000000e+00 1886740808
1.985180 -1.059452 -2.274976 0.000000000000000e+00 1634890835
0.795527 -0.481736 -0.948993 0.000000000000000e+00 1886740808
0.741059 -0.253366 -0.775424 0.000000000000000e+00 1886740808
2.117178 -0.852085 -2.292704 0.000000000000000e+00 1634890835
0.817756 -0.436695 -0.953974 0.000000000000000e+00 1886740808
0.796639 -0.482994 -0.967781 0.000000000000000e+00 1886740808
0.768801 -0.262442 -0.818109 0.000000000000000e+00 1886740808
2.105644 -0.846838 -2.319612 0.000000000000000e+00 1634890835
0.852301 -0.455433 -1.012152 0.000000000000000e+00 1886740808
0.779329 -0.473083 -0.964163 0.000000000000000e+00 1886740808
0.725781 -0.247363 -0.785443 0.000000000000000e+00 1886740808
2.071223 -0.832388 -2.321131 0.000000000000000e+00 1634890835
0.773483 -0.413585 -0.935084 0.000000000000000e+00 1886740808
1.859735 -1.130350 -2.343178 0.000000000000000e+00 1634890835
2.070096 -0.704398 -2.278314 0.000000000000000e+00 1634890835
2.023769 -0.812713 -2.307177 0.000000000000000e+00 1634890835
0.832634 -0.445509 -1.024733 0.000000000000000e+00 1886740808
1.790823 -1.089859 -2.297966 0.000000000000000e+00 1634890835
2.031213 -0.690030 -2.273512 0.000000000000000e+00 1634890835
1.975453 -0.792710 -2.291082 0.000000000000000e+00 1634890835
0.797582 -0.427041 -0.999310 0.000000000000000e+00 1886740808
0.745313 -0.454175 -0.974050 0.000000000000000e+00 1886740808
1.993898 -0.676215 -2.269711 0.000000000000000e+00 1634890835
1.967896 -0.789069 -2.321877 0.000000000000000e+00 1634890835
0.824102 -0.441545 -1.051210 0.000000000000000e+00 1886740808
1.709894 -1.043353 -2.276047 0.000000000000000e+00 1634890835
1.983236 -0.671448 -2.296026 0.000000000000000e+00 1634890835
0.840373 -0.336701 -1.008751 0.000000000000000e+00 1886740808
1.790561 -0.960037 -2.325400 0.000000000000000e+00 1634890835
1.689399 -1.032247 -2.290521 0.000000000000000e+00 1634890835
1.930029 -0.652293 -2.272543 0.000000000000000e+00 1634890835
0.801428 -0.320840 -0.978733 0.000000000000000e+00 1886740808
0.761527 -0.408597 -1.006962 0.000000000000000e+00 1886740808
1.685245 -1.031135 -2.327436 0.000000000000000e+00 1634890835
1.912750 -0.645302 -2.290688 0.000000000000000e+00 1634890835
0.762499 -0.305006 -0.947421 0.000000000000000e+00 1886740808
1.690234 -0.907554 -2.275705 0.000000000000000e+00 1634890835
1.639134 -1.004340 -2.306044 0.000000000000000e+00 1634890835
0.825190 -0.277887 -1.005164 0.000000000000000e+00 1886740808
0.768998 -0.307349 -0.972191 0.000000000000000e+00 1886740808
1.655542 -0.889591 -2.269740 0.000000000000000e+00 1634890835
1.584275 -0.972128 -2.270655 0.000000000000000e+00 1634890835
0.782105 -0.262889 -0.969037 0.000000000000000e+00 1886740808
0.795534 -0.317684 -1.023359 0.000000000000000e+00 1886740808
1.656122 -0.890580 -2.312180 0.000000000000000e+00 1634890835
1.582073 -0.972210 -2.310180 0.000000000000000e+00 1634890835
0.773669 -0.259559 -0.975085 0.000000000000000e+00 1886740808
0.794282 -0.316908 -1.039702 0.000000000000000e+00 1886740808
1.627197 -0.875707 -2.313624 0.000000000000000e+00 1634890835
1.548986 -0.953311 -2.304622 0.000000000000000e+00 1634890835
0.739201 -0.247514 -0.947730 0.000000000000000e+00 1886740808
1.727682 -0.688709 -2.301386 0.000000000000000e+00 1634890835
1.591341 -0.857090 -2.304476 0.000000000000000e+00 1634890835
1.507798 -0.929393 -2.285945 0.000000000000000e+00 1634890835
0.783372 -0.261785 -1.021760 0.000000000000000e+00 1886740808
1.712346 -0.681976 -2.321322 0.000000000000000e+00 1634890835
1.573675 -0.848264 -2.321216 0.000000000000000e+00 1634890835
1.476876 -0.911767 -2.281797 0.000000000000000e+00 1634890835
0.783311 -0.261233 -1.039444 0.000000000000000e+00 1886740808
0.759475 -0.302195 -1.047867 0.000000000000000e+00 1886740808
1.532159 -0.826572 -2.302154 0.000000000000000e+00 1634890835
1.482586 -0.916767 -2.334568 0.000000000000000e+00 1634890835
1.683318 -0.560218 -2.272731 0.000000000000000e+00 1634890835
1.619298 -0.643706 -2.274056 0.000000000000000e+00 1634890835
1.498065 -0.808867 -2.293152 0.000000000000000e+00 1634890835
1.425074 -0.882658 -2.287308 0.000000000000000e+00 1634890835
0.784261 -0.260452 -1.077431 0.000000000000000e+00 1886740808
1.619087 -0.642996 -2.314522 0.000000000000000e+00 1634890835
1.490272 -0.805362 -2.324253 0.000000000000000e+00 1634890835
1.411527 -0.875746 -2.309545 0.000000000000000e+00 1634890835
1.636442 -0.542278 -2.287758 0.000000000000000e+00 1634890835
1.542405 -0.611932 -2.244626 0.000000000000000e+00 1634890835
1.423777 -0.770112 -2.262675 0.000000000000000e+00 1634890835
1.362534 -0.846811 -2.272938 0.000000000000000e+00 1634890835
1.599330 -0.528799 -2.275439 0.000000000000000e+00 1634890835
1.551263 -0.614819 -2.298405 0.000000000000000e+00 1634890835
1.438433 -0.778750 -2.329610 0.000000000000000e+00 1634890835
1.358336 -0.845699 -2.310506 0.000000000000000e+00 1634890835
1.574674 -0.519457 -2.280206 0.000000000000000e+00 1634890835
1.519858 -0.601743 -2.292888 0.000000000000000e+00 1634890835
1.423602 -0.771442 -2.349899 0.000000000000000e+00 1634890835
1.346630 -0.839936 -2.335975 0.000000000000000e+00 1634890835
1.535412 -0.505317 -2.263114 0.000000000000000e+00 1634890835
1.502621 -0.594279 -2.308417 0.000000000000000e+00 1634890835
1.375023 -0.745833 -2.313634 0.000000000000000e+00 1634890835
1.299665 -0.812154 -2.299507 0.000000000000000e+00 1634890835
1.519649 -0.498926 -2.280172 0.000000000000000e+00 1634890835
1.486558 -0.587280 -2.325844 0.000000000000000e+00 1634890835
1.337667 -0.726285 -2.294654 0.000000000000000e+00 1634890835
1.277449 -0.799799 -2.305672 0.000000000000000e+00 1634890835
1.502527 -0.492085 -2.295284 0.000000000000000e+00 1634890835
1.426532 -0.562930 -2.273350 0.000000000000000e+00 1634890835
1.331317 -0.723568 -2.328623 0.000000000000000e+00 1634890835
1.252478 -0.785707 -2.306462 0.000000000000000e+00 1634890835
1.488143 -0.486139 -2.314724 0.000000000000000e+00 1634890835
1.413932 -0.557312 -2.295381 0.000000000000000e+00 1634890835
1.303600 -0.709239 -2.325295 0.000000000000000e+00 1634890835
1.212086 -0.761904 -2.277760 0.000000000000000e+00 1634890835
1.454338 -0.473857 -2.303631 0.000000000000000e+00 1634890835
1.399343 -0.550905 -2.314462 0.000000000000000e+00 1634890835
1.251842 -0.681806 -2.277566 0.000000000000000e+00 1634890835
1.202346 -0.757349 -2.306116 0.000000000000000e+00 1634890835
1.436283 -0.466719 -2.317058 0.000000000000000e+00 1634890835
1.368336 -0.538038 -2.306111 0.000000000000000e+00 1634890835
1.271529 -0.693287 -2.359995 0.000000000000000e+00 1634890835
1.154386 -0.728691 -2.260292 0.000000000000000e+00 1634890835
1.382470 -0.447995 -2.271754 0.000000000000000e+00 1634890835
1.358195 -0.533379 -2.332792 0.000000000000000e+00 1634890835
1.225289 -0.668830 -2.320418 0.000000000000000e+00 1634890835
1.149584 -0.727254 -2.298288 0.000000000000000e+00 1634890835
1.394136 -0.450493 -2.333898 0.000000000000000e+00 1634890835
1.330748 -0.521923 -2.329727 0.000000000000000e+00 1634890835
1.178277 -0.643914 -2.277202 0.000000000000000e+00 1634890835
1.116618 -0.707996 -2.279882 0.000000000000000e+00 1634890835
1.337818 -0.431030 -2.281973 0.000000000000000e+00 1634890835
1.317447 -0.516018 -2.351310 0.000000000000000e+00 1634890835
1.141410 -0.624513 -2.251701 0.000000000000000e+00 1634890835
1.117882 -0.710448 -2.331556 0.000000000000000e+00 1634890835
1.321213 -0.424398 -2.296639 0.000000000000000e+00 1634890835
1.289715 -0.504461 -2.347004 0.000000000000000e+00 1634890835
1.132331 -0.620308 -2.280607 0.000000000000000e+00 1634890835
1.094584 -0.697313 -2.332624 0.000000000000000e+00 1634890835
1.285519 -0.411650 -2.277598 0.000000000000000e+00 1634890835
1.233211 -0.481678 -2.288658 0.000000000000000e+00 1634890835
1.127393 -0.618386 -2.318769 0.000000000000000e+00 1634890835
1.039299 -0.663732 -2.263553 0.000000000000000e+00 1634890835
1.267286 -0.404510 -2.288910 0.000000000000000e+00 1634890835
1.211900 -0.472663 -2.294129 0.000000000000000e+00 1634890835
1.114676 -0.612212 -2.341744 0.000000000000000e+00 1634890835
1.026567 -0.657276 -2.285635 0.000000000000000e+00 1634890835
1.236153 -0.393267 -2.276474 0.000000000000000e+00 1634890835
1.206536 -0.469863 -2.330170 0.000000000000000e+00 1634890835
1.082070 -0.595108 -2.322538 0.000000000000000e+00 1634890835
1.011744 -0.649495 -2.303460 0.000000000000000e+00 1634890835
1.223661 -0.387961 -2.298116 0.000000000000000e+00 1634890835
1.171644 -0.455565 -2.309041 0.000000000000000e+00 1634890835
1.060105 -0.583841 -2.325339 0.000000000000000e+00 1634890835
1.000861 -0.644261 -2.330777 0.000000000000000e+00 1634890835
1.219416 -0.385247 -2.335997 0.000000000000000e+00 1634890835
1.165960 -0.452626 -2.345341 0.000000000000000e+00 1634890835
1.044038 -0.575821 -2.341011 0.000000000000000e+00 1634890835
0.960642 -0.620118 -2.288969 0.000000000000000e+00 1634890835
1.157956 -0.364492 -2.263160 0.000000000000000e+00 1634890835
1.135929 -0.440235 -2.332719 0.000000000000000e+00 1634890835
1.000139 -0.552434 -2.293101 0.000000000000000e+00 1634890835
0.934849 -0.605229 -2.279879 0.000000000000000e+00 1634890835
1.131803 -0.354909 -2.257326 0.000000000000000e+00 1634890835
1.098725 -0.425083 -2.304074 0.000000000000000e+00 1634890835
1.002380 -0.554527 -2.350733 0.000000000000000e+00 1634890835
0.912111 -0.592294 -2.277497 0.000000000000000e+00 1634890835
1.119337 -0.349622 -2.278702 0.000000000000000e+00 1634890835
1.045497 -0.403769 -2.239439 0.000000000000000e+00 1634890835
0.962323 -0.533219 -2.309075 0.000000000000000e+00 1634890835
0.913387 -0.594982 -2.335936 0.000000000000000e+00 1634890835
1.102401 -0.342929 -2.291276 0.000000000000000e+00 1634890835
1.055902 -0.407034 -2.310829 0.000000000000000e+00 1634890835
0.952420 -0.528608 -2.339047 0.000000000000000e+00 1634890835
0.885071 -0.578412 -2.319234 0.000000000000000e+00 1634890835
1.079355 -0.334341 -2.291004 0.000000000000000e+00 1634890835
1.033385 -0.397590 -2.311312 0.000000000000000e+00 1634890835
0.912859 -0.507525 -2.295417 0.000000000000000e+00 1634890835
0.859466 -0.563575 -2.308492 0.000000000000000e+00 1634890835
1.070780 -0.330228 -2.321689 0.000000000000000e+00 1634890835
1.005758 -0.386192 -2.299708 0.000000000000000e+00 1634890835
0.917698 -0.511126 -2.363556 0.000000000000000e+00 1634890835
0.843536 -0.555071 -2.323374 0.000000000000000e+00 1634890835
1.045412 -0.320931 -2.316101 0.000000000000000e+00 1634890835
0.965424 -0.369937 -2.257443 0.000000000000000e+00 1634890835
0.859955 -0.479856 -2.269454 0.000000000000000e+00 1634890835
0.457112 -0.301890 -1.291653 0.000000000000000e+00 1936876886
1.009481 -0.308426 -2.285943 0.000000000000000e+00 1634890835
0.954590 -0.364999 -2.283387 0.000000000000000e+00 1634890835
0.858074 -0.479733 -2.321290 0.000000000000000e+00 1634890835
0.427650 -0.283507 -1.240292 0.000000000000000e+00 1936876886
1.001536 -0.304483 -2.318824 0.000000000000000e+00 1634890835
0.954112 -0.364000 -2.335490 0.000000000000000e+00 1634890835
0.847560 -0.474809 -2.351384 0.000000000000000e+00 1634890835
0.428057 -0.284900 -1.274862 0.000000000000000e+00 1936876886
0.951159 -0.287673 -2.252333 0.000000000000000e+00 1634890835
0.903384 -0.343842 -2.263738 0.000000000000000e+00 1634890835
0.457151 -0.256637 -1.301251 0.000000000000000e+00 1936876886
0.357077 -0.238640 -1.092637 0.000000000000000e+00 1953264973
0.940315 -0.282859 -2.278150 0.000000000000000e+00 1634890835
0.901369 -0.342240 -2.313122 0.000000000000000e+00 1634890835
0.436798 -0.245748 -1.276264 0.000000000000000e+00 1936876886
0.305298 -0.204916 -0.960352 0.000000000000000e+00 1953264973
0.512179 -0.153201 -1.270043 0.000000000000000e+00 1936876886
0.883289 -0.334523 -2.322297 0.000000000000000e+00 1634890835
0.385511 -0.217389 -1.156854 0.000000000000000e+00 1953264973
0.296835 -0.200134 -0.960435 0.000000000000000e+00 1953264973
0.485194 -0.144272 -1.231876 0.000000000000000e+00 1936876886
0.857152 -0.323761 -2.309816 0.000000000000000e+00 1634890835
0.351263 -0.198551 -1.083155 0.000000000000000e+00 1953264973
0.259706 -0.175928 -0.864868 0.000000000000000e+00 1953264973
0.472838 -0.139729 -1.229689 0.000000000000000e+00 1936876886
0.827511 -0.311695 -2.286618 0.000000000000000e+00 1634890835
0.312695 -0.177194 -0.991393 0.000000000000000e+00 1953264973
0.245219 -0.166937 -0.841053 0.000000000000000e+00 1953264973
