# .PCD v0.7 - Point Cloud Data file format
VERSION 0.7
FIELDS x y z rgb label
SIZE 4 4 4 4 4
TYPE F F F F U
COUNT 1 1 1 1 1
WIDTH 529
HEIGHT 1
VIEWPOINT 0 0 0 1 0 0 0
POINTS 529
DATA ascii
30.737305 -11.418984 -2.232107 0.000000000000000e+00 1851878480
31.825193 -13.307682 -2.238074 0.000000000000000e+00 1851878480
26.856695 -9.969748 -2.194505 0.000000000000000e+00 1851878480
26.553953 -11.099611 -2.116213 0.000000000000000e+00 1851878480
25.778929 -13.311346 -1.908916 0.000000000000000e+00 1851878480
24.888830 -14.147675 -1.750404 0.000000000000000e+00 1851878480
24.224651 -8.985846 -2.199942 0.000000000000000e+00 1851878480
24.303709 -10.155437 -2.164889 0.000000000000000e+00 1851878480
23.318117 -12.044393 -1.960022 0.000000000000000e+00 1851878480
22.783333 -12.958507 -1.838284 0.000000000000000e+00 1851878480
22.094242 -8.189354 -2.207822 0.000000000000000e+00 1851878480
22.164001 -9.258101 -2.182488 0.000000000000000e+00 1851878480
21.689817 -11.206821 -2.040510 0.000000000000000e+00 1851878480
21.243305 -12.089731 -1.934384 0.000000000000000e+00 1851878480
20.372545 -7.545442 -2.221680 0.000000000000000e+00 1851878480
20.371035 -8.506159 -2.197559 0.000000000000000e+00 1851878480
20.378771 -10.532685 -2.121719 0.000000000000000e+00 1851878480
19.968090 -11.370741 -2.025756 0.000000000000000e+00 1851878480
18.913044 -6.999531 -2.235365 0.000000000000000e+00 1851878480
18.908895 -7.892841 -2.217982 0.000000000000000e+00 1851878480
19.107603 -9.878771 -2.181508 0.000000000000000e+00 1851878480
18.891747 -10.764206 -2.113250 0.000000000000000e+00 1851878480
17.577663 -6.500334 -2.238437 0.000000000000000e+00 1851878480
17.599440 -7.343659 -2.230489 0.000000000000000e+00 1851878480
17.733334 -9.171123 -2.203275 0.000000000000000e+00 1851878480
17.917076 -10.214933 -2.191154 0.000000000000000e+00 1851878480
16.396896 -6.059028 -2.238438 0.000000000000000e+00 1851878480
16.435459 -6.855546 -2.238383 0.000000000000000e+00 1851878480
16.571501 -8.572942 -2.226241 0.000000000000000e+00 1851878480
16.706060 -9.530188 -2.217746 0.000000000000000e+00 1851878480
15.362927 -5.672594 -2.238439 0.000000000000000e+00 1851878480
15.366799 -6.407506 -2.238438 0.000000000000000e+00 1851878480
15.446222 -7.993301 -2.231375 0.000000000000000e+00 1851878480
15.540341 -8.870488 -2.225885 0.000000000000000e+00 1851878480
14.449849 -5.331330 -2.238438 0.000000000000000e+00 1851878480
14.426391 -6.013243 -2.238438 0.000000000000000e+00 1851878480
14.451118 -7.480692 -2.234212 0.000000000000000e+00 1851878480
14.497409 -8.280136 -2.228853 0.000000000000000e+00 1851878480
13.637511 -5.027731 -2.238439 0.000000000000000e+00 1851878480
13.592611 -5.663691 -2.238439 0.000000000000000e+00 1851878480
13.577051 -7.030445 -2.237159 0.000000000000000e+00 1851878480
13.587810 -7.765285 -2.232192 0.000000000000000e+00 1851878480
12.910008 -4.755836 -2.238439 0.000000000000000e+00 1851878480
12.848188 -5.351591 -2.238438 0.000000000000000e+00 1851878480
12.793028 -6.626554 -2.238437 0.000000000000000e+00 1851878480
12.784114 -7.310381 -2.235266 0.000000000000000e+00 1851878480
12.254606 -4.510886 -2.238438 0.000000000000000e+00 1851878480
12.179392 -5.071208 -2.238439 0.000000000000000e+00 1851878480
12.086508 -6.262575 -2.238438 0.000000000000000e+00 1851878480
12.066689 -6.904309 -2.237743 0.000000000000000e+00 1851878480
11.661045 -4.289052 -2.238438 0.000000000000000e+00 1851878480
11.575186 -4.817897 -2.238438 0.000000000000000e+00 1851878480
11.452117 -5.935750 -2.238438 0.000000000000000e+00 1851878480
11.415785 -6.535826 -2.238438 0.000000000000000e+00 1851878480
11.120870 -4.087170 -2.238438 0.000000000000000e+00 1851878480
11.026561 -4.587885 -2.238438 0.000000000000000e+00 1851878480
10.879249 -5.640618 -2.238438 0.000000000000000e+00 1851878480
10.826599 -6.202271 -2.238438 0.000000000000000e+00 1851878480
10.627125 -3.902643 -2.238438 0.000000000000000e+00 1851878480
10.526115 -4.378078 -2.238438 0.000000000000000e+00 1851878480
10.359293 -5.372749 -2.238438 0.000000000000000e+00 1851878480
10.293449 -5.900441 -2.238438 0.000000000000000e+00 1851878480
10.173994 -3.733299 -2.238438 0.000000000000000e+00 1851878480
10.067681 -4.185881 -2.238438 0.000000000000000e+00 1851878480
9.885151 -5.128491 -2.238439 0.000000000000000e+00 1851878480
9.808615 -5.625965 -2.238438 0.000000000000000e+00 1851878480
9.756623 -3.577317 -2.238438 0.000000000000000e+00 1851878480
9.646153 -4.009161 -2.238438 0.000000000000000e+00 1851878480
9.450988 -4.904819 -2.238438 0.000000000000000e+00 1851878480
9.365774 -5.375265 -2.238439 0.000000000000000e+00 1851878480
9.370880 -3.433158 -2.238438 0.000000000000000e+00 1851878480
9.257172 -3.846085 -2.238438 0.000000000000000e+00 1851878480
9.051876 -4.699210 -2.238438 0.000000000000000e+00 1851878480
8.959618 -5.145333 -2.238439 0.000000000000000e+00 1851878480
9.013248 -3.299504 -2.238437 0.000000000000000e+00 1851878480
8.897067 -3.695113 -2.238438 0.000000000000000e+00 1851878480
8.683689 -4.509529 -2.238438 0.000000000000000e+00 1851878480
8.585714 -4.933658 -2.238438 0.000000000000000e+00 1851878480
8.680714 -3.175236 -2.238438 0.000000000000000e+00 1851878480
8.562681 -3.554927 -2.238438 0.000000000000000e+00 1851878480
8.342911 -4.333970 -2.238438 0.000000000000000e+00 1851878480
8.240316 -4.738127 -2.238438 0.000000000000000e+00 1851878480
8.370685 -3.059377 -2.238438 0.000000000000000e+00 1851878480
8.251312 -3.424389 -2.238438 0.000000000000000e+00 1851878480
8.026540 -4.170989 -2.238438 0.000000000000000e+00 1851878480
7.920235 -4.556930 -2.238438 0.000000000000000e+00 1851878480
8.080901 -2.951082 -2.238438 0.000000000000000e+00 1851878480
7.960613 -3.302520 -2.238438 0.000000000000000e+00 1851878480
7.732001 -4.019248 -2.238438 0.000000000000000e+00 1851878480
7.622732 -4.388512 -2.238438 0.000000000000000e+00 1851878480
7.809422 -2.849626 -2.238439 0.000000000000000e+00 1851878480
7.688568 -3.188470 -2.238438 0.000000000000000e+00 1851878480
7.457072 -3.877616 -2.238438 0.000000000000000e+00 1851878480
7.345471 -4.231554 -2.238438 0.000000000000000e+00 1851878480
7.554513 -2.754369 -2.238438 0.000000000000000e+00 1851878480
7.433394 -3.081491 -2.238438 0.000000000000000e+00 1851878480
7.199821 -3.745090 -2.238438 0.000000000000000e+00 1851878480
7.086406 -4.084903 -2.238437 0.000000000000000e+00 1851878480
7.314680 -2.664745 -2.238439 0.000000000000000e+00 1851878480
7.193531 -2.980934 -2.238438 0.000000000000000e+00 1851878480
6.958559 -3.620799 -2.238438 0.000000000000000e+00 1851878480
6.843771 -3.947546 -2.238437 0.000000000000000e+00 1851878480
7.088573 -2.580256 -2.238438 0.000000000000000e+00 1851878480
6.967604 -2.886218 -2.238438 0.000000000000000e+00 1851878480
6.731795 -3.503978 -2.238438 0.000000000000000e+00 1851878480
6.616005 -3.818613 -2.238438 0.000000000000000e+00 1851878480
6.875040 -2.500460 -2.238438 0.000000000000000e+00 1851878480
6.754414 -2.796840 -2.238438 0.000000000000000e+00 1851878480
6.518244 -3.393964 -2.238438 0.000000000000000e+00 1851878480
6.401761 -3.697335 -2.238438 0.000000000000000e+00 1851878480
6.673020 -2.424968 -2.238438 0.000000000000000e+00 1851878480
6.552877 -2.712351 -2.238438 0.000000000000000e+00 1851878480
6.316744 -3.290164 -2.238438 0.000000000000000e+00 1851878480
6.199833 -3.583027 -2.238438 0.000000000000000e+00 1851878480
6.481579 -2.353432 -2.238438 0.000000000000000e+00 1851878480
6.362037 -2.632344 -2.238438 0.000000000000000e+00 1851878480
6.126279 -3.192042 -2.238438 0.000000000000000e+00 1851878480
6.009158 -3.475095 -2.238438 0.000000000000000e+00 1851878480
6.299881 -2.285539 -2.238438 0.000000000000000e+00 1851878480
6.181036 -2.556465 -2.238438 0.000000000000000e+00 1851878480
5.945935 -3.099137 -2.238438 0.000000000000000e+00 1851878480
5.828794 -3.372998 -2.238438 0.000000000000000e+00 1851878480
6.127176 -2.221004 -2.238438 0.000000000000000e+00 1851878480
6.009108 -2.484385 -2.238438 0.000000000000000e+00 1851878480
5.774898 -3.011025 -2.238438 0.000000000000000e+00 1851878480
5.657898 -3.276261 -2.238438 0.000000000000000e+00 1851878480
5.962794 -2.159581 -2.238438 0.000000000000000e+00 1851878480
5.845565 -2.415825 -2.238437 0.000000000000000e+00 1851878480
5.612449 -2.927339 -2.238438 0.000000000000000e+00 1851878480
5.495726 -3.184460 -2.238438 0.000000000000000e+00 1851878480
5.806120 -2.101041 -2.238438 0.000000000000000e+00 1851878480
5.689785 -2.350520 -2.238438 0.000000000000000e+00 1851878480
5.457928 -2.847737 -2.238437 0.000000000000000e+00 1851878480
5.341596 -3.097217 -2.238438 0.000000000000000e+00 1851878480
5.656606 -2.045174 -2.238438 0.000000000000000e+00 1851878480
5.541208 -2.288232 -2.238438 0.000000000000000e+00 1851878480
5.310750 -2.771918 -2.238438 0.000000000000000e+00 1851878480
5.194903 -3.014181 -2.238438 0.000000000000000e+00 1851878480
5.513750 -1.991797 -2.238438 0.000000000000000e+00 1851878480
5.399323 -2.228750 -2.238438 0.000000000000000e+00 1851878480
5.170381 -2.699606 -2.238438 0.000000000000000e+00 1851878480
5.055099 -2.935050 -2.238438 0.000000000000000e+00 1851878480
5.377092 -1.940738 -2.238438 0.000000000000000e+00 1851878480
5.263665 -2.171882 -2.238438 0.000000000000000e+00 1851878480
5.036330 -2.630551 -2.238438 0.000000000000000e+00 1851878480
4.921687 -2.859535 -2.238437 0.000000000000000e+00 1851878480
5.246229 -1.891842 -2.238438 0.000000000000000e+00 1851878480
5.133818 -2.117447 -2.238438 0.000000000000000e+00 1851878480
4.908174 -2.564531 -2.238438 0.000000000000000e+00 1851878480
4.794225 -2.787389 -2.238438 0.000000000000000e+00 1851878480
5.120777 -1.844970 -2.238438 0.000000000000000e+00 1851878480
5.009400 -2.065289 -2.238438 0.000000000000000e+00 1851878480
4.785508 -2.501341 -2.238438 0.000000000000000e+00 1851878480
4.672302 -2.718377 -2.238438 0.000000000000000e+00 1851878480
5.000390 -1.799992 -2.238438 0.000000000000000e+00 1851878480
4.890057 -2.015258 -2.238438 0.000000000000000e+00 1851878480
4.667969 -2.440788 -2.238438 0.000000000000000e+00 1851878480
4.555545 -2.652292 -2.238438 0.000000000000000e+00 1851878480
4.884748 -1.756789 -2.238437 0.000000000000000e+00 1851878480
4.775467 -1.967222 -2.238438 0.000000000000000e+00 1851878480
4.555223 -2.382709 -2.238437 0.000000000000000e+00 1851878480
4.443616 -2.588939 -2.238438 0.000000000000000e+00 1851878480
4.773564 -1.715247 -2.238437 0.000000000000000e+00 1851878480
4.665335 -1.921054 -2.238438 0.000000000000000e+00 1851878480
4.446967 -2.326941 -2.238438 0.000000000000000e+00 1851878480
4.336201 -2.528143 -2.238438 0.000000000000000e+00 1851878480
4.666571 -1.675275 -2.238438 0.000000000000000e+00 1851878480
4.559397 -1.876642 -2.238438 0.000000000000000e+00 1851878480
4.342924 -2.273346 -2.238437 0.000000000000000e+00 1851878480
4.233023 -2.469745 -2.238438 0.000000000000000e+00 1851878480
4.563519 -1.636774 -2.238438 0.000000000000000e+00 1851878480
4.457395 -1.833883 -2.238438 0.000000000000000e+00 1851878480
4.242838 -2.221788 -2.238438 0.000000000000000e+00 1851878480
4.133818 -2.413597 -2.238437 0.000000000000000e+00 1851878480
4.464177 -1.599664 -2.238438 0.000000000000000e+00 1851878480
4.359104 -1.792678 -2.238438 0.000000000000000e+00 1851878480
4.146471 -2.172143 -2.238438 0.000000000000000e+00 1851878480
4.038344 -2.359562 -2.238438 0.000000000000000e+00 1851878480
4.368338 -1.563859 -2.238438 0.000000000000000e+00 1851878480
4.264308 -1.752938 -2.238438 0.000000000000000e+00 1851878480
4.053601 -2.124303 -2.238437 0.000000000000000e+00 1851878480
3.946381 -2.307512 -2.238438 0.000000000000000e+00 1851878480
4.275805 -1.529293 -2.238438 0.000000000000000e+00 1851878480
4.172813 -1.714584 -2.238438 0.000000000000000e+00 1851878480
3.964035 -2.078166 -2.238437 0.000000000000000e+00 1851878480
3.857726 -2.257339 -2.238438 0.000000000000000e+00 1851878480
4.186401 -1.495892 -2.238437 0.000000000000000e+00 1851878480
4.084437 -1.677535 -2.238438 0.000000000000000e+00 1851878480
3.877584 -2.033633 -2.238438 0.000000000000000e+00 1851878480
3.772190 -2.208929 -2.238437 0.000000000000000e+00 1851878480
4.099953 -1.463600 -2.238437 0.000000000000000e+00 1851878480
3.999008 -1.641725 -2.238437 0.000000000000000e+00 1851878480
3.794075 -1.990615 -2.238437 0.000000000000000e+00 1851878480
3.689598 -2.162189 -2.238438 0.000000000000000e+00 1851878480
4.088599 -1.458135 -2.278728 0.000000000000000e+00 1634890835
3.916371 -1.607084 -2.238438 0.000000000000000e+00 1851878480
3.713348 -1.949030 -2.238438 0.000000000000000e+00 1851878480
3.609790 -2.117022 -2.238438 0.000000000000000e+00 1851878480
4.006151 -1.427338 -2.278728 0.000000000000000e+00 1634890835
3.836379 -1.573551 -2.238437 0.000000000000000e+00 1851878480
3.635253 -1.908803 -2.238437 0.000000000000000e+00 1851878480
3.532611 -2.073344 -2.238437 0.000000000000000e+00 1851878480
3.926266 -1.397497 -2.278728 0.000000000000000e+00 1634890835
3.758893 -1.541070 -2.238438 0.000000000000000e+00 1851878480
3.559653 -1.869857 -2.238437 0.000000000000000e+00 1851878480
3.457924 -2.031077 -2.238437 0.000000000000000e+00 1851878480
3.848820 -1.368569 -2.278728 0.000000000000000e+00 1634890835
3.683791 -1.509587 -2.238437 0.000000000000000e+00 1851878480
3.486421 -1.832134 -2.238438 0.000000000000000e+00 1851878480
3.385602 -1.990149 -2.238437 0.000000000000000e+00 1851878480
3.773688 -1.340507 -2.278728 0.000000000000000e+00 1634890835
3.610950 -1.479054 -2.238437 0.000000000000000e+00 1851878480
3.415432 -1.795568 -2.238437 0.000000000000000e+00 1851878480
3.315519 -1.950489 -2.238437 0.000000000000000e+00 1851878480
3.700760 -1.313267 -2.278728 0.000000000000000e+00 1634890835
3.346579 -1.760101 -2.238438 0.000000000000000e+00 1851878480
3.247563 -1.912036 -2.238438 0.000000000000000e+00 1851878480
3.629926 -1.286811 -2.278728 0.000000000000000e+00 1634890835
3.534106 -1.446218 -2.278728 0.000000000000000e+00 1634890835
3.279752 -1.725677 -2.238437 0.000000000000000e+00 1851878480
3.181630 -1.874723 -2.238438 0.000000000000000e+00 1851878480
3.561092 -1.261101 -2.278728 0.000000000000000e+00 1634890835
3.466213 -1.417760 -2.278728 0.000000000000000e+00 1634890835
3.214857 -1.692249 -2.238438 0.000000000000000e+00 1851878480
3.117619 -1.838501 -2.238438 0.000000000000000e+00 1851878480
3.494164 -1.236102 -2.278728 0.000000000000000e+00 1634890835
3.400214 -1.390092 -2.278728 0.000000000000000e+00 1634890835
3.151800 -1.659767 -2.238438 0.000000000000000e+00 1851878480
3.055439 -1.803316 -2.238437 0.000000000000000e+00 1851878480
3.429053 -1.211786 -2.278728 0.000000000000000e+00 1634890835
3.336018 -1.363183 -2.278728 0.000000000000000e+00 1634890835
3.090495 -1.628188 -2.238437 0.000000000000000e+00 1851878480
2.995003 -1.769117 -2.238438 0.000000000000000e+00 1851878480
3.365676 -1.188117 -2.278728 0.000000000000000e+00 1634890835
3.273545 -1.336997 -2.278729 0.000000000000000e+00 1634890835
3.030861 -1.597470 -2.238438 0.000000000000000e+00 1851878480
2.936229 -1.735860 -2.238438 0.000000000000000e+00 1851878480
3.303958 -1.165065 -2.278728 0.000000000000000e+00 1634890835
3.212715 -1.311498 -2.278728 0.000000000000000e+00 1634890835
2.972819 -1.567572 -2.238438 0.000000000000000e+00 1851878480
2.879037 -1.703498 -2.238437 0.000000000000000e+00 1851878480
3.243825 -1.142609 -2.278729 0.000000000000000e+00 1634890835
3.153458 -1.286659 -2.278728 0.000000000000000e+00 1634890835
2.916301 -1.538460 -2.238438 0.000000000000000e+00 1851878480
2.823361 -1.671995 -2.238437 0.000000000000000e+00 1851878480
3.185207 -1.120718 -2.278728 0.000000000000000e+00 1634890835
3.095705 -1.262450 -2.278728 0.000000000000000e+00 1634890835
2.861239 -1.510097 -2.238438 0.000000000000000e+00 1851878480
2.769129 -1.641310 -2.238437 0.000000000000000e+00 1851878480
3.128044 -1.099370 -2.278729 0.000000000000000e+00 1634890835
3.039390 -1.238846 -2.278728 0.000000000000000e+00 1634890835
2.807567 -1.482452 -2.238438 0.000000000000000e+00 1851878480
2.716282 -1.611408 -2.238438 0.000000000000000e+00 1851878480
3.072268 -1.078541 -2.278729 0.000000000000000e+00 1634890835
2.984453 -1.215816 -2.278728 0.000000000000000e+00 1634890835
2.755226 -1.455490 -2.238437 0.000000000000000e+00 1851878480
0.840392 -0.499001 -0.705944 0.000000000000000e+00 1886740808
3.017824 -1.058210 -2.278728 0.000000000000000e+00 1634890835
2.930833 -1.193341 -2.278728 0.000000000000000e+00 1634890835
2.752833 -1.454912 -2.278728 0.000000000000000e+00 1634890835
0.824541 -0.490031 -0.705944 0.000000000000000e+00 1886740808
2.964658 -1.038357 -2.278729 0.000000000000000e+00 1634890835
2.878480 -1.171398 -2.278728 0.000000000000000e+00 1634890835
0.837100 -0.442630 -0.705944 0.000000000000000e+00 1886740808
0.809071 -0.481279 -0.705944 0.000000000000000e+00 1886740808
2.912718 -1.018962 -2.278729 0.000000000000000e+00 1634890835
2.827341 -1.149960 -2.278728 0.000000000000000e+00 1634890835
0.821749 -0.434723 -0.705944 0.000000000000000e+00 1886740808
0.793967 -0.472734 -0.705944 0.000000000000000e+00 1886740808
2.861954 -1.000006 -2.278728 0.000000000000000e+00 1634890835
2.777365 -1.129013 -2.278728 0.000000000000000e+00 1634890835
0.806752 -0.426999 -0.705944 0.000000000000000e+00 1886740808
0.779214 -0.464387 -0.705944 0.000000000000000e+00 1886740808
2.812319 -0.981474 -2.278728 0.000000000000000e+00 1634890835
2.728506 -1.108534 -2.278728 0.000000000000000e+00 1634890835
0.792095 -0.419449 -0.705944 0.000000000000000e+00 1886740808
0.764797 -0.456231 -0.705944 0.000000000000000e+00 1886740808
2.763769 -0.963344 -2.278729 0.000000000000000e+00 1634890835
0.830479 -0.337216 -0.705944 0.000000000000000e+00 1886740808
0.777763 -0.412067 -0.705944 0.000000000000000e+00 1886740808
0.750703 -0.448257 -0.705944 0.000000000000000e+00 1886740808
0.841490 -0.292946 -0.705944 0.000000000000000e+00 1886740808
0.815995 -0.331144 -0.705944 0.000000000000000e+00 1886740808
0.763744 -0.404846 -0.705944 0.000000000000000e+00 1886740808
0.744294 -0.444867 -0.713008 0.000000000000000e+00 1886740808
0.827083 -0.287567 -0.705944 0.000000000000000e+00 1886740808
0.801818 -0.325202 -0.705944 0.000000000000000e+00 1886740808
0.750026 -0.397780 -0.705944 0.000000000000000e+00 1886740808
0.744294 -0.445310 -0.726300 0.000000000000000e+00 1886740808
0.812976 -0.282300 -0.705944 0.000000000000000e+00 1886740808
0.787937 -0.319383 -0.705944 0.000000000000000e+00 1886740808
0.744294 -0.394947 -0.713320 0.000000000000000e+00 1886740808
0.744294 -0.445761 -0.739799 0.000000000000000e+00 1886740808
0.799155 -0.277140 -0.705944 0.000000000000000e+00 1886740808
0.774339 -0.313685 -0.705944 0.000000000000000e+00 1886740808
0.744294 -0.395158 -0.726287 0.000000000000000e+00 1886740808
0.744294 -0.446219 -0.753512 0.000000000000000e+00 1886740808
0.785612 -0.272084 -0.705944 0.000000000000000e+00 1886740808
0.761016 -0.308100 -0.705944 0.000000000000000e+00 1886740808
0.744294 -0.395372 -0.739456 0.000000000000000e+00 1886740808
0.744294 -0.446685 -0.767446 0.000000000000000e+00 1886740808
0.772336 -0.267127 -0.705944 0.000000000000000e+00 1886740808
0.747956 -0.302626 -0.705944 0.000000000000000e+00 1886740808
0.744294 -0.395589 -0.752833 0.000000000000000e+00 1886740808
0.744294 -0.447157 -0.781609 0.000000000000000e+00 1886740808
0.759317 -0.262267 -0.705944 0.000000000000000e+00 1886740808
0.744294 -0.300956 -0.714724 0.000000000000000e+00 1886740808
0.744294 -0.395810 -0.766425 0.000000000000000e+00 1886740808
0.744294 -0.447639 -0.796008 0.000000000000000e+00 1886740808
0.746546 -0.257499 -0.705944 0.000000000000000e+00 1886740808
0.744294 -0.300765 -0.727148 0.000000000000000e+00 1886740808
0.744294 -0.396034 -0.780240 0.000000000000000e+00 1886740808
2.092194 -1.259679 -2.278729 0.000000000000000e+00 1634890835
0.744294 -0.256361 -0.715830 0.000000000000000e+00 1886740808
0.744294 -0.300570 -0.739766 0.000000000000000e+00 1886740808
0.744294 -0.396262 -0.794287 0.000000000000000e+00 1886740808
2.054435 -1.238320 -2.278728 0.000000000000000e+00 1634890835
0.744294 -0.255996 -0.728032 0.000000000000000e+00 1886740808
0.744294 -0.300373 -0.752585 0.000000000000000e+00 1886740808
2.097580 -1.117405 -2.278729 0.000000000000000e+00 1634890835
2.017383 -1.217361 -2.278728 0.000000000000000e+00 1634890835
0.744294 -0.255623 -0.740423 0.000000000000000e+00 1886740808
0.744294 -0.300172 -0.765610 0.000000000000000e+00 1886740808
2.060546 -1.098331 -2.278729 0.000000000000000e+00 1634890835
0.796275 -0.481053 -0.915943 0.000000000000000e+00 1886740808
0.744294 -0.255246 -0.753012 0.000000000000000e+00 1886740808
0.744294 -0.299969 -0.778849 0.000000000000000e+00 1886740808
2.024179 -1.079600 -2.278729 0.000000000000000e+00 1634890835
0.784636 -0.474577 -0.919124 0.000000000000000e+00 1886740808
0.744294 -0.254862 -0.765805 0.000000000000000e+00 1886740808
0.744294 -0.299762 -0.792310 0.000000000000000e+00 1886740808
1.988455 -1.061199 -2.278728 0.000000000000000e+00 1634890835
0.775674 -0.469714 -0.925310 0.000000000000000e+00 1886740808
0.744294 -0.254473 -0.778809 0.000000000000000e+00 1886740808
2.104274 -0.846892 -2.278729 0.000000000000000e+00 1634890835
0.797389 -0.425818 -0.930214 0.000000000000000e+00 1886740808
0.768824 -0.466130 -0.933990 0.000000000000000e+00 1886740808
0.744294 -0.254076 -0.792031 0.000000000000000e+00 1886740808
2.068532 -0.831913 -2.278729 0.000000000000000e+00 1634890835
0.785519 -0.419748 -0.932845 0.000000000000000e+00 1886740808
0.764551 -0.464112 -0.945880 0.000000000000000e+00 1886740808
0.744294 -0.253673 -0.805477 0.000000000000000e+00 1886740808
2.033386 -0.817182 -2.278729 0.000000000000000e+00 1634890835
0.776432 -0.415161 -0.938649 0.000000000000000e+00 1886740808
1.808583 -1.099260 -2.278729 0.000000000000000e+00 1634890835
2.070474 -0.704527 -2.278729 0.000000000000000e+00 1634890835
1.998815 -0.802692 -2.278728 0.000000000000000e+00 1634890835
0.769418 -0.411685 -0.946932 0.000000000000000e+00 1886740808
1.775832 -1.080736 -2.278729 0.000000000000000e+00 1634890835
2.035873 -0.691613 -2.278729 0.000000000000000e+00 1634890835
1.964802 -0.788436 -2.278729 0.000000000000000e+00 1634890835
0.764806 -0.409492 -0.958245 0.000000000000000e+00 1886740808
0.749057 -0.456456 -0.978943 0.000000000000000e+00 1886740808
2.001820 -0.678902 -2.278729 0.000000000000000e+00 1634890835
1.931325 -0.774406 -2.278728 0.000000000000000e+00 1634890835
0.767172 -0.411042 -0.978591 0.000000000000000e+00 1886740808
1.711909 -1.044582 -2.278729 0.000000000000000e+00 1634890835
1.968295 -0.666389 -2.278729 0.000000000000000e+00 1634890835
0.797682 -0.319597 -0.957506 0.000000000000000e+00 1886740808
1.754624 -0.940769 -2.278729 0.000000000000000e+00 1634890835
1.680702 -1.026933 -2.278729 0.000000000000000e+00 1634890835
1.935282 -0.654068 -2.278729 0.000000000000000e+00 1634890835
0.785811 -0.314588 -0.959662 0.000000000000000e+00 1886740808
0.751062 -0.402982 -0.993125 0.000000000000000e+00 1886740808
1.649977 -1.009556 -2.278729 0.000000000000000e+00 1634890835
1.902764 -0.641933 -2.278729 0.000000000000000e+00 1634890835
0.776732 -0.310699 -0.965106 0.000000000000000e+00 1886740808
1.692479 -0.908760 -2.278729 0.000000000000000e+00 1634890835
1.619717 -0.992443 -2.278729 0.000000000000000e+00 1634890835
0.796758 -0.268312 -0.970530 0.000000000000000e+00 1886740808
0.769656 -0.307612 -0.973023 0.000000000000000e+00 1886740808
1.662099 -0.893114 -2.278729 0.000000000000000e+00 1634890835
1.589908 -0.975585 -2.278729 0.000000000000000e+00 1634890835
0.785169 -0.263918 -0.972832 0.000000000000000e+00 1886740808
0.764879 -0.305443 -0.983925 0.000000000000000e+00 1886740808
1.632163 -0.877696 -2.278729 0.000000000000000e+00 1634890835
1.560534 -0.958974 -2.278729 0.000000000000000e+00 1634890835
0.776223 -0.260416 -0.978304 0.000000000000000e+00 1886740808
0.765620 -0.305472 -1.002184 0.000000000000000e+00 1886740808
1.602654 -0.862499 -2.278729 0.000000000000000e+00 1634890835
1.531583 -0.942600 -2.278729 0.000000000000000e+00 1634890835
0.769283 -0.257587 -0.986298 0.000000000000000e+00 1886740808
1.710674 -0.681929 -2.278729 0.000000000000000e+00 1634890835
1.573562 -0.847514 -2.278729 0.000000000000000e+00 1634890835
1.503039 -0.926459 -2.278729 0.000000000000000e+00 1634890835
0.764663 -0.255533 -0.997358 0.000000000000000e+00 1886740808
1.680926 -0.669463 -2.278728 0.000000000000000e+00 1634890835
1.544871 -0.832738 -2.278729 0.000000000000000e+00 1634890835
1.474891 -0.910541 -2.278729 0.000000000000000e+00 1634890835
0.766227 -0.255535 -1.016774 0.000000000000000e+00 1886740808
0.744046 -0.296056 -1.026580 0.000000000000000e+00 1886740808
1.516569 -0.818162 -2.278729 0.000000000000000e+00 1634890835
1.447125 -0.894839 -2.278729 0.000000000000000e+00 1634890835
1.687760 -0.561696 -2.278729 0.000000000000000e+00 1634890835
1.622625 -0.645029 -2.278729 0.000000000000000e+00 1634890835
1.488644 -0.803779 -2.278729 0.000000000000000e+00 1634890835
1.419729 -0.879348 -2.278729 0.000000000000000e+00 1634890835
0.752068 -0.249761 -1.033204 0.000000000000000e+00 1886740808
1.594049 -0.633053 -2.278729 0.000000000000000e+00 1634890835
1.461083 -0.789588 -2.278729 0.000000000000000e+00 1634890835
1.392693 -0.864061 -2.278729 0.000000000000000e+00 1634890835
1.629984 -0.540138 -2.278729 0.000000000000000e+00 1634890835
1.565839 -0.621229 -2.278729 0.000000000000000e+00 1634890835
1.433879 -0.775576 -2.278729 0.000000000000000e+00 1634890835
1.366006 -0.848969 -2.278730 0.000000000000000e+00 1634890835
1.601643 -0.529564 -2.278729 0.000000000000000e+00 1634890835
1.537983 -0.609556 -2.278729 0.000000000000000e+00 1634890835
1.407016 -0.761741 -2.278729 0.000000000000000e+00 1634890835
1.339655 -0.834068 -2.278729 0.000000000000000e+00 1634890835
1.573653 -0.519120 -2.278729 0.000000000000000e+00 1634890835
1.510472 -0.598027 -2.278729 0.000000000000000e+00 1634890835
1.380486 -0.748078 -2.278729 0.000000000000000e+00 1634890835
1.313630 -0.819353 -2.278730 0.000000000000000e+00 1634890835
1.546006 -0.508803 -2.278729 0.000000000000000e+00 1634890835
1.483297 -0.586637 -2.278729 0.000000000000000e+00 1634890835
1.354279 -0.734581 -2.278730 0.000000000000000e+00 1634890835
1.287922 -0.804816 -2.278730 0.000000000000000e+00 1634890835
1.518687 -0.498610 -2.278729 0.000000000000000e+00 1634890835
1.456445 -0.575383 -2.278729 0.000000000000000e+00 1634890835
1.328384 -0.721245 -2.278731 0.000000000000000e+00 1634890835
1.262521 -0.790453 -2.278730 0.000000000000000e+00 1634890835
1.491690 -0.488535 -2.278729 0.000000000000000e+00 1634890835
1.429908 -0.564262 -2.278729 0.000000000000000e+00 1634890835
1.302793 -0.708065 -2.278730 0.000000000000000e+00 1634890835
1.237418 -0.776260 -2.278730 0.000000000000000e+00 1634890835
1.465002 -0.478579 -2.278729 0.000000000000000e+00 1634890835
1.403675 -0.553269 -2.278729 0.000000000000000e+00 1634890835
1.277494 -0.695037 -2.278730 0.000000000000000e+00 1634890835
1.212602 -0.762229 -2.278730 0.000000000000000e+00 1634890835
1.438617 -0.468735 -2.278729 0.000000000000000e+00 1634890835
1.377738 -0.542400 -2.278729 0.000000000000000e+00 1634890835
1.252482 -0.682155 -2.278730 0.000000000000000e+00 1634890835
1.188068 -0.748355 -2.278730 0.000000000000000e+00 1634890835
1.412524 -0.458999 -2.278729 0.000000000000000e+00 1634890835
1.352089 -0.531650 -2.278730 0.000000000000000e+00 1634890835
1.227745 -0.669414 -2.278730 0.000000000000000e+00 1634890835
1.163803 -0.734635 -2.278730 0.000000000000000e+00 1634890835
1.386714 -0.449371 -2.278729 0.000000000000000e+00 1634890835
1.326719 -0.521018 -2.278730 0.000000000000000e+00 1634890835
1.203277 -0.656814 -2.278730 0.000000000000000e+00 1634890835
1.139801 -0.721065 -2.278730 0.000000000000000e+00 1634890835
1.361182 -0.439845 -2.278730 0.000000000000000e+00 1634890835
1.301619 -0.510498 -2.278730 0.000000000000000e+00 1634890835
1.179068 -0.644346 -2.278730 0.000000000000000e+00 1634890835
1.116054 -0.707639 -2.278730 0.000000000000000e+00 1634890835
1.335917 -0.430417 -2.278730 0.000000000000000e+00 1634890835
1.276781 -0.500090 -2.278731 0.000000000000000e+00 1634890835
1.155111 -0.632010 -2.278730 0.000000000000000e+00 1634890835
1.092554 -0.694351 -2.278730 0.000000000000000e+00 1634890835
1.310911 -0.421089 -2.278730 0.000000000000000e+00 1634890835
1.252197 -0.489787 -2.278730 0.000000000000000e+00 1634890835
1.131399 -0.619797 -2.278730 0.000000000000000e+00 1634890835
1.069294 -0.681201 -2.278730 0.000000000000000e+00 1634890835
1.286158 -0.411854 -2.278730 0.000000000000000e+00 1634890835
1.227862 -0.479589 -2.278730 0.000000000000000e+00 1634890835
1.107925 -0.607708 -2.278730 0.000000000000000e+00 1634890835
1.046267 -0.668182 -2.278730 0.000000000000000e+00 1634890835
1.261650 -0.402711 -2.278730 0.000000000000000e+00 1634890835
1.203765 -0.469490 -2.278730 0.000000000000000e+00 1634890835
1.084681 -0.595738 -2.278730 0.000000000000000e+00 1634890835
1.023466 -0.655290 -2.278730 0.000000000000000e+00 1634890835
1.237378 -0.393657 -2.278730 0.000000000000000e+00 1634890835
1.179901 -0.459490 -2.278730 0.000000000000000e+00 1634890835
1.061660 -0.583883 -2.278730 0.000000000000000e+00 1634890835
1.000882 -0.642522 -2.278730 0.000000000000000e+00 1634890835
1.213338 -0.384688 -2.278730 0.000000000000000e+00 1634890835
1.156264 -0.449585 -2.278730 0.000000000000000e+00 1634890835
1.038856 -0.572139 -2.278730 0.000000000000000e+00 1634890835
0.978511 -0.629875 -2.278730 0.000000000000000e+00 1634890835
1.189522 -0.375803 -2.278730 0.000000000000000e+00 1634890835
1.132845 -0.439771 -2.278730 0.000000000000000e+00 1634890835
1.016262 -0.560502 -2.278730 0.000000000000000e+00 1634890835
0.956345 -0.617344 -2.278730 0.000000000000000e+00 1634890835
1.165922 -0.366999 -2.278730 0.000000000000000e+00 1634890835
1.109639 -0.430047 -2.278730 0.000000000000000e+00 1634890835
0.993870 -0.548971 -2.278730 0.000000000000000e+00 1634890835
0.934378 -0.604924 -2.278730 0.000000000000000e+00 1634890835
1.142534 -0.358274 -2.278731 0.000000000000000e+00 1634890835
1.086640 -0.420408 -2.278730 0.000000000000000e+00 1634890835
0.971677 -0.537542 -2.278730 0.000000000000000e+00 1634890835
0.912605 -0.592615 -2.278730 0.000000000000000e+00 1634890835
1.119350 -0.349626 -2.278730 0.000000000000000e+00 1634890835
1.063840 -0.410853 -2.278730 0.000000000000000e+00 1634890835
0.949676 -0.526212 -2.278730 0.000000000000000e+00 1634890835
0.891019 -0.580411 -2.278730 0.000000000000000e+00 1634890835
1.096365 -0.341051 -2.278730 0.000000000000000e+00 1634890835
1.041235 -0.401380 -2.278730 0.000000000000000e+00 1634890835
0.927859 -0.514977 -2.278730 0.000000000000000e+00 1634890835
0.869614 -0.568310 -2.278729 0.000000000000000e+00 1634890835
1.073573 -0.332550 -2.278730 0.000000000000000e+00 1634890835
1.018818 -0.391986 -2.278730 0.000000000000000e+00 1634890835
0.906223 -0.503835 -2.278730 0.000000000000000e+00 1634890835
0.848385 -0.556309 -2.278730 0.000000000000000e+00 1634890835
1.050967 -0.324117 -2.278730 0.000000000000000e+00 1634890835
0.996584 -0.382669 -2.278730 0.000000000000000e+00 1634890835
0.884762 -0.492782 -2.278729 0.000000000000000e+00 1634890835
0.827327 -0.544405 -2.278730 0.000000000000000e+00 1634890835
1.028544 -0.315753 -2.278730 0.000000000000000e+00 1634890835
0.974528 -0.373425 -2.278730 0.000000000000000e+00 1634890835
0.863470 -0.481817 -2.278730 0.000000000000000e+00 1634890835
0.451010 -0.297860 -1.274411 0.000000000000000e+00 1936876886
1.006296 -0.307453 -2.278730 0.000000000000000e+00 1634890835
0.952643 -0.364255 -2.278730 0.000000000000000e+00 1634890835
0.842341 -0.470937 -2.278730 0.000000000000000e+00 1634890835
0.433312 -0.287260 -1.256713 0.000000000000000e+00 1936876886
0.984219 -0.299219 -2.278730 0.000000000000000e+00 1634890835
0.930924 -0.355154 -2.278730 0.000000000000000e+00 1634890835
0.821372 -0.460138 -2.278730 0.000000000000000e+00 1634890835
0.421224 -0.280352 -1.254509 0.000000000000000e+00 1936876886
0.962306 -0.291044 -2.278730 0.000000000000000e+00 1634890835
0.909367 -0.346119 -2.278730 0.000000000000000e+00 1634890835
0.445941 -0.250343 -1.269342 0.000000000000000e+00 1936876886
0.335125 -0.223969 -1.025464 0.000000000000000e+00 1953264973
0.940554 -0.282931 -2.278730 0.000000000000000e+00 1634890835
0.887967 -0.337151 -2.278730 0.000000000000000e+00 1634890835
0.428905 -0.241307 -1.253204 0.000000000000000e+00 1936876886
0.306470 -0.205702 -0.964037 0.000000000000000e+00 1953264973
0.495093 -0.148090 -1.227675 0.000000000000000e+00 1936876886
0.866718 -0.328247 -2.278730 0.000000000000000e+00 1634890835
0.358551 -0.202187 -1.075952 0.000000000000000e+00 1953264973
0.281220 -0.189607 -0.909912 0.000000000000000e+00 1953264973
0.483539 -0.143780 -1.227674 0.000000000000000e+00 1936876886
0.845616 -0.319403 -2.278730 0.000000000000000e+00 1634890835
0.326692 -0.184662 -1.007387 0.000000000000000e+00 1953264973
0.258800 -0.175314 -0.861850 0.000000000000000e+00 1953264973
0.472063 -0.139500 -1.227674 0.000000000000000e+00 1936876886
0.824656 -0.310620 -2.278730 0.000000000000000e+00 1634890835
0.299051 -0.169462 -0.948136 0.000000000000000e+00 1953264973
0.238754 -0.162536 -0.818878 0.000000000000000e+00 1953264973
