# .PCD v0.7 - Point Cloud Data file format
VERSION 0.7
FIELDS x y z rgb label
SIZE 4 4 4 4 4
TYPE F F F F U
COUNT 1 1 1 1 1
WIDTH 528
HEIGHT 1
VIEWPOINT 0 0 0 1 0 0 0
POINTS 528
DATA ascii
32.915302 -16.794394 10.227520 0.000000000000000e+00 1954047316
27.323473 -10.143026 -2.232646 0.000000000000000e+00 1851878480
28.053253 -11.726321 -2.235700 0.000000000000000e+00 1851878480
30.645950 -15.824506 -2.269316 0.000000000000000e+00 1851878480
24.388590 -9.046657 -2.214830 0.000000000000000e+00 1851878480
24.648512 -10.299514 -2.195603 0.000000000000000e+00 1851878480
24.137739 -12.467748 -2.028916 0.000000000000000e+00 1851878480
23.858381 -13.569963 -1.925024 0.000000000000000e+00 1851878480
22.159147 -8.213412 -2.214307 0.000000000000000e+00 1851878480
22.332621 -9.328534 -2.199092 0.000000000000000e+00 1851878480
22.005796 -11.370084 -2.070236 0.000000000000000e+00 1851878480
21.690903 -12.344463 -1.975141 0.000000000000000e+00 1851878480
20.390312 -7.552023 -2.223618 0.000000000000000e+00 1851878480
20.453302 -8.540510 -2.206434 0.000000000000000e+00 1851878480
20.519032 -10.605180 -2.136322 0.000000000000000e+00 1851878480
20.009890 -11.394545 -2.029996 0.000000000000000e+00 1851878480
18.962572 -7.017860 -2.241218 0.000000000000000e+00 1851878480
18.909405 -7.893054 -2.218041 0.000000000000000e+00 1851878480
19.045870 -9.846854 -2.174461 0.000000000000000e+00 1851878480
18.786194 -10.704063 -2.101443 0.000000000000000e+00 1851878480
17.592737 -6.505909 -2.240357 0.000000000000000e+00 1851878480
17.584747 -7.337528 -2.228626 0.000000000000000e+00 1851878480
17.573742 -9.088587 -2.183448 0.000000000000000e+00 1851878480
17.651995 -10.063805 -2.158736 0.000000000000000e+00 1851878480
16.432421 -6.072155 -2.243289 0.000000000000000e+00 1851878480
16.462927 -6.867002 -2.242124 0.000000000000000e+00 1851878480
16.410448 -8.489625 -2.204605 0.000000000000000e+00 1851878480
16.450966 -9.384665 -2.183882 0.000000000000000e+00 1851878480
15.357944 -5.670753 -2.237712 0.000000000000000e+00 1851878480
15.372106 -6.409719 -2.239211 0.000000000000000e+00 1851878480
15.422750 -7.981155 -2.227985 0.000000000000000e+00 1851878480
15.419947 -8.801765 -2.208641 0.000000000000000e+00 1851878480
14.456505 -5.333785 -2.239469 0.000000000000000e+00 1851878480
14.452873 -6.024282 -2.242547 0.000000000000000e+00 1851878480
14.407987 -7.458365 -2.227544 0.000000000000000e+00 1851878480
14.406922 -8.228455 -2.214941 0.000000000000000e+00 1851878480
13.638231 -5.027997 -2.238557 0.000000000000000e+00 1851878480
13.590248 -5.662706 -2.238050 0.000000000000000e+00 1851878480
13.605240 -7.045041 -2.241804 0.000000000000000e+00 1851878480
13.610002 -7.777967 -2.235837 0.000000000000000e+00 1851878480
12.946169 -4.769157 -2.244709 0.000000000000000e+00 1851878480
12.913564 -5.378821 -2.249828 0.000000000000000e+00 1851878480
12.808966 -6.634810 -2.241226 0.000000000000000e+00 1851878480
12.841920 -7.343437 -2.245374 0.000000000000000e+00 1851878480
12.267531 -4.515643 -2.240799 0.000000000000000e+00 1851878480
12.225556 -5.090430 -2.246923 0.000000000000000e+00 1851878480
12.091096 -6.264952 -2.239287 0.000000000000000e+00 1851878480
12.080175 -6.912026 -2.240244 0.000000000000000e+00 1851878480
11.715075 -4.308925 -2.248810 0.000000000000000e+00 1851878480
11.602068 -4.829086 -2.243636 0.000000000000000e+00 1851878480
11.475664 -5.947955 -2.243041 0.000000000000000e+00 1851878480
11.424851 -6.541017 -2.240216 0.000000000000000e+00 1851878480
11.127924 -4.089763 -2.239858 0.000000000000000e+00 1851878480
11.057770 -4.600871 -2.244773 0.000000000000000e+00 1851878480
10.898762 -5.650736 -2.242453 0.000000000000000e+00 1851878480
10.820215 -6.198614 -2.237118 0.000000000000000e+00 1851878480
10.681748 -3.922703 -2.249943 0.000000000000000e+00 1851878480
10.573217 -4.397669 -2.248455 0.000000000000000e+00 1851878480
10.398457 -5.393061 -2.246901 0.000000000000000e+00 1851878480
10.272643 -5.888514 -2.233914 0.000000000000000e+00 1851878480
10.198606 -3.742331 -2.243853 0.000000000000000e+00 1851878480
10.037770 -4.173446 -2.231788 0.000000000000000e+00 1851878480
9.905010 -5.138794 -2.242935 0.000000000000000e+00 1851878480
9.832211 -5.639499 -2.243822 0.000000000000000e+00 1851878480
9.752524 -3.575814 -2.237497 0.000000000000000e+00 1851878480
9.653064 -4.012033 -2.240042 0.000000000000000e+00 1851878480
9.518001 -4.939598 -2.254310 0.000000000000000e+00 1851878480
9.375856 -5.381051 -2.240848 0.000000000000000e+00 1851878480
9.400020 -3.443834 -2.245399 0.000000000000000e+00 1851878480
9.245642 -3.841295 -2.235650 0.000000000000000e+00 1851878480
9.051906 -4.699225 -2.238445 0.000000000000000e+00 1851878480
8.972167 -5.152541 -2.241574 0.000000000000000e+00 1851878480
8.971030 -3.284049 -2.227953 0.000000000000000e+00 1851878480
8.970067 -3.725431 -2.256804 0.000000000000000e+00 1851878480
8.747306 -4.542566 -2.254837 0.000000000000000e+00 1851878480
8.614438 -4.950164 -2.245927 0.000000000000000e+00 1851878480
8.687071 -3.177562 -2.240077 0.000000000000000e+00 1851878480
8.569218 -3.557641 -2.240147 0.000000000000000e+00 1851878480
8.364011 -4.344932 -2.244099 0.000000000000000e+00 1851878480
8.280740 -4.761371 -2.249419 0.000000000000000e+00 1851878480
8.373129 -3.060271 -2.239092 0.000000000000000e+00 1851878480
8.307046 -3.447519 -2.253558 0.000000000000000e+00 1851878480
8.108113 -4.213378 -2.261187 0.000000000000000e+00 1851878480
7.914837 -4.553825 -2.236913 0.000000000000000e+00 1851878480
8.091187 -2.954838 -2.241287 0.000000000000000e+00 1851878480
7.954496 -3.299982 -2.236718 0.000000000000000e+00 1851878480
7.719548 -4.012774 -2.234833 0.000000000000000e+00 1851878480
7.676534 -4.419486 -2.254237 0.000000000000000e+00 1851878480
7.787732 -2.841712 -2.232222 0.000000000000000e+00 1851878480
7.680232 -3.185013 -2.236011 0.000000000000000e+00 1851878480
7.507806 -3.903998 -2.253667 0.000000000000000e+00 1851878480
7.398748 -4.262246 -2.254673 0.000000000000000e+00 1851878480
7.555175 -2.754611 -2.238634 0.000000000000000e+00 1851878480
7.473600 -3.098158 -2.250546 0.000000000000000e+00 1851878480
7.265905 -3.779464 -2.258983 0.000000000000000e+00 1851878480
7.058271 -4.068686 -2.229550 0.000000000000000e+00 1851878480
7.330510 -2.670511 -2.243283 0.000000000000000e+00 1851878480
7.195554 -2.981772 -2.239068 0.000000000000000e+00 1851878480
6.962774 -3.622992 -2.239794 0.000000000000000e+00 1851878480
6.865451 -3.960051 -2.245528 0.000000000000000e+00 1851878480
7.137945 -2.598227 -2.254029 0.000000000000000e+00 1851878480
7.036065 -2.914577 -2.260432 0.000000000000000e+00 1851878480
6.771468 -3.524629 -2.251629 0.000000000000000e+00 1851878480
6.642582 -3.833953 -2.247430 0.000000000000000e+00 1851878480
6.873033 -2.499730 -2.237784 0.000000000000000e+00 1851878480
6.811855 -2.820625 -2.257474 0.000000000000000e+00 1851878480
6.571102 -3.421486 -2.256589 0.000000000000000e+00 1851878480
6.447613 -3.723817 -2.254471 0.000000000000000e+00 1851878480
6.694983 -2.432950 -2.245806 0.000000000000000e+00 1851878480
6.583537 -2.725041 -2.248911 0.000000000000000e+00 1851878480
6.296813 -3.279782 -2.231375 0.000000000000000e+00 1851878480
6.213246 -3.590779 -2.243281 0.000000000000000e+00 1851878480
6.484374 -2.354447 -2.239403 0.000000000000000e+00 1851878480
6.395724 -2.646282 -2.250290 0.000000000000000e+00 1851878480
6.191245 -3.225892 -2.262175 0.000000000000000e+00 1851878480
6.041728 -3.493931 -2.250570 0.000000000000000e+00 1851878480
6.292866 -2.282994 -2.235945 0.000000000000000e+00 1851878480
6.277113 -2.596202 -2.273231 0.000000000000000e+00 1851878480
5.975174 -3.114377 -2.249446 0.000000000000000e+00 1851878480
5.851250 -3.385992 -2.247061 0.000000000000000e+00 1851878480
6.152421 -2.230155 -2.247661 0.000000000000000e+00 1851878480
6.062974 -2.506655 -2.258504 0.000000000000000e+00 1851878480
5.818478 -3.033747 -2.255330 0.000000000000000e+00 1851878480
5.669830 -3.283170 -2.243158 0.000000000000000e+00 1851878480
5.999501 -2.172876 -2.252218 0.000000000000000e+00 1851878480
5.882433 -2.431062 -2.252556 0.000000000000000e+00 1851878480
5.611986 -2.927098 -2.238253 0.000000000000000e+00 1851878480
5.481258 -3.176076 -2.232545 0.000000000000000e+00 1851878480
5.845785 -2.115394 -2.253730 0.000000000000000e+00 1851878480
5.665807 -2.340614 -2.229004 0.000000000000000e+00 1851878480
5.506253 -2.872950 -2.258256 0.000000000000000e+00 1851878480
5.352725 -3.103670 -2.243102 0.000000000000000e+00 1851878480
5.703126 -2.061994 -2.256847 0.000000000000000e+00 1851878480
5.565469 -2.298251 -2.248238 0.000000000000000e+00 1851878480
5.352962 -2.793950 -2.256230 0.000000000000000e+00 1851878480
5.181051 -3.006144 -2.232469 0.000000000000000e+00 1851878480
5.586151 -2.017951 -2.267831 0.000000000000000e+00 1851878480
5.392297 -2.225849 -2.235525 0.000000000000000e+00 1851878480
5.168814 -2.698788 -2.237760 0.000000000000000e+00 1851878480
5.074782 -2.946478 -2.247154 0.000000000000000e+00 1851878480
5.389480 -1.945209 -2.243594 0.000000000000000e+00 1851878480
5.346244 -2.205956 -2.273556 0.000000000000000e+00 1851878480
5.099833 -2.663719 -2.266662 0.000000000000000e+00 1851878480
4.956513 -2.879769 -2.254277 0.000000000000000e+00 1851878480
5.262968 -1.897878 -2.245580 0.000000000000000e+00 1851878480
5.158522 -2.127636 -2.249209 0.000000000000000e+00 1851878480
4.971606 -2.597674 -2.267367 0.000000000000000e+00 1851878480
4.805454 -2.793918 -2.243681 0.000000000000000e+00 1851878480
5.155867 -1.857613 -2.253777 0.000000000000000e+00 1851878480
5.096127 -2.101045 -2.277192 0.000000000000000e+00 1851878480
4.808211 -2.513208 -2.249058 0.000000000000000e+00 1851878480
4.681417 -2.723680 -2.242805 0.000000000000000e+00 1851878480
4.971176 -1.789476 -2.225360 0.000000000000000e+00 1851878480
4.945054 -2.037923 -2.263613 0.000000000000000e+00 1851878480
4.702924 -2.459065 -2.255200 0.000000000000000e+00 1851878480
4.542924 -2.644944 -2.232236 0.000000000000000e+00 1851878480
4.885263 -1.756974 -2.238673 0.000000000000000e+00 1851878480
4.817523 -1.984547 -2.258151 0.000000000000000e+00 1851878480
4.593368 -2.402661 -2.257182 0.000000000000000e+00 1851878480
4.450675 -2.593052 -2.241994 0.000000000000000e+00 1851878480
4.772679 -1.714929 -2.238022 0.000000000000000e+00 1851878480
4.727655 -1.946715 -2.268339 0.000000000000000e+00 1851878480
4.486244 -2.347494 -2.258208 0.000000000000000e+00 1851878480
4.359666 -2.541823 -2.250551 0.000000000000000e+00 1851878480
4.673088 -1.677614 -2.241564 0.000000000000000e+00 1851878480
4.610406 -1.897638 -2.263481 0.000000000000000e+00 1851878480
4.360206 -2.282392 -2.247345 0.000000000000000e+00 1851878480
4.244215 -2.476275 -2.244356 0.000000000000000e+00 1851878480
4.552444 -1.632802 -2.233006 0.000000000000000e+00 1851878480
4.462091 -1.835815 -2.240796 0.000000000000000e+00 1851878480
4.247992 -2.224487 -2.241157 0.000000000000000e+00 1851878480
4.135086 -2.414337 -2.239124 0.000000000000000e+00 1851878480
4.448769 -1.594143 -2.230712 0.000000000000000e+00 1851878480
4.388461 -1.804752 -2.253513 0.000000000000000e+00 1851878480
4.146422 -2.172118 -2.238412 0.000000000000000e+00 1851878480
3.987691 -2.329966 -2.210361 0.000000000000000e+00 1851878480
4.412983 -1.579842 -2.261315 0.000000000000000e+00 1851878480
4.301368 -1.768173 -2.257892 0.000000000000000e+00 1851878480
4.046252 -2.120452 -2.234379 0.000000000000000e+00 1851878480
3.947886 -2.308392 -2.239291 0.000000000000000e+00 1851878480
4.331483 -1.549207 -2.267586 0.000000000000000e+00 1851878480
4.212795 -1.731012 -2.259886 0.000000000000000e+00 1851878480
3.986183 -2.089777 -2.250944 0.000000000000000e+00 1851878480
3.866201 -2.262298 -2.243356 0.000000000000000e+00 1851878480
4.213866 -1.505706 -2.253123 0.000000000000000e+00 1851878480
4.115622 -1.690344 -2.255528 0.000000000000000e+00 1851878480
3.890609 -2.040463 -2.245957 0.000000000000000e+00 1851878480
3.792423 -2.220777 -2.250444 0.000000000000000e+00 1851878480
4.115250 -1.469061 -2.246788 0.000000000000000e+00 1851878480
3.976755 -1.632589 -2.225981 0.000000000000000e+00 1851878480
3.831948 -2.010486 -2.260782 0.000000000000000e+00 1851878480
3.719766 -2.179867 -2.256740 0.000000000000000e+00 1851878480
4.122180 -1.470111 -2.297444 0.000000000000000e+00 1634890835
3.911668 -1.605154 -2.235749 0.000000000000000e+00 1851878480
3.756283 -1.971566 -2.264319 0.000000000000000e+00 1851878480
3.654399 -2.143183 -2.266100 0.000000000000000e+00 1851878480
4.010374 -1.428843 -2.281130 0.000000000000000e+00 1634890835
3.885049 -1.593513 -2.266835 0.000000000000000e+00 1851878480
3.656289 -1.919848 -2.251390 0.000000000000000e+00 1851878480
3.542989 -2.079435 -2.245013 0.000000000000000e+00 1851878480
3.898126 -1.387481 -2.262396 0.000000000000000e+00 1634890835
3.763813 -1.543087 -2.241367 0.000000000000000e+00 1851878480
3.592736 -1.887235 -2.259241 0.000000000000000e+00 1851878480
3.482916 -2.045756 -2.254615 0.000000000000000e+00 1851878480
3.845605 -1.367426 -2.276825 0.000000000000000e+00 1634890835
3.739893 -1.532578 -2.272528 0.000000000000000e+00 1851878480
3.526950 -1.853432 -2.264459 0.000000000000000e+00 1851878480
3.397443 -1.997110 -2.246267 0.000000000000000e+00 1851878480
3.837432 -1.363150 -2.317220 0.000000000000000e+00 1634890835
3.618215 -1.482030 -2.242941 0.000000000000000e+00 1851878480
3.497678 -1.838807 -2.292340 0.000000000000000e+00 1851878480
3.370966 -1.983108 -2.275872 0.000000000000000e+00 1851878480
3.727042 -1.322594 -2.294912 0.000000000000000e+00 1634890835
3.547525 -1.452397 -2.243031 0.000000000000000e+00 1851878480
3.361018 -1.767695 -2.248096 0.000000000000000e+00 1851878480
3.282332 -1.932507 -2.262403 0.000000000000000e+00 1851878480
3.636707 -1.289215 -2.282986 0.000000000000000e+00 1634890835
3.561786 -1.457545 -2.296576 0.000000000000000e+00 1634890835
3.278846 -1.725200 -2.237819 0.000000000000000e+00 1851878480
3.200292 -1.885720 -2.251567 0.000000000000000e+00 1851878480
3.534565 -1.251707 -2.261754 0.000000000000000e+00 1634890835
3.466811 -1.418004 -2.279121 0.000000000000000e+00 1634890835
3.272268 -1.722469 -2.278411 0.000000000000000e+00 1851878480
3.139719 -1.851534 -2.254306 0.000000000000000e+00 1851878480
3.490222 -1.234708 -2.276157 0.000000000000000e+00 1634890835
3.450921 -1.410823 -2.312711 0.000000000000000e+00 1634890835
3.183801 -1.676619 -2.261165 0.000000000000000e+00 1851878480
3.096571 -1.827592 -2.268572 0.000000000000000e+00 1851878480
3.424915 -1.210324 -2.275979 0.000000000000000e+00 1634890835
3.375182 -1.379186 -2.305480 0.000000000000000e+00 1634890835
3.104457 -1.635544 -2.248550 0.000000000000000e+00 1851878480
3.003919 -1.774384 -2.245102 0.000000000000000e+00 1851878480
3.342866 -1.180065 -2.263285 0.000000000000000e+00 1634890835
3.343781 -1.365683 -2.327620 0.000000000000000e+00 1634890835
3.055510 -1.610462 -2.256642 0.000000000000000e+00 1851878480
2.970702 -1.756240 -2.264719 0.000000000000000e+00 1851878480
3.321710 -1.171325 -2.290972 0.000000000000000e+00 1634890835
3.241359 -1.323191 -2.299045 0.000000000000000e+00 1634890835
3.017621 -1.591196 -2.272172 0.000000000000000e+00 1851878480
2.898268 -1.714877 -2.253389 0.000000000000000e+00 1851878480
3.264479 -1.149884 -2.293237 0.000000000000000e+00 1634890835
3.183816 -1.299045 -2.300666 0.000000000000000e+00 1634890835
2.941082 -1.551533 -2.257459 0.000000000000000e+00 1851878480
2.835254 -1.679038 -2.247867 0.000000000000000e+00 1851878480
3.195788 -1.124441 -2.286298 0.000000000000000e+00 1634890835
3.125943 -1.274781 -2.300986 0.000000000000000e+00 1634890835
2.888835 -1.524661 -2.260027 0.000000000000000e+00 1851878480
2.788514 -1.652800 -2.254107 0.000000000000000e+00 1851878480
3.125183 -1.098364 -2.276644 0.000000000000000e+00 1634890835
3.065603 -1.249530 -2.298381 0.000000000000000e+00 1634890835
2.847397 -1.503483 -2.270194 0.000000000000000e+00 1851878480
2.719555 -1.613349 -2.241135 0.000000000000000e+00 1851878480
3.072309 -1.078555 -2.278759 0.000000000000000e+00 1634890835
2.993233 -1.219393 -2.285432 0.000000000000000e+00 1634890835
2.761911 -1.459021 -2.243868 0.000000000000000e+00 1851878480
0.842809 -0.500435 -0.707973 0.000000000000000e+00 1886740808
2.978349 -1.044368 -2.248922 0.000000000000000e+00 1634890835
2.990317 -1.217561 -2.324977 0.000000000000000e+00 1634890835
2.806973 -1.483526 -2.323545 0.000000000000000e+00 1634890835
0.837637 -0.497815 -0.717157 0.000000000000000e+00 1886740808
2.977836 -1.042973 -2.288858 0.000000000000000e+00 1634890835
2.911296 -1.184753 -2.304707 0.000000000000000e+00 1634890835
0.834778 -0.441402 -0.703985 0.000000000000000e+00 1886740808
0.818136 -0.486672 -0.713854 0.000000000000000e+00 1886740808
2.918320 -1.020922 -2.283112 0.000000000000000e+00 1634890835
2.865607 -1.165524 -2.309569 0.000000000000000e+00 1634890835
0.860123 -0.455023 -0.738909 0.000000000000000e+00 1886740808
0.826326 -0.492000 -0.734715 0.000000000000000e+00 1886740808
2.829103 -0.988528 -2.252572 0.000000000000000e+00 1634890835
2.809642 -1.142134 -2.305211 0.000000000000000e+00 1634890835
0.827489 -0.437974 -0.724089 0.000000000000000e+00 1886740808
0.788040 -0.469647 -0.713940 0.000000000000000e+00 1886740808
2.831134 -0.988040 -2.293973 0.000000000000000e+00 1634890835
2.757314 -1.120238 -2.302787 0.000000000000000e+00 1634890835
0.861958 -0.456444 -0.768209 0.000000000000000e+00 1886740808
0.761995 -0.454559 -0.703357 0.000000000000000e+00 1886740808
2.794139 -0.973930 -2.303769 0.000000000000000e+00 1634890835
0.836163 -0.339523 -0.710775 0.000000000000000e+00 1886740808
0.784063 -0.415404 -0.711662 0.000000000000000e+00 1886740808
0.772932 -0.461531 -0.726848 0.000000000000000e+00 1886740808
0.863534 -0.300620 -0.724437 0.000000000000000e+00 1886740808
0.837578 -0.339903 -0.724616 0.000000000000000e+00 1886740808
0.767983 -0.407093 -0.709862 0.000000000000000e+00 1886740808
0.746849 -0.446394 -0.715456 0.000000000000000e+00 1886740808
0.859550 -0.298856 -0.733655 0.000000000000000e+00 1886740808
0.803594 -0.325922 -0.707507 0.000000000000000e+00 1886740808
0.773580 -0.410271 -0.728113 0.000000000000000e+00 1886740808
0.747932 -0.447487 -0.729850 0.000000000000000e+00 1886740808
0.827304 -0.287275 -0.718385 0.000000000000000e+00 1886740808
0.804384 -0.326050 -0.720679 0.000000000000000e+00 1886740808
0.755089 -0.400675 -0.723666 0.000000000000000e+00 1886740808
0.768706 -0.460382 -0.764064 0.000000000000000e+00 1886740808
0.802607 -0.278337 -0.708993 0.000000000000000e+00 1886740808
0.775587 -0.314190 -0.707081 0.000000000000000e+00 1886740808
0.752262 -0.399388 -0.734063 0.000000000000000e+00 1886740808
0.758255 -0.454589 -0.767646 0.000000000000000e+00 1886740808
0.794675 -0.275223 -0.714088 0.000000000000000e+00 1886740808
0.806285 -0.326427 -0.747937 0.000000000000000e+00 1886740808
0.762756 -0.405179 -0.757797 0.000000000000000e+00 1886740808
0.757111 -0.454377 -0.780662 0.000000000000000e+00 1886740808
0.772865 -0.267310 -0.706427 0.000000000000000e+00 1886740808
0.745870 -0.301782 -0.703974 0.000000000000000e+00 1886740808
0.781407 -0.415314 -0.790371 0.000000000000000e+00 1886740808
0.776244 -0.466352 -0.815160 0.000000000000000e+00 1886740808
0.779948 -0.269393 -0.725124 0.000000000000000e+00 1886740808
0.771885 -0.312112 -0.741218 0.000000000000000e+00 1886740808
0.795064 -0.422809 -0.818704 0.000000000000000e+00 1886740808
0.751309 -0.451857 -0.803510 0.000000000000000e+00 1886740808
0.805075 -0.277687 -0.761289 0.000000000000000e+00 1886740808
0.794005 -0.320852 -0.775714 0.000000000000000e+00 1886740808
0.770986 -0.410236 -0.808221 0.000000000000000e+00 1886740808
2.100925 -1.264936 -2.288239 0.000000000000000e+00 1634890835
0.758733 -0.261335 -0.729717 0.000000000000000e+00 1886740808
0.771225 -0.311446 -0.766533 0.000000000000000e+00 1886740808
0.763633 -0.406559 -0.814925 0.000000000000000e+00 1886740808
2.060707 -1.242100 -2.285685 0.000000000000000e+00 1634890835
0.765480 -0.263282 -0.748755 0.000000000000000e+00 1886740808
0.778685 -0.314252 -0.787359 0.000000000000000e+00 1886740808
2.109361 -1.123681 -2.291527 0.000000000000000e+00 1634890835
2.047893 -1.235772 -2.313191 0.000000000000000e+00 1634890835
0.774841 -0.266115 -0.770812 0.000000000000000e+00 1886740808
0.779886 -0.314526 -0.802221 0.000000000000000e+00 1886740808
2.084392 -1.111042 -2.305099 0.000000000000000e+00 1634890835
0.805353 -0.486538 -0.926385 0.000000000000000e+00 1886740808
0.757144 -0.259653 -0.766012 0.000000000000000e+00 1886740808
0.763351 -0.307649 -0.798791 0.000000000000000e+00 1886740808
2.032374 -1.083971 -2.287954 0.000000000000000e+00 1634890835
0.770637 -0.466110 -0.902725 0.000000000000000e+00 1886740808
0.773877 -0.264992 -0.796243 0.000000000000000e+00 1886740808
0.735000 -0.296018 -0.782416 0.000000000000000e+00 1886740808
2.017156 -1.076517 -2.311620 0.000000000000000e+00 1634890835
0.820409 -0.496803 -0.978674 0.000000000000000e+00 1886740808
0.749162 -0.256137 -0.783903 0.000000000000000e+00 1886740808
2.120669 -0.853490 -2.296484 0.000000000000000e+00 1634890835
0.800373 -0.427412 -0.933696 0.000000000000000e+00 1886740808
0.794868 -0.481921 -0.965630 0.000000000000000e+00 1886740808
0.780820 -0.266545 -0.830899 0.000000000000000e+00 1886740808
2.092842 -0.841689 -2.305509 0.000000000000000e+00 1634890835
0.792438 -0.423445 -0.941062 0.000000000000000e+00 1886740808
0.776274 -0.471228 -0.960384 0.000000000000000e+00 1886740808
0.765722 -0.260976 -0.828667 0.000000000000000e+00 1886740808
2.032701 -0.816906 -2.277961 0.000000000000000e+00 1634890835
0.752197 -0.402203 -0.909351 0.000000000000000e+00 1886740808
1.827865 -1.110979 -2.303023 0.000000000000000e+00 1634890835
2.051916 -0.698212 -2.258304 0.000000000000000e+00 1634890835
2.013554 -0.808611 -2.295532 0.000000000000000e+00 1634890835
0.826235 -0.442085 -1.016858 0.000000000000000e+00 1886740808
1.788495 -1.088442 -2.294978 0.000000000000000e+00 1634890835
2.010331 -0.682936 -2.250140 0.000000000000000e+00 1634890835
2.009511 -0.806377 -2.330582 0.000000000000000e+00 1634890835
0.782543 -0.418989 -0.980467 0.000000000000000e+00 1886740808
0.765992 -0.466776 -1.001075 0.000000000000000e+00 1886740808
2.015629 -0.683585 -2.294448 0.000000000000000e+00 1634890835
1.948794 -0.781410 -2.299340 0.000000000000000e+00 1634890835
0.786429 -0.421360 -1.003155 0.000000000000000e+00 1886740808
1.715874 -1.047002 -2.284008 0.000000000000000e+00 1634890835
1.970733 -0.667215 -2.281551 0.000000000000000e+00 1634890835
0.825353 -0.330684 -0.990722 0.000000000000000e+00 1886740808
1.800241 -0.965227 -2.337970 0.000000000000000e+00 1634890835
1.714116 -1.047349 -2.324032 0.000000000000000e+00 1634890835
1.934806 -0.653908 -2.278168 0.000000000000000e+00 1634890835
0.824328 -0.330008 -1.006700 0.000000000000000e+00 1886740808
0.785927 -0.421688 -1.039226 0.000000000000000e+00 1886740808
1.648090 -1.008402 -2.276122 0.000000000000000e+00 1634890835
1.926067 -0.649795 -2.306637 0.000000000000000e+00 1634890835
0.803659 -0.321470 -0.998563 0.000000000000000e+00 1886740808
1.693023 -0.909052 -2.279461 0.000000000000000e+00 1634890835
1.604594 -0.983177 -2.257452 0.000000000000000e+00 1634890835
0.812261 -0.273533 -0.989414 0.000000000000000e+00 1886740808
0.801509 -0.320343 -1.013292 0.000000000000000e+00 1886740808
1.691410 -0.908864 -2.318914 0.000000000000000e+00 1634890835
1.579042 -0.968917 -2.263155 0.000000000000000e+00 1634890835
0.804484 -0.270411 -0.996764 0.000000000000000e+00 1886740808
0.807302 -0.322383 -1.038496 0.000000000000000e+00 1886740808
1.687780 -0.907604 -2.356378 0.000000000000000e+00 1634890835
1.566676 -0.962748 -2.287698 0.000000000000000e+00 1634890835
0.803587 -0.269596 -1.012792 0.000000000000000e+00 1886740808
0.792861 -0.316341 -1.037842 0.000000000000000e+00 1886740808
1.630187 -0.877316 -2.317876 0.000000000000000e+00 1634890835
1.562196 -0.961441 -2.324276 0.000000000000000e+00 1634890835
0.775625 -0.259711 -0.994430 0.000000000000000e+00 1886740808
1.717829 -0.684782 -2.288261 0.000000000000000e+00 1634890835
1.578177 -0.850000 -2.285412 0.000000000000000e+00 1634890835
1.524018 -0.939390 -2.310535 0.000000000000000e+00 1634890835
0.765586 -0.255841 -0.998562 0.000000000000000e+00 1886740808
1.694676 -0.674939 -2.297369 0.000000000000000e+00 1634890835
1.572650 -0.847712 -2.319704 0.000000000000000e+00 1634890835
1.494575 -0.922693 -2.309142 0.000000000000000e+00 1634890835
0.778231 -0.259539 -1.032704 0.000000000000000e+00 1886740808
0.735305 -0.292578 -1.014520 0.000000000000000e+00 1886740808
1.539207 -0.830375 -2.312743 0.000000000000000e+00 1634890835
1.445766 -0.893999 -2.276588 0.000000000000000e+00 1634890835
1.701105 -0.566137 -2.296747 0.000000000000000e+00 1634890835
1.633886 -0.649505 -2.294543 0.000000000000000e+00 1634890835
1.536859 -0.829813 -2.352534 0.000000000000000e+00 1634890835
1.409206 -0.872830 -2.261838 0.000000000000000e+00 1634890835
0.772482 -0.256541 -1.061249 0.000000000000000e+00 1886740808
1.607972 -0.638582 -2.298633 0.000000000000000e+00 1634890835
1.471928 -0.795448 -2.295642 0.000000000000000e+00 1634890835
1.404793 -0.871568 -2.298527 0.000000000000000e+00 1634890835
1.637073 -0.542487 -2.288640 0.000000000000000e+00 1634890835
1.582555 -0.627861 -2.303055 0.000000000000000e+00 1634890835
1.435185 -0.776282 -2.280804 0.000000000000000e+00 1634890835
1.343561 -0.835020 -2.241288 0.000000000000000e+00 1634890835
1.654421 -0.547014 -2.353818 0.000000000000000e+00 1634890835
1.572450 -0.623216 -2.329796 0.000000000000000e+00 1634890835
1.470501 -0.796111 -2.381546 0.000000000000000e+00 1634890835
1.373372 -0.855060 -2.336082 0.000000000000000e+00 1634890835
1.590701 -0.524744 -2.303414 0.000000000000000e+00 1634890835
1.516972 -0.600600 -2.288535 0.000000000000000e+00 1634890835
1.454836 -0.788367 -2.401456 0.000000000000000e+00 1634890835
1.342578 -0.837408 -2.328945 0.000000000000000e+00 1634890835
1.557250 -0.512504 -2.295303 0.000000000000000e+00 1634890835
1.498583 -0.592682 -2.302213 0.000000000000000e+00 1634890835
1.368736 -0.742423 -2.303056 0.000000000000000e+00 1634890835
1.305923 -0.816064 -2.310578 0.000000000000000e+00 1634890835
1.540586 -0.505800 -2.311588 0.000000000000000e+00 1634890835
1.456639 -0.575460 -2.279033 0.000000000000000e+00 1634890835
1.362039 -0.739518 -2.336462 0.000000000000000e+00 1634890835
1.283154 -0.803371 -2.315971 0.000000000000000e+00 1634890835
1.515382 -0.496295 -2.314922 0.000000000000000e+00 1634890835
1.455025 -0.574174 -2.318757 0.000000000000000e+00 1634890835
1.294120 -0.703351 -2.263560 0.000000000000000e+00 1634890835
1.263065 -0.792349 -2.325960 0.000000000000000e+00 1634890835
1.455470 -0.475465 -2.263902 0.000000000000000e+00 1634890835
1.441031 -0.567993 -2.339372 0.000000000000000e+00 1634890835
1.301169 -0.707917 -2.320960 0.000000000000000e+00 1634890835
1.212248 -0.762006 -2.278064 0.000000000000000e+00 1634890835
1.459439 -0.475519 -2.311710 0.000000000000000e+00 1634890835
1.404128 -0.552789 -2.322376 0.000000000000000e+00 1634890835
1.279149 -0.696679 -2.327247 0.000000000000000e+00 1634890835
1.214344 -0.764906 -2.329129 0.000000000000000e+00 1634890835
1.442532 -0.468750 -2.327140 0.000000000000000e+00 1634890835
1.367431 -0.537682 -2.304586 0.000000000000000e+00 1634890835
1.252045 -0.682663 -2.323831 0.000000000000000e+00 1634890835
1.161620 -0.733257 -2.274455 0.000000000000000e+00 1634890835
1.410622 -0.457118 -2.318016 0.000000000000000e+00 1634890835
1.290801 -0.506912 -2.217038 0.000000000000000e+00 1634890835
1.238819 -0.676215 -2.346040 0.000000000000000e+00 1634890835
1.130586 -0.715236 -2.260307 0.000000000000000e+00 1634890835
1.362975 -0.440424 -2.281731 0.000000000000000e+00 1634890835
1.325841 -0.519998 -2.321135 0.000000000000000e+00 1634890835
1.194648 -0.652861 -2.308841 0.000000000000000e+00 1634890835
1.140055 -0.722857 -2.327736 0.000000000000000e+00 1634890835
1.358064 -0.437553 -2.316508 0.000000000000000e+00 1634890835
1.303593 -0.510591 -2.326583 0.000000000000000e+00 1634890835
1.154564 -0.631711 -2.277652 0.000000000000000e+00 1634890835
1.084979 -0.689537 -2.262930 0.000000000000000e+00 1634890835
1.329399 -0.427027 -2.310867 0.000000000000000e+00 1634890835
1.266662 -0.495444 -2.305053 0.000000000000000e+00 1634890835
1.145629 -0.627593 -2.307390 0.000000000000000e+00 1634890835
1.081896 -0.689229 -2.305585 0.000000000000000e+00 1634890835
1.325961 -0.424600 -2.349251 0.000000000000000e+00 1634890835
1.259316 -0.491874 -2.337106 0.000000000000000e+00 1634890835
1.134328 -0.622190 -2.333033 0.000000000000000e+00 1634890835
1.049792 -0.670433 -2.286406 0.000000000000000e+00 1634890835
1.277362 -0.407726 -2.307109 0.000000000000000e+00 1634890835
1.235347 -0.481808 -2.338514 0.000000000000000e+00 1634890835
1.113147 -0.611372 -2.338532 0.000000000000000e+00 1634890835
1.015993 -0.650506 -2.262093 0.000000000000000e+00 1634890835
1.267971 -0.403390 -2.335070 0.000000000000000e+00 1634890835
1.184965 -0.461463 -2.288510 0.000000000000000e+00 1634890835
1.085449 -0.596966 -2.329791 0.000000000000000e+00 1634890835
1.019470 -0.654455 -2.321051 0.000000000000000e+00 1634890835
1.242912 -0.394065 -2.334272 0.000000000000000e+00 1634890835
1.157563 -0.450090 -2.281291 0.000000000000000e+00 1634890835
1.063914 -0.585939 -2.333695 0.000000000000000e+00 1634890835
0.982259 -0.632288 -2.287458 0.000000000000000e+00 1634890835
1.216813 -0.384425 -2.331011 0.000000000000000e+00 1634890835
1.149492 -0.446233 -2.312215 0.000000000000000e+00 1634890835
1.011704 -0.557988 -2.268511 0.000000000000000e+00 1634890835
0.961148 -0.620444 -2.290174 0.000000000000000e+00 1634890835
1.179986 -0.371426 -2.306216 0.000000000000000e+00 1634890835
1.117999 -0.433287 -2.295899 0.000000000000000e+00 1634890835
0.988467 -0.545987 -2.266342 0.000000000000000e+00 1634890835
0.945390 -0.612053 -2.305586 0.000000000000000e+00 1634890835
1.178818 -0.369652 -2.351095 0.000000000000000e+00 1634890835
1.097694 -0.424684 -2.301912 0.000000000000000e+00 1634890835
1.002724 -0.554717 -2.351540 0.000000000000000e+00 1634890835
0.905547 -0.588032 -2.261107 0.000000000000000e+00 1634890835
1.149595 -0.359073 -2.340300 0.000000000000000e+00 1634890835
1.086883 -0.419752 -2.328086 0.000000000000000e+00 1634890835
0.964276 -0.534302 -2.313763 0.000000000000000e+00 1634890835
0.885792 -0.577006 -2.265362 0.000000000000000e+00 1634890835
1.127817 -0.350835 -2.344101 0.000000000000000e+00 1634890835
1.053000 -0.405915 -2.304478 0.000000000000000e+00 1634890835
0.959379 -0.532471 -2.356139 0.000000000000000e+00 1634890835
0.896466 -0.585858 -2.349091 0.000000000000000e+00 1634890835
1.084721 -0.336003 -2.302392 0.000000000000000e+00 1634890835
1.017838 -0.391609 -2.276537 0.000000000000000e+00 1634890835
0.915599 -0.509047 -2.302305 0.000000000000000e+00 1634890835
0.848411 -0.556326 -2.278800 0.000000000000000e+00 1634890835
1.041342 -0.321149 -2.257860 0.000000000000000e+00 1634890835
1.015740 -0.390024 -2.322531 0.000000000000000e+00 1634890835
0.906126 -0.504681 -2.333753 0.000000000000000e+00 1634890835
0.827147 -0.544286 -2.278234 0.000000000000000e+00 1634890835
1.053989 -0.323564 -2.335104 0.000000000000000e+00 1634890835
1.006820 -0.385799 -2.354239 0.000000000000000e+00 1634890835
0.875888 -0.488746 -2.311501 0.000000000000000e+00 1634890835
0.460411 -0.304069 -1.300976 0.000000000000000e+00 1936876886
0.996731 -0.304531 -2.257071 0.000000000000000e+00 1634890835
0.973394 -0.372189 -2.328368 0.000000000000000e+00 1634890835
0.852777 -0.476771 -2.306961 0.000000000000000e+00 1634890835
0.429724 -0.284882 -1.246307 0.000000000000000e+00 1936876886
1.000638 -0.304211 -2.316746 0.000000000000000e+00 1634890835
0.952078 -0.363224 -2.330510 0.000000000000000e+00 1634890835
0.839904 -0.470520 -2.330144 0.000000000000000e+00 1634890835
0.432541 -0.287884 -1.288214 0.000000000000000e+00 1936876886
0.972674 -0.294180 -2.303279 0.000000000000000e+00 1634890835
0.919221 -0.349869 -2.303422 0.000000000000000e+00 1634890835
0.467290 -0.262328 -1.330111 0.000000000000000e+00 1936876886
0.339425 -0.226843 -1.038621 0.000000000000000e+00 1953264973
0.943624 -0.283855 -2.286168 0.000000000000000e+00 1634890835
0.881123 -0.334553 -2.261168 0.000000000000000e+00 1634890835
0.440103 -0.247607 -1.285923 0.000000000000000e+00 1936876886
0.316302 -0.212302 -0.994966 0.000000000000000e+00 1953264973
0.494037 -0.147774 -1.225056 0.000000000000000e+00 1936876886
0.883383 -0.334559 -2.322545 0.000000000000000e+00 1634890835
0.378038 -0.213175 -1.134427 0.000000000000000e+00 1953264973
0.283824 -0.191362 -0.918336 0.000000000000000e+00 1953264973
0.496785 -0.147719 -1.261305 0.000000000000000e+00 1936876886
0.840231 -0.317369 -2.264218 0.000000000000000e+00 1634890835
0.352693 -0.199359 -1.087565 0.000000000000000e+00 1953264973
0.261888 -0.177406 -0.872135 0.000000000000000e+00 1953264973
0.472257 -0.139557 -1.228177 0.000000000000000e+00 1936876886
0.833285 -0.313870 -2.302574 0.000000000000000e+00 1634890835
0.306227 -0.173528 -0.970886 0.000000000000000e+00 1953264973
0.248561 -0.169212 -0.852515 0.000000000000000e+00 1953264973
