# .PCD v0.7 - Point Cloud Data file format
VERSION 0.7
FIELDS x y z rgb label
SIZE 4 4 4 4 4
TYPE F F F F U
COUNT 1 1 1 1 1
WIDTH 540
HEIGHT 1
VIEWPOINT 0 0 0 1 0 0 0
POINTS 540
DATA ascii
35.101067 -13.059916 -1.911480 0.000000000000000e+00 1851878480
33.319576 -13.942301 -1.719570 0.000000000000000e+00 1851878480
30.740492 -15.858598 -1.355791 0.000000000000000e+00 1851878480
29.986820 -17.015427 -1.179776 0.000000000000000e+00 1851878480
31.301838 -11.637535 -1.988738 0.000000000000000e+00 1851878480
30.468077 -12.744645 -1.857404 0.000000000000000e+00 1851878480
29.040487 -14.986208 -1.570374 0.000000000000000e+00 1851878480
28.242226 -16.034943 -1.402496 0.000000000000000e+00 1851878480
29.025339 -10.782986 -2.107786 0.000000000000000e+00 1851878480
28.650181 -11.980054 -2.014795 0.000000000000000e+00 1851878480
27.432907 -14.161016 -1.757257 0.000000000000000e+00 1851878480
26.260818 -14.918768 -1.575321 0.000000000000000e+00 1851878480
27.046524 -10.040216 -2.210017 0.000000000000000e+00 1851878480
26.622126 -11.128107 -2.121646 0.000000000000000e+00 1851878480
25.751295 -13.297076 -1.906870 0.000000000000000e+00 1851878480
24.630033 -14.000566 -1.732203 0.000000000000000e+00 1851878480
24.410889 -9.054929 -2.216855 0.000000000000000e+00 1851878480
24.608351 -10.282732 -2.192025 0.000000000000000e+00 1851878480
23.831846 -12.309746 -2.003205 0.000000000000000e+00 1851878480
23.142088 -13.162556 -1.867230 0.000000000000000e+00 1851878480
22.219494 -8.235779 -2.220337 0.000000000000000e+00 1851878480
22.495266 -9.396472 -2.215107 0.000000000000000e+00 1851878480
21.788530 -11.257826 -2.049797 0.000000000000000e+00 1851878480
21.443914 -12.203899 -1.952651 0.000000000000000e+00 1851878480
20.489868 -7.588896 -2.234475 0.000000000000000e+00 1851878480
20.569616 -8.589079 -2.218982 0.000000000000000e+00 1851878480
20.371159 -10.528752 -2.120927 0.000000000000000e+00 1851878480
19.859198 -11.308733 -2.014708 0.000000000000000e+00 1851878480
18.954460 -7.014858 -2.240259 0.000000000000000e+00 1851878480
18.992527 -7.927750 -2.227792 0.000000000000000e+00 1851878480
19.110041 -9.880030 -2.181787 0.000000000000000e+00 1851878480
18.744911 -10.680541 -2.096825 0.000000000000000e+00 1851878480
17.580494 -6.501382 -2.238798 0.000000000000000e+00 1851878480
17.680700 -7.377566 -2.240787 0.000000000000000e+00 1851878480
17.709608 -9.158853 -2.200328 0.000000000000000e+00 1851878480
17.787622 -10.141129 -2.175322 0.000000000000000e+00 1851878480
16.451609 -6.079246 -2.245907 0.000000000000000e+00 1851878480
16.453468 -6.863057 -2.240835 0.000000000000000e+00 1851878480
16.542400 -8.557887 -2.222331 0.000000000000000e+00 1851878480
16.494480 -9.409489 -2.189659 0.000000000000000e+00 1851878480
15.402283 -5.687125 -2.244172 0.000000000000000e+00 1851878480
15.356094 -6.403043 -2.236879 0.000000000000000e+00 1851878480
15.444755 -7.992542 -2.231164 0.000000000000000e+00 1851878480
15.325756 -8.748002 -2.195150 0.000000000000000e+00 1851878480
14.442955 -5.328786 -2.237370 0.000000000000000e+00 1851878480
14.440307 -6.019044 -2.240597 0.000000000000000e+00 1851878480
14.473921 -7.492496 -2.237737 0.000000000000000e+00 1851878480
14.416528 -8.233941 -2.216419 0.000000000000000e+00 1851878480
13.662969 -5.037116 -2.242617 0.000000000000000e+00 1851878480
13.593078 -5.663885 -2.238515 0.000000000000000e+00 1851878480
13.644457 -7.065348 -2.248266 0.000000000000000e+00 1851878480
13.582006 -7.761967 -2.231238 0.000000000000000e+00 1851878480
12.904809 -4.753921 -2.237538 0.000000000000000e+00 1851878480
12.868702 -5.360135 -2.242012 0.000000000000000e+00 1851878480
12.897992 -6.680923 -2.256803 0.000000000000000e+00 1851878480
12.851919 -7.349155 -2.247122 0.000000000000000e+00 1851878480
12.233277 -4.503035 -2.234542 0.000000000000000e+00 1851878480
12.180905 -5.071839 -2.238717 0.000000000000000e+00 1851878480
12.113376 -6.276496 -2.243414 0.000000000000000e+00 1851878480
12.102946 -6.925056 -2.244467 0.000000000000000e+00 1851878480
11.685548 -4.298065 -2.243142 0.000000000000000e+00 1851878480
11.608739 -4.831862 -2.244926 0.000000000000000e+00 1851878480
11.478134 -5.949235 -2.243523 0.000000000000000e+00 1851878480
11.429779 -6.543839 -2.241182 0.000000000000000e+00 1851878480
11.097549 -4.078599 -2.233744 0.000000000000000e+00 1851878480
11.046587 -4.596218 -2.242504 0.000000000000000e+00 1851878480
10.954839 -5.679810 -2.253991 0.000000000000000e+00 1851878480
10.876208 -6.230690 -2.248695 0.000000000000000e+00 1851878480
10.629813 -3.903630 -2.239004 0.000000000000000e+00 1851878480
10.546318 -4.386481 -2.242735 0.000000000000000e+00 1851878480
10.396036 -5.391805 -2.246377 0.000000000000000e+00 1851878480
10.269876 -5.886929 -2.233312 0.000000000000000e+00 1851878480
10.228902 -3.753447 -2.250519 0.000000000000000e+00 1851878480
10.070551 -4.187075 -2.239076 0.000000000000000e+00 1851878480
9.929540 -5.151520 -2.248490 0.000000000000000e+00 1851878480
9.782563 -5.611022 -2.232492 0.000000000000000e+00 1851878480
9.736035 -3.569768 -2.233714 0.000000000000000e+00 1851878480
9.738814 -4.047674 -2.259941 0.000000000000000e+00 1851878480
9.457937 -4.908426 -2.240084 0.000000000000000e+00 1851878480
9.391646 -5.390113 -2.244622 0.000000000000000e+00 1851878480
9.395773 -3.442278 -2.244385 0.000000000000000e+00 1851878480
9.322627 -3.873280 -2.254265 0.000000000000000e+00 1851878480
9.104819 -4.726695 -2.251530 0.000000000000000e+00 1851878480
9.009600 -5.174037 -2.250926 0.000000000000000e+00 1851878480
9.036609 -3.308056 -2.244240 0.000000000000000e+00 1851878480
8.874184 -3.685609 -2.232681 0.000000000000000e+00 1851878480
8.723479 -4.530192 -2.248694 0.000000000000000e+00 1851878480
8.614336 -4.950105 -2.245900 0.000000000000000e+00 1851878480
8.687508 -3.177721 -2.240190 0.000000000000000e+00 1851878480
8.583212 -3.563451 -2.243805 0.000000000000000e+00 1851878480
8.360310 -4.343009 -2.243106 0.000000000000000e+00 1851878480
8.229594 -4.731963 -2.235526 0.000000000000000e+00 1851878480
8.352470 -3.052720 -2.233567 0.000000000000000e+00 1851878480
8.282534 -3.437346 -2.246908 0.000000000000000e+00 1851878480
8.060685 -4.188733 -2.247961 0.000000000000000e+00 1851878480
7.917606 -4.555418 -2.237695 0.000000000000000e+00 1851878480
8.088535 -2.953870 -2.240553 0.000000000000000e+00 1851878480
7.983984 -3.312215 -2.245009 0.000000000000000e+00 1851878480
7.779031 -4.043695 -2.252054 0.000000000000000e+00 1851878480
7.625919 -4.390347 -2.239374 0.000000000000000e+00 1851878480
7.823679 -2.854828 -2.242525 0.000000000000000e+00 1851878480
7.647614 -3.171486 -2.226515 0.000000000000000e+00 1851878480
7.430231 -3.863659 -2.230381 0.000000000000000e+00 1851878480
7.378044 -4.250319 -2.248364 0.000000000000000e+00 1851878480
7.594731 -2.769033 -2.250355 0.000000000000000e+00 1851878480
7.461564 -3.093169 -2.246921 0.000000000000000e+00 1851878480
7.275149 -3.784273 -2.261858 0.000000000000000e+00 1851878480
7.111667 -4.099465 -2.246417 0.000000000000000e+00 1851878480
7.322166 -2.667472 -2.240730 0.000000000000000e+00 1851878480
7.230939 -2.996435 -2.250078 0.000000000000000e+00 1851878480
7.035073 -3.660612 -2.263051 0.000000000000000e+00 1851878480
6.844007 -3.947683 -2.238515 0.000000000000000e+00 1851878480
7.076726 -2.575943 -2.234697 0.000000000000000e+00 1851878480
6.960018 -2.883075 -2.236001 0.000000000000000e+00 1851878480
6.814724 -3.547144 -2.266013 0.000000000000000e+00 1851878480
6.634234 -3.829134 -2.244605 0.000000000000000e+00 1851878480
6.886636 -2.504677 -2.242213 0.000000000000000e+00 1851878480
6.765767 -2.801541 -2.242201 0.000000000000000e+00 1851878480
6.568039 -3.419891 -2.255538 0.000000000000000e+00 1851878480
6.396490 -3.694291 -2.236595 0.000000000000000e+00 1851878480
6.705387 -2.436731 -2.249295 0.000000000000000e+00 1851878480
6.569839 -2.719371 -2.244232 0.000000000000000e+00 1851878480
6.386077 -3.326277 -2.263007 0.000000000000000e+00 1851878480
6.219079 -3.594150 -2.245387 0.000000000000000e+00 1851878480
6.470442 -2.349388 -2.234591 0.000000000000000e+00 1851878480
6.410332 -2.652327 -2.255430 0.000000000000000e+00 1851878480
6.188789 -3.224612 -2.261278 0.000000000000000e+00 1851878480
6.036345 -3.490817 -2.248565 0.000000000000000e+00 1851878480
6.313175 -2.290361 -2.243161 0.000000000000000e+00 1851878480
6.180728 -2.556338 -2.238326 0.000000000000000e+00 1851878480
5.948103 -3.100267 -2.239254 0.000000000000000e+00 1851878480
5.845846 -3.382865 -2.244986 0.000000000000000e+00 1851878480
6.160778 -2.233184 -2.250713 0.000000000000000e+00 1851878480
6.002451 -2.481633 -2.235958 0.000000000000000e+00 1851878480
5.830866 -3.040206 -2.260132 0.000000000000000e+00 1851878480
5.687366 -3.293324 -2.250096 0.000000000000000e+00 1851878480
5.993729 -2.170785 -2.250051 0.000000000000000e+00 1851878480
5.863072 -2.423061 -2.245142 0.000000000000000e+00 1851878480
5.663603 -2.954021 -2.258840 0.000000000000000e+00 1851878480
5.518987 -3.197938 -2.247912 0.000000000000000e+00 1851878480
5.850491 -2.117097 -2.255544 0.000000000000000e+00 1851878480
5.760831 -2.379870 -2.266388 0.000000000000000e+00 1851878480
5.527493 -2.884032 -2.266967 0.000000000000000e+00 1851878480
5.355989 -3.105562 -2.244470 0.000000000000000e+00 1851878480
5.683691 -2.054967 -2.249156 0.000000000000000e+00 1851878480
5.557046 -2.294772 -2.244836 0.000000000000000e+00 1851878480
5.329631 -2.781773 -2.246396 0.000000000000000e+00 1851878480
5.209436 -3.022614 -2.244700 0.000000000000000e+00 1851878480
5.506738 -1.989264 -2.235591 0.000000000000000e+00 1851878480
5.365728 -2.214882 -2.224510 0.000000000000000e+00 1851878480
5.214306 -2.722540 -2.257455 0.000000000000000e+00 1851878480
5.081943 -2.950636 -2.250324 0.000000000000000e+00 1851878480
5.412021 -1.953344 -2.252978 0.000000000000000e+00 1851878480
5.292905 -2.183947 -2.250873 0.000000000000000e+00 1851878480
5.101871 -2.664783 -2.267567 0.000000000000000e+00 1851878480
4.917656 -2.857193 -2.236604 0.000000000000000e+00 1851878480
5.200878 -1.875488 -2.219088 0.000000000000000e+00 1851878480
5.166988 -2.131128 -2.252901 0.000000000000000e+00 1851878480
4.942481 -2.582456 -2.254084 0.000000000000000e+00 1851878480
4.831842 -2.809259 -2.256001 0.000000000000000e+00 1851878480
5.155468 -1.857469 -2.253602 0.000000000000000e+00 1851878480
5.006935 -2.064273 -2.237336 0.000000000000000e+00 1851878480
4.818164 -2.518410 -2.253713 0.000000000000000e+00 1851878480
4.666717 -2.715127 -2.235761 0.000000000000000e+00 1851878480
5.009654 -1.803327 -2.242585 0.000000000000000e+00 1851878480
4.934216 -2.033457 -2.258652 0.000000000000000e+00 1851878480
4.731776 -2.474151 -2.269035 0.000000000000000e+00 1851878480
4.571196 -2.661405 -2.246129 0.000000000000000e+00 1851878480
4.875736 -1.753548 -2.234307 0.000000000000000e+00 1851878480
4.780087 -1.969126 -2.240604 0.000000000000000e+00 1851878480
4.637651 -2.425825 -2.278943 0.000000000000000e+00 1851878480
4.485317 -2.613235 -2.259444 0.000000000000000e+00 1851878480
4.802605 -1.725682 -2.252055 0.000000000000000e+00 1851878480
4.672310 -1.923926 -2.241785 0.000000000000000e+00 1851878480
4.466231 -2.337022 -2.248135 0.000000000000000e+00 1851878480
4.376891 -2.551866 -2.259443 0.000000000000000e+00 1851878480
4.715592 -1.692873 -2.261952 0.000000000000000e+00 1851878480
4.587984 -1.888409 -2.252473 0.000000000000000e+00 1851878480
4.356147 -2.280267 -2.245253 0.000000000000000e+00 1851878480
4.230625 -2.468345 -2.237169 0.000000000000000e+00 1851878480
4.597426 -1.648936 -2.255070 0.000000000000000e+00 1851878480
4.453056 -1.832098 -2.236259 0.000000000000000e+00 1851878480
4.252067 -2.226620 -2.243307 0.000000000000000e+00 1851878480
4.122297 -2.406870 -2.232199 0.000000000000000e+00 1851878480
4.451787 -1.595224 -2.232225 0.000000000000000e+00 1851878480
4.388431 -1.804739 -2.253497 0.000000000000000e+00 1851878480
4.150256 -2.174126 -2.240481 0.000000000000000e+00 1851878480
4.019222 -2.348389 -2.227838 0.000000000000000e+00 1851878480
4.389622 -1.571479 -2.249345 0.000000000000000e+00 1851878480
4.310370 -1.771873 -2.262617 0.000000000000000e+00 1851878480
4.085546 -2.141045 -2.256078 0.000000000000000e+00 1851878480
3.954223 -2.312098 -2.242886 0.000000000000000e+00 1851878480
4.294266 -1.535896 -2.248102 0.000000000000000e+00 1851878480
4.158782 -1.708818 -2.230911 0.000000000000000e+00 1851878480
4.000555 -2.097312 -2.259059 0.000000000000000e+00 1851878480
3.865738 -2.262027 -2.243087 0.000000000000000e+00 1851878480
4.217998 -1.507183 -2.255332 0.000000000000000e+00 1851878480
4.130430 -1.696425 -2.263644 0.000000000000000e+00 1851878480
3.929795 -2.061015 -2.268578 0.000000000000000e+00 1851878480
3.814702 -2.233823 -2.263664 0.000000000000000e+00 1851878480
4.068967 -1.452539 -2.221520 0.000000000000000e+00 1851878480
4.008911 -1.645790 -2.243981 0.000000000000000e+00 1851878480
3.801045 -1.994272 -2.242550 0.000000000000000e+00 1851878480
3.703208 -2.170164 -2.246694 0.000000000000000e+00 1851878480
4.045329 -1.442704 -2.254612 0.000000000000000e+00 1851878480
3.929315 -1.612395 -2.245836 0.000000000000000e+00 1851878480
3.730008 -1.957775 -2.248481 0.000000000000000e+00 1851878480
3.646496 -2.138549 -2.261200 0.000000000000000e+00 1851878480
4.056548 -1.445294 -2.307395 0.000000000000000e+00 1634890835
3.870434 -1.587519 -2.258307 0.000000000000000e+00 1851878480
3.687593 -1.936285 -2.270666 0.000000000000000e+00 1851878480
3.508397 -2.059132 -2.223094 0.000000000000000e+00 1851878480
3.923450 -1.396495 -2.277094 0.000000000000000e+00 1634890835
3.755974 -1.539873 -2.236699 0.000000000000000e+00 1851878480
3.599664 -1.890874 -2.263597 0.000000000000000e+00 1851878480
3.495068 -2.052894 -2.262482 0.000000000000000e+00 1851878480
3.853918 -1.370382 -2.281747 0.000000000000000e+00 1634890835
3.676704 -1.506683 -2.234131 0.000000000000000e+00 1851878480
3.543548 -1.862155 -2.275116 0.000000000000000e+00 1851878480
3.411367 -2.005295 -2.255473 0.000000000000000e+00 1851878480
3.811310 -1.353871 -2.301446 0.000000000000000e+00 1634890835
3.609438 -1.478436 -2.237501 0.000000000000000e+00 1851878480
3.452401 -1.815003 -2.262666 0.000000000000000e+00 1851878480
3.345395 -1.968065 -2.258608 0.000000000000000e+00 1851878480
3.721708 -1.320700 -2.291627 0.000000000000000e+00 1634890835
3.587964 -1.468954 -2.268599 0.000000000000000e+00 1851878480
3.395823 -1.786000 -2.271375 0.000000000000000e+00 1851878480
3.214034 -1.892295 -2.215327 0.000000000000000e+00 1851878480
3.599466 -1.276013 -2.259607 0.000000000000000e+00 1634890835
3.540622 -1.448885 -2.282930 0.000000000000000e+00 1851878480
3.326288 -1.750162 -2.270199 0.000000000000000e+00 1851878480
3.214763 -1.894246 -2.261749 0.000000000000000e+00 1851878480
3.565713 -1.262738 -2.281686 0.000000000000000e+00 1634890835
3.475959 -1.421746 -2.285135 0.000000000000000e+00 1634890835
3.233389 -1.702004 -2.251341 0.000000000000000e+00 1851878480
3.127859 -1.844540 -2.245790 0.000000000000000e+00 1851878480
3.527916 -1.248043 -2.300740 0.000000000000000e+00 1634890835
3.436305 -1.404848 -2.302916 0.000000000000000e+00 1634890835
3.183698 -1.676564 -2.261092 0.000000000000000e+00 1851878480
3.082664 -1.819384 -2.258383 0.000000000000000e+00 1851878480
3.433299 -1.213287 -2.281550 0.000000000000000e+00 1634890835
3.387085 -1.384050 -2.313610 0.000000000000000e+00 1634890835
3.150624 -1.659865 -2.281988 0.000000000000000e+00 1851878480
2.976408 -1.758134 -2.224540 0.000000000000000e+00 1851878480
3.411658 -1.204350 -2.309860 0.000000000000000e+00 1634890835
3.319915 -1.355936 -2.311007 0.000000000000000e+00 1634890835
3.047571 -1.606278 -2.250779 0.000000000000000e+00 1851878480
2.950145 -1.744087 -2.249047 0.000000000000000e+00 1851878480
3.266350 -1.151803 -2.252790 0.000000000000000e+00 1634890835
3.213376 -1.311767 -2.279197 0.000000000000000e+00 1634890835
3.015697 -1.590182 -2.270723 0.000000000000000e+00 1851878480
2.883205 -1.705965 -2.241678 0.000000000000000e+00 1851878480
3.272181 -1.152597 -2.298649 0.000000000000000e+00 1634890835
3.138126 -1.280403 -2.267649 0.000000000000000e+00 1634890835
2.924284 -1.542672 -2.244565 0.000000000000000e+00 1851878480
2.846278 -1.685566 -2.256607 0.000000000000000e+00 1851878480
3.151848 -1.108980 -2.254863 0.000000000000000e+00 1634890835
3.107324 -1.267188 -2.287281 0.000000000000000e+00 1634890835
2.866740 -1.513000 -2.242741 0.000000000000000e+00 1851878480
2.767540 -1.640368 -2.237152 0.000000000000000e+00 1851878480
3.132771 -1.101031 -2.282173 0.000000000000000e+00 1634890835
3.074134 -1.253007 -2.304777 0.000000000000000e+00 1634890835
2.863817 -1.512153 -2.283285 0.000000000000000e+00 1851878480
2.720448 -1.613879 -2.241871 0.000000000000000e+00 1851878480
3.113316 -1.092951 -2.309174 0.000000000000000e+00 1634890835
3.009361 -1.225964 -2.297747 0.000000000000000e+00 1634890835
2.843148 -1.501936 -2.309868 0.000000000000000e+00 1851878480
0.903636 -0.536553 -0.759070 0.000000000000000e+00 1886740808
3.028294 -1.061881 -2.286634 0.000000000000000e+00 1634890835
2.945780 -1.199427 -2.290349 0.000000000000000e+00 1634890835
2.724093 -1.439723 -2.254939 0.000000000000000e+00 1851878480
0.878420 -0.522052 -0.752073 0.000000000000000e+00 1886740808
2.979378 -1.043513 -2.290042 0.000000000000000e+00 1634890835
2.931897 -1.193136 -2.321016 0.000000000000000e+00 1634890835
0.857687 -0.453516 -0.723305 0.000000000000000e+00 1886740808
0.842870 -0.501385 -0.735435 0.000000000000000e+00 1886740808
2.936858 -1.027407 -2.297614 0.000000000000000e+00 1634890835
2.866803 -1.166011 -2.310534 0.000000000000000e+00 1634890835
0.825689 -0.436807 -0.709328 0.000000000000000e+00 1886740808
0.814200 -0.484780 -0.723933 0.000000000000000e+00 1886740808
2.863467 -1.000535 -2.279933 0.000000000000000e+00 1634890835
2.836695 -1.153131 -2.327407 0.000000000000000e+00 1634890835
0.858326 -0.454296 -0.751073 0.000000000000000e+00 1886740808
0.799438 -0.476439 -0.724266 0.000000000000000e+00 1886740808
2.847808 -0.993859 -2.307484 0.000000000000000e+00 1634890835
2.790278 -1.133631 -2.330318 0.000000000000000e+00 1634890835
0.803470 -0.425473 -0.716082 0.000000000000000e+00 1886740808
0.767723 -0.457976 -0.708644 0.000000000000000e+00 1886740808
2.744349 -0.956575 -2.262717 0.000000000000000e+00 1634890835
0.845078 -0.343143 -0.718353 0.000000000000000e+00 1886740808
0.836945 -0.443422 -0.759661 0.000000000000000e+00 1886740808
0.786124 -0.469407 -0.739252 0.000000000000000e+00 1886740808
0.871519 -0.303400 -0.731136 0.000000000000000e+00 1886740808
0.842513 -0.341906 -0.728885 0.000000000000000e+00 1886740808
0.816182 -0.432642 -0.754414 0.000000000000000e+00 1886740808
0.744134 -0.444771 -0.712855 0.000000000000000e+00 1886740808
0.825869 -0.287145 -0.704907 0.000000000000000e+00 1886740808
0.811807 -0.329253 -0.714738 0.000000000000000e+00 1886740808
0.780167 -0.413765 -0.734314 0.000000000000000e+00 1886740808
0.750682 -0.449132 -0.732534 0.000000000000000e+00 1886740808
0.802081 -0.278517 -0.696483 0.000000000000000e+00 1886740808
0.821874 -0.333139 -0.736349 0.000000000000000e+00 1886740808
0.770035 -0.408606 -0.737990 0.000000000000000e+00 1886740808
0.763977 -0.457549 -0.759363 0.000000000000000e+00 1886740808
0.760334 -0.263677 -0.671651 0.000000000000000e+00 1886740808
0.778817 -0.315499 -0.710026 0.000000000000000e+00 1886740808
0.748937 -0.397623 -0.730818 0.000000000000000e+00 1886740808
0.734301 -0.440228 -0.743396 0.000000000000000e+00 1886740808
0.819491 -0.283817 -0.736387 0.000000000000000e+00 1886740808
0.791873 -0.320593 -0.734568 0.000000000000000e+00 1886740808
0.755922 -0.401549 -0.751008 0.000000000000000e+00 1886740808
0.755808 -0.453595 -0.779318 0.000000000000000e+00 1886740808
0.790168 -0.273295 -0.722243 0.000000000000000e+00 1886740808
0.786156 -0.318082 -0.741998 0.000000000000000e+00 1886740808
0.790667 -0.420236 -0.799737 0.000000000000000e+00 1886740808
0.756222 -0.454324 -0.794135 0.000000000000000e+00 1886740808
0.742849 -0.256579 -0.690633 0.000000000000000e+00 1886740808
0.748201 -0.302535 -0.718475 0.000000000000000e+00 1886740808
0.771727 -0.410398 -0.794674 0.000000000000000e+00 1886740808
0.777535 -0.467630 -0.831559 0.000000000000000e+00 1886740808
0.760777 -0.262408 -0.719400 0.000000000000000e+00 1886740808
0.799076 -0.322902 -0.780668 0.000000000000000e+00 1886740808
0.756810 -0.402694 -0.793361 0.000000000000000e+00 1886740808
2.123436 -1.278489 -2.312756 0.000000000000000e+00 1634890835
0.753474 -0.259523 -0.724659 0.000000000000000e+00 1886740808
0.745072 -0.300884 -0.740539 0.000000000000000e+00 1886740808
0.799933 -0.425885 -0.853663 0.000000000000000e+00 1886740808
2.060953 -1.242248 -2.285958 0.000000000000000e+00 1634890835
0.759577 -0.261252 -0.742980 0.000000000000000e+00 1886740808
0.776210 -0.313253 -0.784856 0.000000000000000e+00 1886740808
2.138311 -1.139103 -2.322977 0.000000000000000e+00 1634890835
2.052602 -1.238613 -2.318509 0.000000000000000e+00 1634890835
0.739885 -0.254109 -0.736037 0.000000000000000e+00 1886740808
0.779688 -0.314446 -0.802018 0.000000000000000e+00 1886740808
2.053085 -1.094355 -2.270478 0.000000000000000e+00 1634890835
0.805781 -0.486796 -0.926876 0.000000000000000e+00 1886740808
0.717835 -0.246172 -0.726243 0.000000000000000e+00 1886740808
0.795222 -0.320494 -0.832142 0.000000000000000e+00 1886740808
2.042112 -1.089164 -2.298917 0.000000000000000e+00 1634890835
0.803776 -0.486153 -0.941544 0.000000000000000e+00 1886740808
0.745328 -0.255216 -0.766868 0.000000000000000e+00 1886740808
0.757032 -0.304892 -0.805870 0.000000000000000e+00 1886740808
1.978612 -1.055947 -2.267449 0.000000000000000e+00 1634890835
0.760318 -0.460415 -0.906991 0.000000000000000e+00 1886740808
0.756326 -0.258586 -0.791399 0.000000000000000e+00 1886740808
2.119958 -0.853204 -2.295713 0.000000000000000e+00 1634890835
0.815859 -0.435682 -0.951760 0.000000000000000e+00 1886740808
0.772397 -0.468296 -0.938330 0.000000000000000e+00 1886740808
0.743786 -0.253903 -0.791490 0.000000000000000e+00 1886740808
2.098215 -0.843850 -2.311428 0.000000000000000e+00 1634890835
0.812887 -0.434372 -0.965346 0.000000000000000e+00 1886740808
0.787720 -0.478176 -0.974544 0.000000000000000e+00 1886740808
0.759963 -0.259013 -0.822434 0.000000000000000e+00 1886740808
2.054974 -0.825857 -2.302922 0.000000000000000e+00 1634890835
0.839490 -0.448879 -1.014882 0.000000000000000e+00 1886740808
1.838436 -1.117404 -2.316342 0.000000000000000e+00 1634890835
2.048839 -0.697165 -2.254917 0.000000000000000e+00 1634890835
2.055085 -0.825289 -2.342878 0.000000000000000e+00 1634890835
0.765514 -0.409596 -0.942128 0.000000000000000e+00 1886740808
1.794093 -1.091849 -2.302161 0.000000000000000e+00 1634890835
2.018544 -0.685726 -2.259332 0.000000000000000e+00 1634890835
1.982517 -0.795545 -2.299275 0.000000000000000e+00 1634890835
0.799589 -0.428116 -1.001825 0.000000000000000e+00 1886740808
0.761428 -0.463995 -0.995110 0.000000000000000e+00 1886740808
1.998481 -0.677770 -2.274928 0.000000000000000e+00 1634890835
1.955607 -0.784142 -2.307378 0.000000000000000e+00 1634890835
0.750734 -0.402235 -0.957623 0.000000000000000e+00 1886740808
1.720599 -1.049885 -2.290296 0.000000000000000e+00 1634890835
1.958127 -0.662947 -2.266957 0.000000000000000e+00 1634890835
0.847520 -0.339565 -1.017330 0.000000000000000e+00 1886740808
1.789855 -0.959658 -2.324483 0.000000000000000e+00 1634890835
1.691277 -1.033395 -2.293067 0.000000000000000e+00 1634890835
1.946576 -0.657885 -2.292027 0.000000000000000e+00 1634890835
0.787431 -0.315236 -0.961639 0.000000000000000e+00 1886740808
0.792213 -0.425061 -1.047538 0.000000000000000e+00 1886740808
1.688337 -1.033027 -2.331706 0.000000000000000e+00 1634890835
1.900490 -0.641166 -2.276006 0.000000000000000e+00 1634890835
0.814416 -0.325773 -1.011930 0.000000000000000e+00 1886740808
1.734564 -0.931357 -2.335392 0.000000000000000e+00 1634890835
1.632389 -1.000207 -2.296556 0.000000000000000e+00 1634890835
0.791139 -0.266420 -0.963685 0.000000000000000e+00 1886740808
0.812594 -0.324773 -1.027306 0.000000000000000e+00 1886740808
1.703443 -0.915330 -2.335411 0.000000000000000e+00 1634890835
1.612289 -0.989318 -2.310807 0.000000000000000e+00 1634890835
0.823927 -0.276946 -1.020854 0.000000000000000e+00 1886740808
0.780776 -0.311791 -1.004374 0.000000000000000e+00 1886740808
1.641702 -0.882825 -2.292047 0.000000000000000e+00 1634890835
1.560494 -0.958949 -2.278670 0.000000000000000e+00 1634890835
0.794754 -0.266633 -1.001660 0.000000000000000e+00 1886740808
0.801210 -0.319672 -1.048771 0.000000000000000e+00 1886740808
1.632244 -0.878423 -2.320801 0.000000000000000e+00 1634890835
1.548145 -0.952794 -2.303371 0.000000000000000e+00 1634890835
0.793587 -0.265725 -1.017458 0.000000000000000e+00 1886740808
1.743620 -0.695063 -2.322616 0.000000000000000e+00 1634890835
1.613704 -0.869135 -2.336861 0.000000000000000e+00 1634890835
1.503333 -0.926641 -2.279176 0.000000000000000e+00 1634890835
0.750072 -0.250657 -0.978327 0.000000000000000e+00 1886740808
1.723466 -0.686405 -2.336397 0.000000000000000e+00 1634890835
1.578097 -0.850648 -2.327739 0.000000000000000e+00 1634890835
1.491031 -0.920505 -2.303666 0.000000000000000e+00 1634890835
0.790252 -0.263548 -1.048655 0.000000000000000e+00 1886740808
0.763475 -0.303787 -1.053385 0.000000000000000e+00 1886740808
1.553188 -0.837917 -2.333752 0.000000000000000e+00 1634890835
1.448605 -0.895755 -2.281060 0.000000000000000e+00 1634890835
1.733049 -0.576769 -2.339876 0.000000000000000e+00 1634890835
1.646599 -0.654559 -2.312396 0.000000000000000e+00 1634890835
1.475910 -0.796904 -2.259237 0.000000000000000e+00 1634890835
1.424934 -0.882572 -2.287083 0.000000000000000e+00 1634890835
0.731134 -0.242809 -1.004444 0.000000000000000e+00 1886740808
1.618705 -0.642845 -2.313977 0.000000000000000e+00 1634890835
1.488178 -0.804230 -2.320987 0.000000000000000e+00 1634890835
1.410957 -0.875392 -2.308613 0.000000000000000e+00 1634890835
1.653175 -0.547822 -2.311150 0.000000000000000e+00 1634890835
1.596537 -0.633408 -2.323403 0.000000000000000e+00 1634890835
1.447383 -0.782880 -2.300190 0.000000000000000e+00 1634890835
1.371700 -0.852508 -2.288228 0.000000000000000e+00 1634890835
1.590764 -0.525966 -2.263250 0.000000000000000e+00 1634890835
1.509709 -0.598350 -2.236838 0.000000000000000e+00 1634890835
1.433080 -0.775852 -2.320942 0.000000000000000e+00 1634890835
1.367168 -0.851198 -2.325528 0.000000000000000e+00 1634890835
1.590245 -0.524594 -2.302755 0.000000000000000e+00 1634890835
1.495769 -0.592205 -2.256547 0.000000000000000e+00 1634890835
1.411143 -0.764690 -2.329334 0.000000000000000e+00 1634890835
1.311890 -0.818267 -2.275712 0.000000000000000e+00 1634890835
1.561627 -0.513944 -2.301754 0.000000000000000e+00 1634890835
1.513793 -0.598698 -2.325580 0.000000000000000e+00 1634890835
1.390427 -0.754189 -2.339554 0.000000000000000e+00 1634890835
1.298018 -0.811125 -2.296593 0.000000000000000e+00 1634890835
1.522967 -0.500015 -2.285151 0.000000000000000e+00 1634890835
1.493749 -0.590120 -2.337094 0.000000000000000e+00 1634890835
1.319091 -0.716199 -2.262789 0.000000000000000e+00 1634890835
1.259860 -0.788787 -2.273927 0.000000000000000e+00 1634890835
1.492508 -0.488803 -2.279978 0.000000000000000e+00 1634890835
1.429220 -0.563991 -2.277633 0.000000000000000e+00 1634890835
1.346034 -0.731567 -2.354365 0.000000000000000e+00 1634890835
1.232948 -0.773456 -2.270499 0.000000000000000e+00 1634890835
1.472600 -0.481061 -2.290547 0.000000000000000e+00 1634890835
1.422588 -0.560724 -2.309433 0.000000000000000e+00 1634890835
1.323605 -0.720124 -2.360979 0.000000000000000e+00 1634890835
1.219110 -0.766320 -2.290960 0.000000000000000e+00 1634890835
1.421218 -0.463065 -2.251169 0.000000000000000e+00 1634890835
1.377960 -0.542487 -2.279095 0.000000000000000e+00 1634890835
1.275154 -0.694503 -2.319980 0.000000000000000e+00 1634890835
1.188696 -0.748750 -2.279935 0.000000000000000e+00 1634890835
1.400951 -0.455238 -2.260059 0.000000000000000e+00 1634890835
1.369548 -0.538515 -2.308153 0.000000000000000e+00 1634890835
1.263889 -0.689121 -2.345814 0.000000000000000e+00 1634890835
1.165435 -0.735665 -2.281927 0.000000000000000e+00 1634890835
1.415492 -0.458696 -2.326018 0.000000000000000e+00 1634890835
1.331338 -0.522832 -2.286663 0.000000000000000e+00 1634890835
1.194467 -0.652006 -2.262048 0.000000000000000e+00 1634890835
1.135085 -0.718082 -2.269301 0.000000000000000e+00 1634890835
1.376352 -0.444747 -2.304125 0.000000000000000e+00 1634890835
1.315809 -0.516064 -2.303572 0.000000000000000e+00 1634890835
1.198916 -0.655193 -2.317089 0.000000000000000e+00 1634890835
1.116696 -0.708046 -2.280041 0.000000000000000e+00 1634890835
1.357465 -0.437360 -2.315485 0.000000000000000e+00 1634890835
1.292956 -0.506425 -2.307600 0.000000000000000e+00 1634890835
1.185659 -0.648724 -2.338993 0.000000000000000e+00 1634890835
1.123790 -0.714202 -2.343876 0.000000000000000e+00 1634890835
1.346652 -0.432569 -2.340858 0.000000000000000e+00 1634890835
1.273386 -0.498074 -2.317289 0.000000000000000e+00 1634890835
1.161699 -0.636396 -2.339756 0.000000000000000e+00 1634890835
1.086070 -0.691888 -2.314480 0.000000000000000e+00 1634890835
1.315864 -0.421367 -2.331361 0.000000000000000e+00 1634890835
1.235226 -0.482465 -2.292397 0.000000000000000e+00 1634890835
1.143686 -0.627323 -2.352281 0.000000000000000e+00 1634890835
1.059850 -0.676857 -2.308313 0.000000000000000e+00 1634890835
1.263259 -0.403225 -2.281638 0.000000000000000e+00 1634890835
1.228094 -0.478979 -2.324784 0.000000000000000e+00 1634890835
1.111772 -0.610617 -2.335643 0.000000000000000e+00 1634890835
1.023641 -0.655402 -2.279121 0.000000000000000e+00 1634890835
1.235308 -0.392999 -2.274918 0.000000000000000e+00 1634890835
1.184861 -0.461422 -2.288309 0.000000000000000e+00 1634890835
1.080552 -0.594273 -2.319279 0.000000000000000e+00 1634890835
1.002455 -0.643532 -2.282312 0.000000000000000e+00 1634890835
1.231552 -0.390463 -2.312936 0.000000000000000e+00 1634890835
1.184042 -0.460386 -2.333475 0.000000000000000e+00 1634890835
1.045983 -0.576064 -2.294363 0.000000000000000e+00 1634890835
0.997928 -0.642374 -2.323948 0.000000000000000e+00 1634890835
1.193245 -0.376979 -2.285862 0.000000000000000e+00 1634890835
1.150376 -0.446576 -2.313994 0.000000000000000e+00 1634890835
1.021317 -0.563290 -2.290066 0.000000000000000e+00 1634890835
0.952528 -0.614880 -2.269635 0.000000000000000e+00 1634890835
1.204965 -0.379289 -2.355037 0.000000000000000e+00 1634890835
1.105974 -0.428626 -2.271204 0.000000000000000e+00 1634890835
1.014167 -0.560182 -2.325266 0.000000000000000e+00 1634890835
0.952776 -0.616835 -2.323599 0.000000000000000e+00 1634890835
1.158081 -0.363149 -2.309737 0.000000000000000e+00 1634890835
1.078498 -0.417258 -2.261657 0.000000000000000e+00 1634890835
0.971866 -0.537646 -2.279172 0.000000000000000e+00 1634890835
0.925591 -0.601047 -2.311154 0.000000000000000e+00 1634890835
1.110023 -0.346713 -2.259741 0.000000000000000e+00 1634890835
1.070861 -0.413565 -2.293768 0.000000000000000e+00 1634890835
0.964606 -0.534484 -2.314554 0.000000000000000e+00 1634890835
0.903710 -0.588678 -2.311187 0.000000000000000e+00 1634890835
1.122087 -0.349053 -2.332192 0.000000000000000e+00 1634890835
1.046795 -0.403523 -2.290899 0.000000000000000e+00 1634890835
0.936697 -0.519882 -2.300435 0.000000000000000e+00 1634890835
0.877980 -0.573777 -2.300652 0.000000000000000e+00 1634890835
1.106137 -0.342637 -2.347849 0.000000000000000e+00 1634890835
1.020154 -0.392500 -2.281717 0.000000000000000e+00 1634890835
0.925984 -0.514821 -2.328419 0.000000000000000e+00 1634890835
0.845931 -0.554699 -2.272136 0.000000000000000e+00 1634890835
1.030796 -0.317896 -2.234994 0.000000000000000e+00 1634890835
1.012669 -0.388845 -2.315509 0.000000000000000e+00 1634890835
0.898808 -0.500605 -2.314906 0.000000000000000e+00 1634890835
0.838772 -0.551936 -2.310253 0.000000000000000e+00 1634890835
1.033724 -0.317343 -2.290206 0.000000000000000e+00 1634890835
0.980598 -0.375751 -2.292924 0.000000000000000e+00 1634890835
0.887476 -0.495212 -2.342081 0.000000000000000e+00 1634890835
0.465798 -0.307626 -1.316197 0.000000000000000e+00 1936876886
1.026179 -0.313528 -2.323755 0.000000000000000e+00 1634890835
0.967244 -0.369838 -2.313658 0.000000000000000e+00 1634890835
0.841868 -0.470672 -2.277450 0.000000000000000e+00 1634890835
0.445534 -0.295363 -1.292160 0.000000000000000e+00 1936876886
0.985296 -0.299546 -2.281226 0.000000000000000e+00 1634890835
0.949602 -0.362279 -2.324450 0.000000000000000e+00 1634890835
0.824818 -0.462069 -2.288292 0.000000000000000e+00 1634890835
0.423425 -0.281817 -1.261065 0.000000000000000e+00 1936876886
0.981479 -0.296843 -2.324132 0.000000000000000e+00 1634890835
0.915938 -0.348620 -2.295195 0.000000000000000e+00 1634890835
0.423923 -0.237983 -1.206668 0.000000000000000e+00 1936876886
0.330079 -0.220597 -1.010025 0.000000000000000e+00 1953264973
0.951329 -0.286172 -2.304834 0.000000000000000e+00 1634890835
0.876518 -0.332804 -2.249350 0.000000000000000e+00 1634890835
0.450407 -0.253405 -1.316030 0.000000000000000e+00 1936876886
0.323894 -0.217397 -1.018848 0.000000000000000e+00 1953264973
0.499126 -0.149296 -1.237675 0.000000000000000e+00 1936876886
0.863282 -0.326946 -2.269697 0.000000000000000e+00 1634890835
0.365231 -0.205953 -1.095996 0.000000000000000e+00 1953264973
0.294825 -0.198779 -0.953931 0.000000000000000e+00 1953264973
0.492933 -0.146573 -1.251525 0.000000000000000e+00 1936876886
0.865829 -0.327038 -2.333197 0.000000000000000e+00 1634890835
0.332273 -0.187817 -1.024596 0.000000000000000e+00 1953264973
0.274697 -0.186083 -0.914790 0.000000000000000e+00 1953264973
0.456643 -0.134943 -1.187571 0.000000000000000e+00 1936876886
0.820069 -0.308893 -2.266056 0.000000000000000e+00 1634890835
0.317355 -0.179834 -1.006165 0.000000000000000e+00 1953264973
0.240357 -0.163627 -0.824379 0.000000000000000e+00 1953264973
