# .PCD v0.7 - Point Cloud Data file format
VERSION 0.7
FIELDS x y z rgb label
SIZE 4 4 4 4 4
TYPE F F F F U
COUNT 1 1 1 1 1
WIDTH 536
HEIGHT 1
VIEWPOINT 0 0 0 1 0 0 0
POINTS 536
DATA ascii
34.288559 -12.747952 -2.178497 0.000000000000000e+00 1851878480
36.983486 -15.470010 -2.254597 0.000000000000000e+00 1851878480
30.168905 -15.568523 -1.631393 0.000000000000000e+00 1851878480
28.692253 -16.290451 -1.424844 0.000000000000000e+00 1851878480
29.124607 -10.819864 -2.114995 0.000000000000000e+00 1851878480
28.572145 -11.947423 -2.009307 0.000000000000000e+00 1851878480
26.778908 -13.823418 -1.715364 0.000000000000000e+00 1851878480
25.930958 -14.731374 -1.555533 0.000000000000000e+00 1851878480
26.563356 -9.860855 -2.170536 0.000000000000000e+00 1851878480
26.085823 -10.903933 -2.078906 0.000000000000000e+00 1851878480
24.914738 -12.865107 -1.844923 0.000000000000000e+00 1851878480
24.367136 -13.851127 -1.713714 0.000000000000000e+00 1851878480
24.103815 -8.941024 -2.188968 0.000000000000000e+00 1851878480
24.320650 -10.162515 -2.166398 0.000000000000000e+00 1851878480
23.427336 -12.100806 -1.969203 0.000000000000000e+00 1851878480
23.166611 -13.176503 -1.869209 0.000000000000000e+00 1851878480
22.250002 -8.247087 -2.223386 0.000000000000000e+00 1851878480
22.349623 -9.335634 -2.200765 0.000000000000000e+00 1851878480
22.128437 -11.433451 -2.081774 0.000000000000000e+00 1851878480
21.845991 -12.432724 -1.989263 0.000000000000000e+00 1851878480
20.541443 -7.607997 -2.240099 0.000000000000000e+00 1851878480
20.605337 -8.603993 -2.222835 0.000000000000000e+00 1851878480
20.792145 -10.746337 -2.164757 0.000000000000000e+00 1851878480
20.454494 -11.647722 -2.075101 0.000000000000000e+00 1851878480
18.979351 -7.024071 -2.243201 0.000000000000000e+00 1851878480
19.015957 -7.937531 -2.230540 0.000000000000000e+00 1851878480
19.431597 -10.046277 -2.218498 0.000000000000000e+00 1851878480
19.177311 -10.926915 -2.145194 0.000000000000000e+00 1851878480
17.576616 -6.499948 -2.238304 0.000000000000000e+00 1851878480
17.683647 -7.378796 -2.241160 0.000000000000000e+00 1851878480
17.886642 -9.250409 -2.222324 0.000000000000000e+00 1851878480
17.948343 -10.232759 -2.194978 0.000000000000000e+00 1851878480
16.420172 -6.067629 -2.241616 0.000000000000000e+00 1851878480
16.515421 -6.888899 -2.249273 0.000000000000000e+00 1851878480
16.602831 -8.589149 -2.230450 0.000000000000000e+00 1851878480
16.665655 -9.507137 -2.212383 0.000000000000000e+00 1851878480
15.407188 -5.688936 -2.244887 0.000000000000000e+00 1851878480
15.437189 -6.436857 -2.248692 0.000000000000000e+00 1851878480
15.457726 -7.999255 -2.233037 0.000000000000000e+00 1851878480
15.439788 -8.813091 -2.211483 0.000000000000000e+00 1851878480
14.456603 -5.333821 -2.239484 0.000000000000000e+00 1851878480
14.456616 -6.025843 -2.243128 0.000000000000000e+00 1851878480
14.499520 -7.505748 -2.241695 0.000000000000000e+00 1851878480
14.422114 -8.237131 -2.217277 0.000000000000000e+00 1851878480
13.616123 -5.019846 -2.234928 0.000000000000000e+00 1851878480
13.630879 -5.679636 -2.244741 0.000000000000000e+00 1851878480
13.577766 -7.030815 -2.237277 0.000000000000000e+00 1851878480
13.558624 -7.748605 -2.227397 0.000000000000000e+00 1851878480
12.915315 -4.757791 -2.239359 0.000000000000000e+00 1851878480
12.899153 -5.372819 -2.247317 0.000000000000000e+00 1851878480
12.810753 -6.635736 -2.241539 0.000000000000000e+00 1851878480
12.814079 -7.327516 -2.240506 0.000000000000000e+00 1851878480
12.268207 -4.515893 -2.240923 0.000000000000000e+00 1851878480
12.231392 -5.092860 -2.247995 0.000000000000000e+00 1851878480
12.145745 -6.293268 -2.249408 0.000000000000000e+00 1851878480
12.116562 -6.932846 -2.246992 0.000000000000000e+00 1851878480
11.740049 -4.318111 -2.253604 0.000000000000000e+00 1851878480
11.549676 -4.807279 -2.233505 0.000000000000000e+00 1851878480
11.517437 -5.969606 -2.251205 0.000000000000000e+00 1851878480
11.434227 -6.546385 -2.242054 0.000000000000000e+00 1851878480
11.175222 -4.107145 -2.249378 0.000000000000000e+00 1851878480
11.090279 -4.614397 -2.251373 0.000000000000000e+00 1851878480
10.932523 -5.668240 -2.249399 0.000000000000000e+00 1851878480
10.807270 -6.191198 -2.234442 0.000000000000000e+00 1851878480
10.630209 -3.903776 -2.239087 0.000000000000000e+00 1851878480
10.542951 -4.385080 -2.242018 0.000000000000000e+00 1851878480
10.381384 -5.384206 -2.243212 0.000000000000000e+00 1851878480
10.322449 -5.917064 -2.244744 0.000000000000000e+00 1851878480
5.829926 -2.139264 -1.282675 1.880790849211783e-38 1684957512
5.814484 -2.417512 -1.292786 1.880790849211783e-38 1684957512
5.700367 -2.957393 -1.290817 1.880790849211783e-38 1684957512
5.650327 -3.240880 -1.289469 1.880790849211783e-38 1684957512
5.613745 -2.058309 -1.287948 1.880790849211783e-38 1684957512
5.539845 -2.302486 -1.285549 1.880790849211783e-38 1684957512
5.411586 -2.808474 -1.281718 1.880790849211783e-38 1684957512
5.392423 -3.094854 -1.288800 1.880790849211783e-38 1684957512
5.364993 -1.965543 -1.281545 1.880790849211783e-38 1684957512
5.287294 -2.196716 -1.278498 1.880790849211783e-38 1684957512
5.181901 -2.690143 -1.281432 1.880790849211783e-38 1684957512
5.148846 -2.956882 -1.286369 1.880790849211783e-38 1684957512
5.162854 -1.889980 -1.282193 1.880790849211783e-38 1684957512
5.121082 -2.126878 -1.288427 1.880790849211783e-38 1684957512
4.996210 -2.594583 -1.287898 1.880790849211783e-38 1684957512
4.926162 -2.830749 -1.284332 1.880790849211783e-38 1684957512
4.967216 -1.816911 -1.280863 1.880790849211783e-38 1684957512
4.905916 -2.036766 -1.282494 1.880790849211783e-38 1684957512
4.766567 -2.476133 -1.278890 1.880790849211783e-38 1684957512
4.695587 -2.699931 -1.275531 1.880790849211783e-38 1684957512
4.780016 -1.747034 -1.278243 1.880790849211783e-38 1684957512
4.757985 -1.974618 -1.290759 1.880790849211783e-38 1684957512
4.617664 -2.399568 -1.287772 1.880790849211783e-38 1684957512
4.574416 -2.631903 -1.292834 1.880790849211783e-38 1684957512
4.621436 -1.687713 -1.280154 1.880790849211783e-38 1684957512
4.576669 -1.898665 -1.286909 1.880790849211783e-38 1684957512
4.450563 -2.313491 -1.288452 1.880790849211783e-38 1684957512
4.402458 -2.534556 -1.292795 1.880790849211783e-38 1684957512
4.475187 -1.632977 -1.282737 1.880790849211783e-38 1684957512
4.470486 -1.853922 -1.301531 1.880790849211783e-38 1684957512
4.342986 -2.258317 -1.303662 1.880790849211783e-38 1684957512
4.169205 -2.401781 -1.270512 1.880790849211783e-38 1684957512
4.331936 -1.579420 -1.283573 1.880790849211783e-38 1684957512
4.301285 -1.783085 -1.295258 1.880790849211783e-38 1684957512
4.101591 -2.133501 -1.275192 1.880790849211783e-38 1684957512
4.040979 -2.329391 -1.276455 1.880790849211783e-38 1684957512
4.227744 -1.540171 -1.293774 1.880790849211783e-38 1684957512
4.159399 -1.723617 -1.294296 1.880790849211783e-38 1684957512
4.031806 -2.097899 -1.296956 1.880790849211783e-38 1684957512
3.919510 -2.260807 -1.281980 1.880790849211783e-38 1684957512
4.030923 -1.467265 -1.272890 1.880790849211783e-38 1684957512
4.019987 -1.665215 -1.291476 1.880790849211783e-38 1684957512
3.900278 -2.030140 -1.296909 1.880790849211783e-38 1684957512
3.894149 -2.247617 -1.317534 1.880790849211783e-38 1684957512
3.981861 -1.448207 -1.296450 1.880790849211783e-38 1684957512
3.934003 -1.628976 -1.303743 1.880790849211783e-38 1684957512
3.876164 -2.018268 -1.331118 1.880790849211783e-38 1684957512
3.886883 -2.244868 -1.359086 1.880790849211783e-38 1684957512
3.979872 -1.446281 -1.335032 1.880790849211783e-38 1684957512
3.851293 -1.594118 -1.315587 1.880790849211783e-38 1684957512
3.962650 -2.064001 -1.404227 1.880790849211783e-38 1684957512
3.893519 -2.250155 -1.405748 1.880790849211783e-38 1684957512
3.986218 -1.447378 -1.376655 1.880790849211783e-38 1684957512
3.846523 -1.591530 -1.353372 1.880790849211783e-38 1684957512
3.910116 -2.037330 -1.428690 1.880790849211783e-38 1684957512
3.874535 -2.240643 -1.443281 1.880790849211783e-38 1684957512
3.964052 -1.438122 -1.408484 1.880790849211783e-38 1684957512
3.873213 -1.601954 -1.402669 1.880790849211783e-38 1684957512
3.913519 -2.039803 -1.473304 1.880790849211783e-38 1684957512
3.913355 -2.264574 -1.502849 1.880790849211783e-38 1684957512
4.004090 -1.451419 -1.462812 1.880790849211783e-38 1684957512
3.900452 -1.612589 -1.452948 1.880790849211783e-38 1684957512
3.903498 -2.035279 -1.513055 1.880790849211783e-38 1684957512
3.866961 -2.239202 -1.529888 1.880790849211783e-38 1684957512
3.990065 -1.445106 -1.497874 1.880790849211783e-38 1684957512
3.858934 -1.594801 -1.477699 1.880790849211783e-38 1684957512
3.917966 -2.043532 -1.562620 1.880790849211783e-38 1684957512
3.841544 -2.225955 -1.564681 1.880790849211783e-38 1684957512
4.014769 -1.452811 -1.547817 1.880790849211783e-38 1684957512
3.921614 -1.620067 -1.542815 1.880790849211783e-38 1684957512
3.901637 -2.035724 -1.600162 1.880790849211783e-38 1684957512
3.939453 -2.284212 -1.650859 1.880790849211783e-38 1684957512
4.027050 -1.456000 -1.593588 1.880790849211783e-38 1684957512
3.852549 -1.590904 -1.556284 1.880790849211783e-38 1684957512
3.878925 -2.024585 -1.634935 1.880790849211783e-38 1684957512
3.866768 -2.243572 -1.666156 1.880790849211783e-38 1684957512
4.004509 -1.446596 -1.625726 1.880790849211783e-38 1684957512
3.877587 -1.600602 -1.607560 1.880790849211783e-38 1684957512
3.915252 -2.044267 -1.695049 1.880790849211783e-38 1684957512
3.871069 -2.247588 -1.714140 1.880790849211783e-38 1684957512
3.987642 -1.439248 -1.660021 1.880790849211783e-38 1684957512
3.884862 -1.602963 -1.652085 1.880790849211783e-38 1684957512
3.952904 -2.064661 -1.756900 1.880790849211783e-38 1684957512
3.889602 -2.259886 -1.769034 1.880790849211783e-38 1684957512
4.048037 -1.459762 -1.727199 1.880790849211783e-38 1684957512
3.911753 -1.613405 -1.705595 1.880790849211783e-38 1684957512
3.888690 -2.031848 -1.773489 1.880790849211783e-38 1684957512
3.891042 -2.262274 -1.816739 1.880790849211783e-38 1684957512
3.984553 -1.435599 -1.741762 1.880790849211783e-38 1684957512
3.848528 -1.586682 -1.719705 1.880790849211783e-38 1684957512
3.925860 -2.052011 -1.836335 1.880790849211783e-38 1684957512
3.901690 -2.270029 -1.869247 1.880790849211783e-38 1684957512
4.023534 -1.448353 -1.801146 1.880790849211783e-38 1684957512
3.911276 -1.611890 -1.790398 1.880790849211783e-38 1684957512
3.926270 -2.052968 -1.882770 1.880790849211783e-38 1684957512
3.848609 -2.240706 -1.891074 1.880790849211783e-38 1684957512
3.991465 -1.435522 -1.829090 1.880790849211783e-38 1684957512
3.884451 -1.600174 -1.820786 1.880790849211783e-38 1684957512
3.925768 -2.053459 -1.929123 1.880790849211783e-38 1684957512
3.900636 -2.272588 -1.964916 1.880790849211783e-38 1684957512
4.016377 -1.443173 -1.883374 1.880790849211783e-38 1684957512
3.904985 -1.607963 -1.873621 1.880790849211783e-38 1684957512
3.869533 -2.024791 -1.947779 1.880790849211783e-38 1684957512
3.894527 -2.270633 -2.010436 1.880790849211783e-38 1684957512
4.038063 -1.449644 -1.936959 1.880790849211783e-38 1684957512
3.932205 -1.618491 -1.930518 1.880790849211783e-38 1684957512
3.920388 -2.052166 -2.020653 1.880790849211783e-38 1684957512
3.861632 -2.253058 -2.042044 1.880790849211783e-38 1684957512
4.029295 -1.445167 -1.976398 1.880790849211783e-38 1684957512
3.865833 -1.590500 -1.941364 1.880790849211783e-38 1684957512
3.869603 -2.026341 -2.041526 1.880790849211783e-38 1684957512
3.880095 -2.265457 -2.101048 1.880790849211783e-38 1684957512
4.029209 -1.443801 -2.020335 1.880790849211783e-38 1684957512
3.906185 -1.606416 -2.005860 1.880790849211783e-38 1684957512
3.842348 -2.012828 -2.074260 1.880790849211783e-38 1684957512
3.931825 -2.297324 -2.179395 1.880790849211783e-38 1684957512
4.034634 -1.444393 -2.067441 1.880790849211783e-38 1684957512
3.878255 -1.594243 -2.035789 1.880790849211783e-38 1684957512
3.921974 -2.055324 -2.165752 1.880790849211783e-38 1684957512
3.864530 -2.259653 -2.192011 1.880790849211783e-38 1684957512
4.017356 -1.436856 -2.103136 1.880790849211783e-38 1684957512
3.886397 -1.596897 -2.084795 1.880790849211783e-38 1684957512
3.924382 -2.057378 -2.216046 1.880790849211783e-38 1684957512
3.877012 -2.268624 -2.249628 0.000000000000000e+00 1851878480
4.066716 -1.453126 -2.174443 1.880790849211783e-38 1684957512
3.917577 -1.609004 -2.146992 1.880790849211783e-38 1684957512
3.906029 -2.048550 -2.254858 1.880790849211783e-38 1684957512
3.768808 -2.206948 -2.236431 0.000000000000000e+00 1851878480
4.036911 -1.441096 -2.204018 1.880790849211783e-38 1684957512
3.906725 -1.603839 -2.186782 1.880790849211783e-38 1684957512
3.882044 -2.036770 -2.290338 0.000000000000000e+00 1851878480
3.721457 -2.180858 -2.257766 0.000000000000000e+00 1851878480
4.024118 -1.435139 -2.242790 0.000000000000000e+00 1851878480
3.822920 -1.568736 -2.185025 1.880790849211783e-38 1684957512
3.707414 -1.945916 -2.234861 0.000000000000000e+00 1851878480
3.624599 -2.125706 -2.247621 0.000000000000000e+00 1851878480
4.072295 -1.450904 -2.316351 0.000000000000000e+00 1634890835
3.823167 -1.568131 -2.230728 0.000000000000000e+00 1851878480
3.664399 -1.924107 -2.256384 0.000000000000000e+00 1851878480
3.517618 -2.064544 -2.228937 0.000000000000000e+00 1851878480
3.941330 -1.402859 -2.287471 0.000000000000000e+00 1634890835
3.758359 -1.540851 -2.238120 0.000000000000000e+00 1851878480
3.562271 -1.871232 -2.240084 0.000000000000000e+00 1851878480
3.442599 -2.022076 -2.228517 0.000000000000000e+00 1851878480
3.878504 -1.379124 -2.296303 0.000000000000000e+00 1634890835
3.697401 -1.515164 -2.246707 0.000000000000000e+00 1851878480
3.521363 -1.850496 -2.260872 0.000000000000000e+00 1851878480
3.410731 -2.004921 -2.255052 0.000000000000000e+00 1851878480
3.791265 -1.346750 -2.289342 0.000000000000000e+00 1634890835
3.669582 -1.503071 -2.274784 0.000000000000000e+00 1851878480
3.465343 -1.821808 -2.271148 0.000000000000000e+00 1851878480
3.287751 -1.934154 -2.219690 0.000000000000000e+00 1851878480
3.677191 -1.304903 -2.264216 0.000000000000000e+00 1634890835
3.564608 -1.459391 -2.253832 0.000000000000000e+00 1851878480
3.361906 -1.768162 -2.248689 0.000000000000000e+00 1851878480
3.266083 -1.922940 -2.251203 0.000000000000000e+00 1851878480
3.628848 -1.286428 -2.278052 0.000000000000000e+00 1634890835
3.466947 -1.418735 -2.235425 0.000000000000000e+00 1851878480
3.311848 -1.742565 -2.260343 0.000000000000000e+00 1851878480
3.202114 -1.886793 -2.252850 0.000000000000000e+00 1851878480
3.583982 -1.269207 -2.293376 0.000000000000000e+00 1634890835
3.498880 -1.431121 -2.300203 0.000000000000000e+00 1634890835
3.235134 -1.702922 -2.252556 0.000000000000000e+00 1851878480
3.158398 -1.862549 -2.267717 0.000000000000000e+00 1851878480
3.469401 -1.227342 -2.262579 0.000000000000000e+00 1634890835
3.408133 -1.393330 -2.284035 0.000000000000000e+00 1634890835
3.185576 -1.677553 -2.262425 0.000000000000000e+00 1851878480
3.065420 -1.809207 -2.245750 0.000000000000000e+00 1851878480
3.435636 -1.214112 -2.283103 0.000000000000000e+00 1634890835
3.396675 -1.387969 -2.320160 0.000000000000000e+00 1634890835
3.109964 -1.638445 -2.252539 0.000000000000000e+00 1851878480
2.983310 -1.762211 -2.229699 0.000000000000000e+00 1851878480
3.393257 -1.197854 -2.297402 0.000000000000000e+00 1634890835
3.299008 -1.347397 -2.296454 0.000000000000000e+00 1634890835
3.028412 -1.596180 -2.236629 0.000000000000000e+00 1851878480
2.961725 -1.750933 -2.257875 0.000000000000000e+00 1851878480
3.305986 -1.165780 -2.280128 0.000000000000000e+00 1634890835
3.255633 -1.329018 -2.309170 0.000000000000000e+00 1634890835
3.017370 -1.591064 -2.271983 0.000000000000000e+00 1851878480
2.860718 -1.692659 -2.224195 0.000000000000000e+00 1851878480
3.253532 -1.146028 -2.285548 0.000000000000000e+00 1634890835
3.187999 -1.300752 -2.303688 0.000000000000000e+00 1634890835
2.960089 -1.561560 -2.272048 0.000000000000000e+00 1851878480
2.844586 -1.684564 -2.255265 0.000000000000000e+00 1851878480
3.223927 -1.134341 -2.306429 0.000000000000000e+00 1634890835
3.140126 -1.280565 -2.311426 0.000000000000000e+00 1634890835
2.913347 -1.537598 -2.279204 0.000000000000000e+00 1851878480
2.806346 -1.663369 -2.268522 0.000000000000000e+00 1851878480
3.123871 -1.097903 -2.275688 0.000000000000000e+00 1634890835
3.046539 -1.241760 -2.284088 0.000000000000000e+00 1634890835
2.821758 -1.489945 -2.249752 0.000000000000000e+00 1851878480
2.739361 -1.625099 -2.257457 0.000000000000000e+00 1851878480
3.086672 -1.083598 -2.289412 0.000000000000000e+00 1634890835
2.985294 -1.216159 -2.279371 0.000000000000000e+00 1634890835
2.756056 -1.455929 -2.239112 0.000000000000000e+00 1851878480
0.846534 -0.502647 -0.711102 0.000000000000000e+00 1886740808
3.036954 -1.064918 -2.293173 0.000000000000000e+00 1634890835
2.948811 -1.200661 -2.292706 0.000000000000000e+00 1634890835
2.749341 -1.453066 -2.275838 0.000000000000000e+00 1851878480
0.839159 -0.498719 -0.718459 0.000000000000000e+00 1886740808
2.955929 -1.035300 -2.272019 0.000000000000000e+00 1634890835
2.930055 -1.192387 -2.319558 0.000000000000000e+00 1634890835
0.888994 -0.470070 -0.749707 0.000000000000000e+00 1886740808
0.834912 -0.496651 -0.728491 0.000000000000000e+00 1886740808
2.935908 -1.027075 -2.296871 0.000000000000000e+00 1634890835
2.846243 -1.157648 -2.293962 0.000000000000000e+00 1634890835
0.847522 -0.448357 -0.728085 0.000000000000000e+00 1886740808
0.815161 -0.485353 -0.724788 0.000000000000000e+00 1886740808
2.852969 -0.996867 -2.271575 0.000000000000000e+00 1634890835
2.777687 -1.129144 -2.278993 0.000000000000000e+00 1634890835
0.837272 -0.443152 -0.732650 0.000000000000000e+00 1886740808
0.813809 -0.485004 -0.737285 0.000000000000000e+00 1886740808
2.833019 -0.988698 -2.295501 0.000000000000000e+00 1634890835
2.763509 -1.122755 -2.307961 0.000000000000000e+00 1634890835
0.803792 -0.425643 -0.716369 0.000000000000000e+00 1886740808
0.809443 -0.482864 -0.747154 0.000000000000000e+00 1886740808
2.786245 -0.971178 -2.297261 0.000000000000000e+00 1634890835
0.851994 -0.345951 -0.724232 0.000000000000000e+00 1886740808
0.834579 -0.442168 -0.757513 0.000000000000000e+00 1886740808
0.761364 -0.454623 -0.715969 0.000000000000000e+00 1886740808
0.866635 -0.301699 -0.727038 0.000000000000000e+00 1886740808
0.840152 -0.340948 -0.726842 0.000000000000000e+00 1886740808
0.773081 -0.409795 -0.714574 0.000000000000000e+00 1886740808
0.757801 -0.452940 -0.725947 0.000000000000000e+00 1886740808
0.846395 -0.294282 -0.722427 0.000000000000000e+00 1886740808
0.824130 -0.334251 -0.725587 0.000000000000000e+00 1886740808
0.799091 -0.423802 -0.752125 0.000000000000000e+00 1886740808
0.776012 -0.464287 -0.757252 0.000000000000000e+00 1886740808
0.843978 -0.293065 -0.732864 0.000000000000000e+00 1886740808
0.803613 -0.325737 -0.719988 0.000000000000000e+00 1886740808
0.752137 -0.399109 -0.720837 0.000000000000000e+00 1886740808
0.770015 -0.461166 -0.765365 0.000000000000000e+00 1886740808
0.781657 -0.271072 -0.690487 0.000000000000000e+00 1886740808
0.767617 -0.310961 -0.699815 0.000000000000000e+00 1886740808
0.765948 -0.406654 -0.747418 0.000000000000000e+00 1886740808
0.778084 -0.466477 -0.787720 0.000000000000000e+00 1886740808
0.778967 -0.269783 -0.699972 0.000000000000000e+00 1886740808
0.802996 -0.325096 -0.744886 0.000000000000000e+00 1886740808
0.789836 -0.419564 -0.784702 0.000000000000000e+00 1886740808
0.769616 -0.461881 -0.793556 0.000000000000000e+00 1886740808
0.792640 -0.274149 -0.724502 0.000000000000000e+00 1886740808
0.790218 -0.319725 -0.745832 0.000000000000000e+00 1886740808
0.762589 -0.405312 -0.771337 0.000000000000000e+00 1886740808
0.792762 -0.476276 -0.832507 0.000000000000000e+00 1886740808
0.766028 -0.264585 -0.712183 0.000000000000000e+00 1886740808
0.778658 -0.314851 -0.747723 0.000000000000000e+00 1886740808
0.770634 -0.409817 -0.793548 0.000000000000000e+00 1886740808
0.745089 -0.448117 -0.796859 0.000000000000000e+00 1886740808
0.790140 -0.272536 -0.747166 0.000000000000000e+00 1886740808
0.778740 -0.314684 -0.760801 0.000000000000000e+00 1886740808
0.745355 -0.396599 -0.781353 0.000000000000000e+00 1886740808
2.109686 -1.270211 -2.297780 0.000000000000000e+00 1634890835
0.755090 -0.260080 -0.726213 0.000000000000000e+00 1886740808
0.786197 -0.317492 -0.781414 0.000000000000000e+00 1886740808
0.776185 -0.413241 -0.828319 0.000000000000000e+00 1886740808
2.063718 -1.243915 -2.289025 0.000000000000000e+00 1634890835
0.769301 -0.264596 -0.752492 0.000000000000000e+00 1886740808
0.773177 -0.312029 -0.781789 0.000000000000000e+00 1886740808
2.120169 -1.129439 -2.303268 0.000000000000000e+00 1634890835
2.026877 -1.223090 -2.289452 0.000000000000000e+00 1634890835
0.739253 -0.253892 -0.735409 0.000000000000000e+00 1886740808
0.818641 -0.330156 -0.842086 0.000000000000000e+00 1886740808
2.089200 -1.113605 -2.310417 0.000000000000000e+00 1634890835
0.787584 -0.475803 -0.905945 0.000000000000000e+00 1886740808
0.739082 -0.253459 -0.747739 0.000000000000000e+00 1886740808
0.753539 -0.303695 -0.788523 0.000000000000000e+00 1886740808
2.075191 -1.106808 -2.336157 0.000000000000000e+00 1634890835
0.833189 -0.503943 -0.975998 0.000000000000000e+00 1886740808
0.767701 -0.262877 -0.789888 0.000000000000000e+00 1886740808
0.763532 -0.307509 -0.812789 0.000000000000000e+00 1886740808
2.008213 -1.071744 -2.301371 0.000000000000000e+00 1634890835
0.775123 -0.469380 -0.924652 0.000000000000000e+00 1886740808
0.778498 -0.266167 -0.814600 0.000000000000000e+00 1886740808
2.143376 -0.862629 -2.321073 0.000000000000000e+00 1634890835
0.857921 -0.458144 -1.000830 0.000000000000000e+00 1886740808
0.767922 -0.465584 -0.932895 0.000000000000000e+00 1886740808
0.793150 -0.270754 -0.844020 0.000000000000000e+00 1886740808
2.083579 -0.837964 -2.295305 0.000000000000000e+00 1634890835
0.818520 -0.437382 -0.972035 0.000000000000000e+00 1886740808
0.773314 -0.469431 -0.956721 0.000000000000000e+00 1886740808
0.753429 -0.256786 -0.815363 0.000000000000000e+00 1886740808
2.040263 -0.819945 -2.286436 0.000000000000000e+00 1634890835
0.770917 -0.412213 -0.931982 0.000000000000000e+00 1886740808
1.826387 -1.110081 -2.301160 0.000000000000000e+00 1634890835
2.064151 -0.702375 -2.271770 0.000000000000000e+00 1634890835
2.017207 -0.810078 -2.299696 0.000000000000000e+00 1634890835
0.807120 -0.431857 -0.993332 0.000000000000000e+00 1886740808
1.809130 -1.101000 -2.321456 0.000000000000000e+00 1634890835
2.021276 -0.686654 -2.262389 0.000000000000000e+00 1634890835
1.970270 -0.790631 -2.285071 0.000000000000000e+00 1634890835
0.804157 -0.430562 -1.007548 0.000000000000000e+00 1886740808
0.754737 -0.459917 -0.986366 0.000000000000000e+00 1886740808
2.028467 -0.687939 -2.309063 0.000000000000000e+00 1634890835
1.940732 -0.778177 -2.289827 0.000000000000000e+00 1634890835
0.769577 -0.412330 -0.981658 0.000000000000000e+00 1886740808
1.765155 -1.077072 -2.349605 0.000000000000000e+00 1634890835
1.986819 -0.672661 -2.300175 0.000000000000000e+00 1634890835
0.804974 -0.322518 -0.966259 0.000000000000000e+00 1886740808
1.755574 -0.941278 -2.279962 0.000000000000000e+00 1634890835
1.689238 -1.032148 -2.290302 0.000000000000000e+00 1634890835
1.919553 -0.648753 -2.260209 0.000000000000000e+00 1634890835
0.828217 -0.331564 -1.011449 0.000000000000000e+00 1886740808
0.806033 -0.432476 -1.065812 0.000000000000000e+00 1886740808
1.666872 -1.019893 -2.302061 0.000000000000000e+00 1634890835
1.899816 -0.640939 -2.275198 0.000000000000000e+00 1634890835
0.785785 -0.314321 -0.976355 0.000000000000000e+00 1886740808
1.720862 -0.924000 -2.316943 0.000000000000000e+00 1634890835
1.621306 -0.993416 -2.280963 0.000000000000000e+00 1634890835
0.805451 -0.271240 -0.981120 0.000000000000000e+00 1886740808
0.766342 -0.306287 -0.968832 0.000000000000000e+00 1886740808
1.717345 -0.922800 -2.354470 0.000000000000000e+00 1634890835
1.608074 -0.986731 -2.304764 0.000000000000000e+00 1634890835
0.795651 -0.267442 -0.985821 0.000000000000000e+00 1886740808
0.790601 -0.315714 -1.017012 0.000000000000000e+00 1886740808
1.666500 -0.896160 -2.326668 0.000000000000000e+00 1634890835
1.562370 -0.960102 -2.281410 0.000000000000000e+00 1634890835
0.768636 -0.257870 -0.968742 0.000000000000000e+00 1886740808
0.805649 -0.321443 -1.054582 0.000000000000000e+00 1886740808
1.614359 -0.868798 -2.295371 0.000000000000000e+00 1634890835
1.536799 -0.945811 -2.286490 0.000000000000000e+00 1634890835
0.708713 -0.237306 -0.908642 0.000000000000000e+00 1886740808
1.725394 -0.687797 -2.298337 0.000000000000000e+00 1634890835
1.579494 -0.850709 -2.287319 0.000000000000000e+00 1634890835
1.510467 -0.931038 -2.289990 0.000000000000000e+00 1634890835
0.821333 -0.274470 -1.071273 0.000000000000000e+00 1886740808
1.699379 -0.676812 -2.303744 0.000000000000000e+00 1634890835
1.540025 -0.830126 -2.271582 0.000000000000000e+00 1634890835
1.481001 -0.914314 -2.288170 0.000000000000000e+00 1634890835
0.757231 -0.252535 -1.004837 0.000000000000000e+00 1886740808
0.728255 -0.289773 -1.004791 0.000000000000000e+00 1886740808
1.532211 -0.826601 -2.302233 0.000000000000000e+00 1634890835
1.450103 -0.896681 -2.283418 0.000000000000000e+00 1634890835
1.693966 -0.563761 -2.287108 0.000000000000000e+00 1634890835
1.621343 -0.644519 -2.276928 0.000000000000000e+00 1634890835
1.500668 -0.810272 -2.297135 0.000000000000000e+00 1634890835
1.426129 -0.883312 -2.289000 0.000000000000000e+00 1634890835
0.763737 -0.253636 -1.049234 0.000000000000000e+00 1886740808
1.627641 -0.646393 -2.326751 0.000000000000000e+00 1634890835
1.507536 -0.814691 -2.351177 0.000000000000000e+00 1634890835
1.411072 -0.875463 -2.308800 0.000000000000000e+00 1634890835
1.622575 -0.537682 -2.268371 0.000000000000000e+00 1634890835
1.589848 -0.630755 -2.313669 0.000000000000000e+00 1634890835
1.471885 -0.796133 -2.339129 0.000000000000000e+00 1634890835
1.340293 -0.832989 -2.235836 0.000000000000000e+00 1634890835
1.599176 -0.528748 -2.275219 0.000000000000000e+00 1634890835
1.543781 -0.611854 -2.287319 0.000000000000000e+00 1634890835
1.426255 -0.772157 -2.309887 0.000000000000000e+00 1634890835
1.336712 -0.832236 -2.273725 0.000000000000000e+00 1634890835
1.562812 -0.515544 -2.263031 0.000000000000000e+00 1634890835
1.538780 -0.609234 -2.321434 0.000000000000000e+00 1634890835
1.400811 -0.759091 -2.312279 0.000000000000000e+00 1634890835
1.328800 -0.828815 -2.305045 0.000000000000000e+00 1634890835
1.514613 -0.498472 -2.232459 0.000000000000000e+00 1634890835
1.509059 -0.596825 -2.318307 0.000000000000000e+00 1634890835
1.388994 -0.753411 -2.337143 0.000000000000000e+00 1634890835
1.316383 -0.822601 -2.329086 0.000000000000000e+00 1634890835
1.523548 -0.500206 -2.286022 0.000000000000000e+00 1634890835
1.500480 -0.592780 -2.347625 0.000000000000000e+00 1634890835
1.347762 -0.731766 -2.311971 0.000000000000000e+00 1634890835
1.281969 -0.802629 -2.313832 0.000000000000000e+00 1634890835
1.503491 -0.492400 -2.296757 0.000000000000000e+00 1634890835
1.449128 -0.571847 -2.309359 0.000000000000000e+00 1634890835
1.328048 -0.721791 -2.322903 0.000000000000000e+00 1634890835
1.240974 -0.778490 -2.285278 0.000000000000000e+00 1634890835
1.465980 -0.478899 -2.280251 0.000000000000000e+00 1634890835
1.422622 -0.560737 -2.309488 0.000000000000000e+00 1634890835
1.278638 -0.695659 -2.280771 0.000000000000000e+00 1634890835
1.223336 -0.768976 -2.298902 0.000000000000000e+00 1634890835
1.415152 -0.461089 -2.241561 0.000000000000000e+00 1634890835
1.415151 -0.557129 -2.340609 0.000000000000000e+00 1634890835
1.288416 -0.701726 -2.344107 0.000000000000000e+00 1634890835
1.186788 -0.747549 -2.276277 0.000000000000000e+00 1634890835
1.416795 -0.460387 -2.285620 0.000000000000000e+00 1634890835
1.400313 -0.550612 -2.360004 0.000000000000000e+00 1634890835
1.244559 -0.678582 -2.309937 0.000000000000000e+00 1634890835
1.193045 -0.753094 -2.335987 0.000000000000000e+00 1634890835
1.385406 -0.448947 -2.276579 0.000000000000000e+00 1634890835
1.349155 -0.529829 -2.317266 0.000000000000000e+00 1634890835
1.232067 -0.672530 -2.333253 0.000000000000000e+00 1634890835
1.154054 -0.730082 -2.307226 0.000000000000000e+00 1634890835
1.386883 -0.448150 -2.321755 0.000000000000000e+00 1634890835
1.311974 -0.514560 -2.296858 0.000000000000000e+00 1634890835
1.212842 -0.662803 -2.344004 0.000000000000000e+00 1634890835
1.128808 -0.715726 -2.304771 0.000000000000000e+00 1634890835
1.325440 -0.427042 -2.260859 0.000000000000000e+00 1634890835
1.293058 -0.506465 -2.307781 0.000000000000000e+00 1634890835
1.155899 -0.632441 -2.280284 0.000000000000000e+00 1634890835
1.120099 -0.711856 -2.336179 0.000000000000000e+00 1634890835
1.324295 -0.425388 -2.301995 0.000000000000000e+00 1634890835
1.252994 -0.490098 -2.280180 0.000000000000000e+00 1634890835
1.163533 -0.637401 -2.343450 0.000000000000000e+00 1634890835
1.087390 -0.692729 -2.317293 0.000000000000000e+00 1634890835
1.257184 -0.402576 -2.227396 0.000000000000000e+00 1634890835
1.240549 -0.484544 -2.302276 0.000000000000000e+00 1634890835
1.129570 -0.619581 -2.323248 0.000000000000000e+00 1634890835
1.044813 -0.667253 -2.275562 0.000000000000000e+00 1634890835
1.286266 -0.410568 -2.323191 0.000000000000000e+00 1634890835
1.221608 -0.476449 -2.312507 0.000000000000000e+00 1634890835
1.107652 -0.608354 -2.326988 0.000000000000000e+00 1634890835
1.038048 -0.664627 -2.311198 0.000000000000000e+00 1634890835
1.227127 -0.390396 -2.259852 0.000000000000000e+00 1634890835
1.187641 -0.462505 -2.293678 0.000000000000000e+00 1634890835
1.083664 -0.595984 -2.325960 0.000000000000000e+00 1634890835
1.003551 -0.644236 -2.284808 0.000000000000000e+00 1634890835
1.214443 -0.385038 -2.280805 0.000000000000000e+00 1634890835
1.170735 -0.455212 -2.307249 0.000000000000000e+00 1634890835
1.067749 -0.588051 -2.342106 0.000000000000000e+00 1634890835
0.989627 -0.637030 -2.304615 0.000000000000000e+00 1634890835
1.199063 -0.378817 -2.297007 0.000000000000000e+00 1634890835
1.153196 -0.447671 -2.319665 0.000000000000000e+00 1634890835
1.049841 -0.579022 -2.354023 0.000000000000000e+00 1634890835
0.946658 -0.611091 -2.255650 0.000000000000000e+00 1634890835
1.178957 -0.371102 -2.304205 0.000000000000000e+00 1634890835
1.125552 -0.436214 -2.311409 0.000000000000000e+00 1634890835
1.014169 -0.560183 -2.325270 0.000000000000000e+00 1634890835
0.944889 -0.611729 -2.304364 0.000000000000000e+00 1634890835
1.176628 -0.368965 -2.346729 0.000000000000000e+00 1634890835
1.120067 -0.433340 -2.348829 0.000000000000000e+00 1634890835
0.986313 -0.545638 -2.313052 0.000000000000000e+00 1634890835
0.899049 -0.583811 -2.244879 0.000000000000000e+00 1634890835
1.136062 -0.354846 -2.312749 0.000000000000000e+00 1634890835
1.059102 -0.409023 -2.268580 0.000000000000000e+00 1634890835
0.961335 -0.532672 -2.306705 0.000000000000000e+00 1634890835
0.895432 -0.583286 -2.290016 0.000000000000000e+00 1634890835
1.086498 -0.337982 -2.258222 0.000000000000000e+00 1634890835
1.050854 -0.405088 -2.299782 0.000000000000000e+00 1634890835
0.950064 -0.527301 -2.333263 0.000000000000000e+00 1634890835
0.873908 -0.571116 -2.289981 0.000000000000000e+00 1634890835
1.076240 -0.333376 -2.284391 0.000000000000000e+00 1634890835
1.023238 -0.393686 -2.288615 0.000000000000000e+00 1634890835
0.935260 -0.519978 -2.351743 0.000000000000000e+00 1634890835
0.848112 -0.556129 -2.277995 0.000000000000000e+00 1634890835
1.078180 -0.332510 -2.337734 0.000000000000000e+00 1634890835
1.013174 -0.389039 -2.316664 0.000000000000000e+00 1634890835
0.885321 -0.493094 -2.280169 0.000000000000000e+00 1634890835
0.832656 -0.547911 -2.293406 0.000000000000000e+00 1634890835
1.030096 -0.316229 -2.282169 0.000000000000000e+00 1634890835
0.970554 -0.371903 -2.269439 0.000000000000000e+00 1634890835
0.873320 -0.487313 -2.304723 0.000000000000000e+00 1634890835
0.471605 -0.311462 -1.332607 0.000000000000000e+00 1936876886
1.033337 -0.315715 -2.339963 0.000000000000000e+00 1634890835
0.953689 -0.364655 -2.281232 0.000000000000000e+00 1634890835
0.859190 -0.480357 -2.324311 0.000000000000000e+00 1634890835
0.448692 -0.297456 -1.301319 0.000000000000000e+00 1936876886
1.012754 -0.307894 -2.344797 0.000000000000000e+00 1634890835
0.927137 -0.353709 -2.269459 0.000000000000000e+00 1634890835
0.818249 -0.458388 -2.270065 0.000000000000000e+00 1634890835
0.418260 -0.278380 -1.245683 0.000000000000000e+00 1936876886
0.966909 -0.292436 -2.289629 0.000000000000000e+00 1634890835
0.922958 -0.351292 -2.312787 0.000000000000000e+00 1634890835
0.470644 -0.264211 -1.339658 0.000000000000000e+00 1936876886
0.351685 -0.235037 -1.076138 0.000000000000000e+00 1953264973
0.945654 -0.284465 -2.291085 0.000000000000000e+00 1634890835
0.898598 -0.341188 -2.306013 0.000000000000000e+00 1634890835
0.459090 -0.258289 -1.341398 0.000000000000000e+00 1936876886
0.303690 -0.203837 -0.955295 0.000000000000000e+00 1953264973
0.514060 -0.153763 -1.274707 0.000000000000000e+00 1936876886
0.886223 -0.335634 -2.330012 0.000000000000000e+00 1634890835
0.375799 -0.211913 -1.127708 0.000000000000000e+00 1953264973
0.286213 -0.192972 -0.926065 0.000000000000000e+00 1953264973
0.486700 -0.144720 -1.235700 0.000000000000000e+00 1936876886
0.850493 -0.321245 -2.291871 0.000000000000000e+00 1634890835
0.342315 -0.193493 -1.055562 0.000000000000000e+00 1953264973
0.265698 -0.179987 -0.884823 0.000000000000000e+00 1953264973
0.478125 -0.141291 -1.243440 0.000000000000000e+00 1936876886
0.835580 -0.314735 -2.308917 0.000000000000000e+00 1634890835
0.321966 -0.182447 -1.020786 0.000000000000000e+00 1953264973
0.241422 -0.164352 -0.828032 0.000000000000000e+00 1953264973
