# .PCD v0.7 - Point Cloud Data file format
VERSION 0.7
FIELDS x y z rgb label
SIZE 4 4 4 4 4
TYPE F F F F U
COUNT 1 1 1 1 1
WIDTH 533
HEIGHT 1
VIEWPOINT 0 0 0 1 0 0 0
POINTS 533
DATA ascii
35.287811 -13.119458 -2.241983 0.000000000000000e+00 1851878480
29.309797 -10.888662 -2.128442 0.000000000000000e+00 1851878480
28.737123 -12.016408 -2.020909 0.000000000000000e+00 1851878480
27.146578 -14.013211 -1.738917 0.000000000000000e+00 1851878480
25.935097 -14.733726 -1.555781 0.000000000000000e+00 1851878480
26.596287 -9.873079 -2.173226 0.000000000000000e+00 1851878480
26.037001 -10.883524 -2.075015 0.000000000000000e+00 1851878480
24.914555 -12.865011 -1.844909 0.000000000000000e+00 1851878480
24.289057 -13.806744 -1.708222 0.000000000000000e+00 1851878480
24.086040 -8.934429 -2.187354 0.000000000000000e+00 1851878480
24.226498 -10.123173 -2.158011 0.000000000000000e+00 1851878480
23.201021 -11.983909 -1.950180 0.000000000000000e+00 1851878480
22.901464 -13.025696 -1.847816 0.000000000000000e+00 1851878480
22.130299 -8.202719 -2.211424 0.000000000000000e+00 1851878480
22.252409 -9.295028 -2.191193 0.000000000000000e+00 1851878480
21.926914 -11.329327 -2.062815 0.000000000000000e+00 1851878480
21.703266 -12.351499 -1.976267 0.000000000000000e+00 1851878480
20.419518 -7.562840 -2.226803 0.000000000000000e+00 1851878480
20.513315 -8.565569 -2.212908 0.000000000000000e+00 1851878480
20.665470 -10.680866 -2.151569 0.000000000000000e+00 1851878480
20.381586 -11.606204 -2.067704 0.000000000000000e+00 1851878480
18.930685 -7.006060 -2.237449 0.000000000000000e+00 1851878480
19.025858 -7.941664 -2.231701 0.000000000000000e+00 1851878480
19.433224 -10.047118 -2.218684 0.000000000000000e+00 1851878480
19.157652 -10.915713 -2.142995 0.000000000000000e+00 1851878480
17.577667 -6.500337 -2.238438 0.000000000000000e+00 1851878480
17.635782 -7.358824 -2.235095 0.000000000000000e+00 1851878480
17.888464 -9.251351 -2.222550 0.000000000000000e+00 1851878480
17.953892 -10.235922 -2.195656 0.000000000000000e+00 1851878480
16.396893 -6.059027 -2.238438 0.000000000000000e+00 1851878480
16.435154 -6.855418 -2.238341 0.000000000000000e+00 1851878480
16.575060 -8.574783 -2.226719 0.000000000000000e+00 1851878480
16.700403 -9.526960 -2.216995 0.000000000000000e+00 1851878480
15.362927 -5.672594 -2.238439 0.000000000000000e+00 1851878480
15.366799 -6.407506 -2.238438 0.000000000000000e+00 1851878480
15.409485 -7.974291 -2.226068 0.000000000000000e+00 1851878480
15.475655 -8.833564 -2.216620 0.000000000000000e+00 1851878480
14.449845 -5.331329 -2.238437 0.000000000000000e+00 1851878480
14.426388 -6.013242 -2.238438 0.000000000000000e+00 1851878480
14.432915 -7.471270 -2.231398 0.000000000000000e+00 1851878480
14.454477 -8.255616 -2.222253 0.000000000000000e+00 1851878480
13.637503 -5.027728 -2.238437 0.000000000000000e+00 1851878480
13.592607 -5.663689 -2.238438 0.000000000000000e+00 1851878480
13.575089 -7.029429 -2.236835 0.000000000000000e+00 1851878480
13.557411 -7.747912 -2.227198 0.000000000000000e+00 1851878480
12.910006 -4.755835 -2.238438 0.000000000000000e+00 1851878480
12.848186 -5.351589 -2.238437 0.000000000000000e+00 1851878480
12.793033 -6.626556 -2.238438 0.000000000000000e+00 1851878480
12.768182 -7.301270 -2.232481 0.000000000000000e+00 1851878480
12.254604 -4.510885 -2.238438 0.000000000000000e+00 1851878480
12.179388 -5.071207 -2.238438 0.000000000000000e+00 1851878480
12.086509 -6.262575 -2.238438 0.000000000000000e+00 1851878480
12.070436 -6.906454 -2.238438 0.000000000000000e+00 1851878480
11.661043 -4.289052 -2.238438 0.000000000000000e+00 1851878480
11.575186 -4.817897 -2.238438 0.000000000000000e+00 1851878480
11.452118 -5.935751 -2.238438 0.000000000000000e+00 1851878480
11.415784 -6.535826 -2.238438 0.000000000000000e+00 1851878480
11.120869 -4.087169 -2.238438 0.000000000000000e+00 1851878480
11.026561 -4.587885 -2.238438 0.000000000000000e+00 1851878480
10.879250 -5.640619 -2.238438 0.000000000000000e+00 1851878480
10.826600 -6.202271 -2.238438 0.000000000000000e+00 1851878480
10.627124 -3.902643 -2.238437 0.000000000000000e+00 1851878480
10.526112 -4.378077 -2.238438 0.000000000000000e+00 1851878480
10.359294 -5.372749 -2.238438 0.000000000000000e+00 1851878480
10.293449 -5.900441 -2.238438 0.000000000000000e+00 1851878480
10.173991 -3.733298 -2.238437 0.000000000000000e+00 1851878480
10.067680 -4.185881 -2.238438 0.000000000000000e+00 1851878480
9.885149 -5.128490 -2.238438 0.000000000000000e+00 1851878480
9.808614 -5.625964 -2.238437 0.000000000000000e+00 1851878480
9.756622 -3.577317 -2.238437 0.000000000000000e+00 1851878480
9.646152 -4.009161 -2.238438 0.000000000000000e+00 1851878480
9.450989 -4.904820 -2.238439 0.000000000000000e+00 1851878480
9.365771 -5.375263 -2.238438 0.000000000000000e+00 1851878480
9.370878 -3.433158 -2.238438 0.000000000000000e+00 1851878480
9.257171 -3.846085 -2.238437 0.000000000000000e+00 1851878480
9.051877 -4.699211 -2.238438 0.000000000000000e+00 1851878480
8.959615 -5.145332 -2.238438 0.000000000000000e+00 1851878480
9.013248 -3.299504 -2.238437 0.000000000000000e+00 1851878480
8.897067 -3.695113 -2.238438 0.000000000000000e+00 1851878480
4.960621 -2.576102 -1.278724 1.880790849211783e-38 1684957512
4.904652 -2.818388 -1.278724 1.880790849211783e-38 1684957512
4.958921 -1.813877 -1.278724 1.880790849211783e-38 1684957512
4.891494 -2.030778 -1.278724 1.880790849211783e-38 1684957512
4.765948 -2.475812 -1.278724 1.880790849211783e-38 1684957512
4.707340 -2.706690 -1.278724 1.880790849211783e-38 1684957512
4.781815 -1.747692 -1.278724 1.880790849211783e-38 1684957512
4.713623 -1.956207 -1.278724 1.880790849211783e-38 1684957512
4.585220 -2.382708 -1.278724 1.880790849211783e-38 1684957512
4.524491 -2.603179 -1.278724 1.880790849211783e-38 1684957512
4.616275 -1.685828 -1.278724 1.880790849211783e-38 1684957512
4.547558 -1.886589 -1.278724 1.880790849211783e-38 1684957512
4.416962 -2.296025 -1.278724 1.880790849211783e-38 1684957512
4.354541 -2.506969 -1.278724 1.880790849211783e-38 1684957512
4.461187 -1.627869 -1.278724 1.880790849211783e-38 1684957512
4.392151 -1.821437 -1.278724 1.880790849211783e-38 1684957512
4.259907 -2.215117 -1.278724 1.880790849211783e-38 1684957512
4.196155 -2.417306 -1.278724 1.880790849211783e-38 1684957512
4.315571 -1.573454 -1.278724 1.880790849211783e-38 1684957512
4.246380 -1.760324 -1.278724 1.880790849211783e-38 1684957512
4.112952 -2.139411 -1.278724 1.880790849211783e-38 1684957512
4.048162 -2.333531 -1.278724 1.880790849211783e-38 1684957512
4.178564 -1.522255 -1.278724 1.880790849211783e-38 1684957512
4.109356 -1.702880 -1.278724 1.880790849211783e-38 1684957512
3.975127 -2.068408 -1.278724 1.880790849211783e-38 1684957512
3.909555 -2.255065 -1.278724 1.880790849211783e-38 1684957512
4.049399 -1.473990 -1.278724 1.880790849211783e-38 1684957512
3.980294 -1.648773 -1.278724 1.880790849211783e-38 1684957512
3.845588 -2.001674 -1.278724 1.880790849211783e-38 1684957512
3.779442 -2.181411 -1.278724 1.880790849211783e-38 1684957512
3.963594 -1.441563 -1.290503 1.880790849211783e-38 1684957512
3.858509 -1.597715 -1.278724 1.880790849211783e-38 1684957512
3.723595 -1.938827 -1.278724 1.880790849211783e-38 1684957512
3.657053 -2.112130 -1.278724 1.880790849211783e-38 1684957512
3.966890 -1.441563 -1.330677 1.880790849211783e-38 1684957512
3.743379 -1.549450 -1.278724 1.880790849211783e-38 1684957512
3.608487 -1.879531 -1.278724 1.880790849211783e-38 1684957512
3.541700 -2.046830 -1.278724 1.880790849211783e-38 1684957512
3.970205 -1.441563 -1.371125 1.880790849211783e-38 1684957512
3.634361 -1.503746 -1.278724 1.880790849211783e-38 1684957512
3.499682 -1.823477 -1.278724 1.880790849211783e-38 1684957512
3.432775 -1.985173 -1.278724 1.880790849211783e-38 1684957512
3.973540 -1.441563 -1.411855 1.880790849211783e-38 1684957512
3.530962 -1.460400 -1.278724 1.880790849211783e-38 1684957512
3.396659 -1.770405 -1.278724 1.880790849211783e-38 1684957512
3.329742 -1.926850 -1.278724 1.880790849211783e-38 1684957512
3.976902 -1.441564 -1.452879 1.880790849211783e-38 1684957512
3.486783 -1.441563 -1.298853 1.880790849211783e-38 1684957512
3.298953 -1.720070 -1.278724 1.880790849211783e-38 1684957512
3.232116 -1.871588 -1.278724 1.880790849211783e-38 1684957512
3.980283 -1.441563 -1.494202 1.880790849211783e-38 1684957512
3.488146 -1.441563 -1.335713 1.880790849211783e-38 1684957512
3.206152 -1.672264 -1.278724 1.880790849211783e-38 1684957512
3.139474 -1.819146 -1.278724 1.880790849211783e-38 1684957512
3.983688 -1.441563 -1.535834 1.880790849211783e-38 1684957512
3.489520 -1.441563 -1.372824 1.880790849211783e-38 1684957512
3.117882 -1.626791 -1.278724 1.880790849211783e-38 1684957512
3.051425 -1.769307 -1.278724 1.880790849211783e-38 1684957512
3.987121 -1.441564 -1.577788 1.880790849211783e-38 1684957512
3.490906 -1.441563 -1.410194 1.880790849211783e-38 1684957512
3.033804 -1.583478 -1.278724 1.880790849211783e-38 1684957512
2.980770 -1.729499 -1.284388 1.880790849211783e-38 1684957512
3.990577 -1.441564 -1.620070 1.880790849211783e-38 1684957512
3.492302 -1.441564 -1.447830 1.880790849211783e-38 1684957512
2.980770 -1.556347 -1.290479 1.880790849211783e-38 1684957512
2.980771 -1.730670 -1.319908 1.880790849211783e-38 1684957512
3.994058 -1.441563 -1.662692 1.880790849211783e-38 1684957512
3.493701 -1.441563 -1.485740 1.880790849211783e-38 1684957512
2.980770 -1.556901 -1.324827 1.880790849211783e-38 1684957512
2.980770 -1.731848 -1.355687 1.880790849211783e-38 1684957512
3.997569 -1.441563 -1.705665 1.880790849211783e-38 1684957512
3.495117 -1.441563 -1.523934 1.880790849211783e-38 1684957512
2.980770 -1.557458 -1.359420 1.880790849211783e-38 1684957512
2.980770 -1.733036 -1.391730 1.880790849211783e-38 1684957512
4.001107 -1.441563 -1.748998 1.880790849211783e-38 1684957512
3.496540 -1.441563 -1.562420 1.880790849211783e-38 1684957512
2.980770 -1.558021 -1.394266 1.880790849211783e-38 1684957512
2.980770 -1.734232 -1.428047 1.880790849211783e-38 1684957512
4.004673 -1.441563 -1.792703 1.880790849211783e-38 1684957512
3.497977 -1.441563 -1.601209 1.880790849211783e-38 1684957512
2.980770 -1.558585 -1.429373 1.880790849211783e-38 1684957512
2.980770 -1.735440 -1.464648 1.880790849211783e-38 1684957512
4.008264 -1.441563 -1.836788 1.880790849211783e-38 1684957512
3.499421 -1.441564 -1.640308 1.880790849211783e-38 1684957512
2.980770 -1.559157 -1.464751 1.880790849211783e-38 1684957512
2.980770 -1.736656 -1.501540 1.880790849211783e-38 1684957512
4.011899 -1.441564 -1.881275 1.880790849211783e-38 1684957512
3.500879 -1.441563 -1.679729 1.880790849211783e-38 1684957512
2.980770 -1.559732 -1.500409 1.880790849211783e-38 1684957512
2.980769 -1.737883 -1.538735 1.880790849211783e-38 1684957512
4.015555 -1.441563 -1.926162 1.880790849211783e-38 1684957512
3.502351 -1.441563 -1.719481 1.880790849211783e-38 1684957512
2.980770 -1.560313 -1.536354 1.880790849211783e-38 1684957512
2.980770 -1.739121 -1.576242 1.880790849211783e-38 1684957512
4.019248 -1.441564 -1.971470 1.880790849211783e-38 1684957512
3.503831 -1.441563 -1.759572 1.880790849211783e-38 1684957512
2.980770 -1.560898 -1.572596 1.880790849211783e-38 1684957512
2.980770 -1.740371 -1.614069 1.880790849211783e-38 1684957512
4.022966 -1.441564 -2.017205 1.880790849211783e-38 1684957512
3.505327 -1.441563 -1.800016 1.880790849211783e-38 1684957512
2.980769 -1.561487 -1.609144 1.880790849211783e-38 1684957512
2.980770 -1.741633 -1.652229 1.880790849211783e-38 1684957512
4.026729 -1.441563 -2.063390 1.880790849211783e-38 1684957512
3.506837 -1.441563 -1.840823 1.880790849211783e-38 1684957512
2.980770 -1.562083 -1.646010 1.880790849211783e-38 1684957512
2.980770 -1.742904 -1.690731 1.880790849211783e-38 1684957512
4.030518 -1.441563 -2.110027 1.880790849211783e-38 1684957512
3.508359 -1.441563 -1.882002 1.880790849211783e-38 1684957512
2.980771 -1.562685 -1.683201 1.880790849211783e-38 1684957512
2.980770 -1.744190 -1.729586 1.880790849211783e-38 1684957512
4.034356 -1.441563 -2.157140 1.880790849211783e-38 1684957512
3.509896 -1.441563 -1.923566 1.880790849211783e-38 1684957512
2.980770 -1.563290 -1.720728 1.880790849211783e-38 1684957512
2.980770 -1.745487 -1.768805 1.880790849211783e-38 1684957512
4.038222 -1.441563 -2.204734 1.880790849211783e-38 1684957512
3.511443 -1.441563 -1.965524 1.880790849211783e-38 1684957512
2.980770 -1.563904 -1.758602 1.880790849211783e-38 1684957512
2.980770 -1.746799 -1.808399 1.880790849211783e-38 1684957512
4.016309 -1.432354 -2.238438 0.000000000000000e+00 1851878480
3.513007 -1.441563 -2.007891 1.880790849211783e-38 1684957512
2.980770 -1.564521 -1.796834 1.880790849211783e-38 1684957512
2.980770 -1.748123 -1.848382 1.880790849211783e-38 1684957512
4.006147 -1.427337 -2.278726 0.000000000000000e+00 1634890835
3.514589 -1.441563 -2.050680 1.880790849211783e-38 1684957512
2.980770 -1.565146 -1.835434 1.880790849211783e-38 1684957512
2.980770 -1.749460 -1.888763 1.880790849211783e-38 1684957512
3.926262 -1.397496 -2.278726 0.000000000000000e+00 1634890835
3.516183 -1.441563 -2.093903 1.880790849211783e-38 1684957512
2.980770 -1.565774 -1.874415 1.880790849211783e-38 1684957512
2.980770 -1.750812 -1.929558 1.880790849211783e-38 1684957512
3.848816 -1.368568 -2.278726 0.000000000000000e+00 1634890835
3.517795 -1.441563 -2.137571 1.880790849211783e-38 1684957512
2.980770 -1.566411 -1.913787 1.880790849211783e-38 1684957512
2.980771 -1.752178 -1.970778 1.880790849211783e-38 1684957512
3.773685 -1.340506 -2.278727 0.000000000000000e+00 1634890835
3.519419 -1.441563 -2.181697 1.880790849211783e-38 1684957512
2.980770 -1.567057 -1.953564 1.880790849211783e-38 1684957512
2.980770 -1.753559 -2.012435 1.880790849211783e-38 1684957512
3.700757 -1.313266 -2.278727 0.000000000000000e+00 1634890835
3.521062 -1.441563 -2.226299 1.880790849211783e-38 1684957512
2.980770 -1.567708 -1.993758 1.880790849211783e-38 1684957512
2.980770 -1.754959 -2.054546 1.880790849211783e-38 1684957512
3.629923 -1.286810 -2.278727 0.000000000000000e+00 1634890835
3.471619 -1.420647 -2.238438 0.000000000000000e+00 1851878480
2.980770 -1.568364 -2.034382 1.880790849211783e-38 1684957512
2.980770 -1.756370 -2.097123 1.880790849211783e-38 1684957512
3.561089 -1.261100 -2.278726 0.000000000000000e+00 1634890835
3.466210 -1.417759 -2.278726 0.000000000000000e+00 1634890835
2.980770 -1.569029 -2.075448 1.880790849211783e-38 1684957512
2.980770 -1.757800 -2.140181 1.880790849211783e-38 1684957512
3.494161 -1.236102 -2.278727 0.000000000000000e+00 1634890835
3.400211 -1.390092 -2.278727 0.000000000000000e+00 1634890835
2.980770 -1.569700 -2.116970 1.880790849211783e-38 1684957512
2.980770 -1.759246 -2.183734 1.880790849211783e-38 1684957512
3.429049 -1.211785 -2.278726 0.000000000000000e+00 1634890835
3.336016 -1.363182 -2.278726 0.000000000000000e+00 1634890835
2.980770 -1.570380 -2.158963 1.880790849211783e-38 1684957512
2.980770 -1.760710 -2.227800 1.880790849211783e-38 1684957512
3.365674 -1.188116 -2.278727 0.000000000000000e+00 1634890835
3.273542 -1.336996 -2.278727 0.000000000000000e+00 1634890835
2.980770 -1.571069 -2.201443 1.880790849211783e-38 1684957512
2.936229 -1.735860 -2.238438 0.000000000000000e+00 1851878480
3.303955 -1.165064 -2.278726 0.000000000000000e+00 1634890835
3.212712 -1.311496 -2.278726 0.000000000000000e+00 1634890835
2.972819 -1.567572 -2.238438 0.000000000000000e+00 1851878480
2.879038 -1.703499 -2.238438 0.000000000000000e+00 1851878480
3.243822 -1.142608 -2.278727 0.000000000000000e+00 1634890835
3.153456 -1.286658 -2.278727 0.000000000000000e+00 1634890835
2.916301 -1.538460 -2.238438 0.000000000000000e+00 1851878480
2.823362 -1.671995 -2.238438 0.000000000000000e+00 1851878480
3.185204 -1.120717 -2.278726 0.000000000000000e+00 1634890835
3.095702 -1.262449 -2.278727 0.000000000000000e+00 1634890835
2.861239 -1.510097 -2.238438 0.000000000000000e+00 1851878480
2.769130 -1.641311 -2.238438 0.000000000000000e+00 1851878480
3.128041 -1.099368 -2.278727 0.000000000000000e+00 1634890835
3.039387 -1.238845 -2.278727 0.000000000000000e+00 1634890835
2.807567 -1.482452 -2.238438 0.000000000000000e+00 1851878480
2.716283 -1.611408 -2.238438 0.000000000000000e+00 1851878480
3.072265 -1.078540 -2.278727 0.000000000000000e+00 1634890835
2.984451 -1.215816 -2.278727 0.000000000000000e+00 1634890835
2.755227 -1.455490 -2.238438 0.000000000000000e+00 1851878480
0.840391 -0.499000 -0.705943 0.000000000000000e+00 1886740808
3.017821 -1.058209 -2.278726 0.000000000000000e+00 1634890835
2.930831 -1.193340 -2.278726 0.000000000000000e+00 1634890835
2.704159 -1.429187 -2.238438 0.000000000000000e+00 1851878480
0.824539 -0.490030 -0.705943 0.000000000000000e+00 1886740808
2.964655 -1.038356 -2.278727 0.000000000000000e+00 1634890835
2.878477 -1.171397 -2.278726 0.000000000000000e+00 1634890835
0.837099 -0.442630 -0.705943 0.000000000000000e+00 1886740808
0.809069 -0.481278 -0.705943 0.000000000000000e+00 1886740808
2.912716 -1.018961 -2.278727 0.000000000000000e+00 1634890835
2.827339 -1.149959 -2.278727 0.000000000000000e+00 1634890835
0.821748 -0.434722 -0.705943 0.000000000000000e+00 1886740808
0.793966 -0.472733 -0.705943 0.000000000000000e+00 1886740808
2.861952 -1.000005 -2.278727 0.000000000000000e+00 1634890835
2.777363 -1.129012 -2.278726 0.000000000000000e+00 1634890835
0.806751 -0.426998 -0.705943 0.000000000000000e+00 1886740808
0.779213 -0.464386 -0.705943 0.000000000000000e+00 1886740808
2.812317 -0.981473 -2.278727 0.000000000000000e+00 1634890835
2.728504 -1.108533 -2.278727 0.000000000000000e+00 1634890835
0.792093 -0.419448 -0.705943 0.000000000000000e+00 1886740808
0.764796 -0.456230 -0.705943 0.000000000000000e+00 1886740808
2.763766 -0.963343 -2.278727 0.000000000000000e+00 1634890835
0.830478 -0.337215 -0.705943 0.000000000000000e+00 1886740808
0.777761 -0.412066 -0.705943 0.000000000000000e+00 1886740808
0.750702 -0.448256 -0.705943 0.000000000000000e+00 1886740808
0.841489 -0.292945 -0.705943 0.000000000000000e+00 1886740808
0.815994 -0.331144 -0.705943 0.000000000000000e+00 1886740808
0.763743 -0.404845 -0.705943 0.000000000000000e+00 1886740808
0.744293 -0.444866 -0.713007 0.000000000000000e+00 1886740808
0.827082 -0.287567 -0.705943 0.000000000000000e+00 1886740808
0.801817 -0.325202 -0.705943 0.000000000000000e+00 1886740808
0.750025 -0.397779 -0.705943 0.000000000000000e+00 1886740808
0.744293 -0.445310 -0.726299 0.000000000000000e+00 1886740808
0.812974 -0.282300 -0.705943 0.000000000000000e+00 1886740808
0.787936 -0.319383 -0.705943 0.000000000000000e+00 1886740808
0.744292 -0.394946 -0.713319 0.000000000000000e+00 1886740808
0.744293 -0.445760 -0.739797 0.000000000000000e+00 1886740808
0.799154 -0.277139 -0.705943 0.000000000000000e+00 1886740808
0.774338 -0.313684 -0.705943 0.000000000000000e+00 1886740808
0.744293 -0.395157 -0.726286 0.000000000000000e+00 1886740808
0.744293 -0.446218 -0.753511 0.000000000000000e+00 1886740808
0.785611 -0.272084 -0.705943 0.000000000000000e+00 1886740808
0.761015 -0.308099 -0.705943 0.000000000000000e+00 1886740808
0.744293 -0.395371 -0.739454 0.000000000000000e+00 1886740808
0.744293 -0.446684 -0.767445 0.000000000000000e+00 1886740808
0.772335 -0.267127 -0.705943 0.000000000000000e+00 1886740808
0.747955 -0.302626 -0.705943 0.000000000000000e+00 1886740808
0.744292 -0.395588 -0.752831 0.000000000000000e+00 1886740808
0.744293 -0.447157 -0.781607 0.000000000000000e+00 1886740808
0.759316 -0.262267 -0.705943 0.000000000000000e+00 1886740808
0.744293 -0.300955 -0.714723 0.000000000000000e+00 1886740808
0.744292 -0.395809 -0.766423 0.000000000000000e+00 1886740808
0.744292 -0.447638 -0.796007 0.000000000000000e+00 1886740808
0.746545 -0.257499 -0.705943 0.000000000000000e+00 1886740808
0.744293 -0.300764 -0.727147 0.000000000000000e+00 1886740808
0.744293 -0.396033 -0.780239 0.000000000000000e+00 1886740808
2.092193 -1.259678 -2.278727 0.000000000000000e+00 1634890835
0.744293 -0.256361 -0.715829 0.000000000000000e+00 1886740808
0.744293 -0.300570 -0.739765 0.000000000000000e+00 1886740808
0.744293 -0.396262 -0.794285 0.000000000000000e+00 1886740808
2.054434 -1.238319 -2.278727 0.000000000000000e+00 1634890835
0.744293 -0.255995 -0.728030 0.000000000000000e+00 1886740808
0.744293 -0.300372 -0.752583 0.000000000000000e+00 1886740808
2.097579 -1.117404 -2.278727 0.000000000000000e+00 1634890835
2.017382 -1.217360 -2.278727 0.000000000000000e+00 1634890835
0.744293 -0.255623 -0.740422 0.000000000000000e+00 1886740808
0.744293 -0.300171 -0.765608 0.000000000000000e+00 1886740808
2.060544 -1.098330 -2.278727 0.000000000000000e+00 1634890835
0.796275 -0.481053 -0.915942 0.000000000000000e+00 1886740808
0.744293 -0.255245 -0.753011 0.000000000000000e+00 1886740808
0.744293 -0.299968 -0.778848 0.000000000000000e+00 1886740808
2.024177 -1.079599 -2.278727 0.000000000000000e+00 1634890835
0.784636 -0.474577 -0.919123 0.000000000000000e+00 1886740808
0.744293 -0.254862 -0.765803 0.000000000000000e+00 1886740808
0.744293 -0.299761 -0.792308 0.000000000000000e+00 1886740808
1.988453 -1.061199 -2.278727 0.000000000000000e+00 1634890835
0.775673 -0.469713 -0.925309 0.000000000000000e+00 1886740808
0.744293 -0.254472 -0.778808 0.000000000000000e+00 1886740808
2.104272 -0.846891 -2.278727 0.000000000000000e+00 1634890835
0.797388 -0.425818 -0.930214 0.000000000000000e+00 1886740808
0.768823 -0.466130 -0.933989 0.000000000000000e+00 1886740808
0.744293 -0.254076 -0.792029 0.000000000000000e+00 1886740808
2.068530 -0.831912 -2.278727 0.000000000000000e+00 1634890835
0.785519 -0.419747 -0.932844 0.000000000000000e+00 1886740808
0.764549 -0.464111 -0.945878 0.000000000000000e+00 1886740808
0.744293 -0.253673 -0.805476 0.000000000000000e+00 1886740808
2.033384 -0.817181 -2.278727 0.000000000000000e+00 1634890835
0.776431 -0.415161 -0.938648 0.000000000000000e+00 1886740808
1.808582 -1.099259 -2.278727 0.000000000000000e+00 1634890835
2.070472 -0.704526 -2.278727 0.000000000000000e+00 1634890835
1.998814 -0.802692 -2.278727 0.000000000000000e+00 1634890835
0.769417 -0.411684 -0.946931 0.000000000000000e+00 1886740808
1.775830 -1.080735 -2.278727 0.000000000000000e+00 1634890835
2.035872 -0.691612 -2.278727 0.000000000000000e+00 1634890835
1.964800 -0.788435 -2.278727 0.000000000000000e+00 1634890835
0.764805 -0.409492 -0.958243 0.000000000000000e+00 1886740808
0.749057 -0.456456 -0.978943 0.000000000000000e+00 1886740808
2.001818 -0.678901 -2.278727 0.000000000000000e+00 1634890835
1.931324 -0.774405 -2.278727 0.000000000000000e+00 1634890835
0.767167 -0.411039 -0.978584 0.000000000000000e+00 1886740808
1.711907 -1.044581 -2.278727 0.000000000000000e+00 1634890835
1.968293 -0.666389 -2.278727 0.000000000000000e+00 1634890835
0.797682 -0.319597 -0.957506 0.000000000000000e+00 1886740808
1.754623 -0.940768 -2.278727 0.000000000000000e+00 1634890835
1.680701 -1.026932 -2.278727 0.000000000000000e+00 1634890835
1.935280 -0.654068 -2.278727 0.000000000000000e+00 1634890835
0.785811 -0.314588 -0.959661 0.000000000000000e+00 1886740808
0.751063 -0.402982 -0.993126 0.000000000000000e+00 1886740808
1.649975 -1.009555 -2.278727 0.000000000000000e+00 1634890835
1.902762 -0.641932 -2.278726 0.000000000000000e+00 1634890835
0.776731 -0.310699 -0.965105 0.000000000000000e+00 1886740808
1.692478 -0.908759 -2.278727 0.000000000000000e+00 1634890835
1.619716 -0.992442 -2.278727 0.000000000000000e+00 1634890835
0.796758 -0.268312 -0.970530 0.000000000000000e+00 1886740808
0.769655 -0.307611 -0.973021 0.000000000000000e+00 1886740808
1.662097 -0.893113 -2.278727 0.000000000000000e+00 1634890835
1.589907 -0.975584 -2.278727 0.000000000000000e+00 1634890835
0.785168 -0.263918 -0.972831 0.000000000000000e+00 1886740808
0.764878 -0.305442 -0.983923 0.000000000000000e+00 1886740808
1.632161 -0.877695 -2.278727 0.000000000000000e+00 1634890835
1.560533 -0.958973 -2.278727 0.000000000000000e+00 1634890835
0.776222 -0.260415 -0.978302 0.000000000000000e+00 1886740808
0.765616 -0.305471 -1.002180 0.000000000000000e+00 1886740808
1.602653 -0.862498 -2.278727 0.000000000000000e+00 1634890835
1.531581 -0.942600 -2.278727 0.000000000000000e+00 1634890835
0.769282 -0.257587 -0.986297 0.000000000000000e+00 1886740808
1.710672 -0.681929 -2.278726 0.000000000000000e+00 1634890835
1.573560 -0.847513 -2.278727 0.000000000000000e+00 1634890835
1.503037 -0.926458 -2.278727 0.000000000000000e+00 1634890835
0.764661 -0.255532 -0.997355 0.000000000000000e+00 1886740808
1.680925 -0.669462 -2.278726 0.000000000000000e+00 1634890835
1.544869 -0.832737 -2.278727 0.000000000000000e+00 1634890835
1.474889 -0.910540 -2.278727 0.000000000000000e+00 1634890835
0.766223 -0.255534 -1.016768 0.000000000000000e+00 1886740808
0.744044 -0.296055 -1.026576 0.000000000000000e+00 1886740808
1.516567 -0.818161 -2.278727 0.000000000000000e+00 1634890835
1.447124 -0.894839 -2.278727 0.000000000000000e+00 1634890835
1.687758 -0.561696 -2.278727 0.000000000000000e+00 1634890835
1.622624 -0.645028 -2.278727 0.000000000000000e+00 1634890835
1.488642 -0.803779 -2.278727 0.000000000000000e+00 1634890835
1.419728 -0.879347 -2.278727 0.000000000000000e+00 1634890835
0.752071 -0.249762 -1.033208 0.000000000000000e+00 1886740808
1.594047 -0.633052 -2.278727 0.000000000000000e+00 1634890835
1.461082 -0.789587 -2.278727 0.000000000000000e+00 1634890835
1.392692 -0.864060 -2.278727 0.000000000000000e+00 1634890835
1.629982 -0.540137 -2.278727 0.000000000000000e+00 1634890835
1.565837 -0.621229 -2.278727 0.000000000000000e+00 1634890835
1.433877 -0.775575 -2.278727 0.000000000000000e+00 1634890835
1.366004 -0.848968 -2.278727 0.000000000000000e+00 1634890835
1.601642 -0.529563 -2.278727 0.000000000000000e+00 1634890835
1.537982 -0.609555 -2.278727 0.000000000000000e+00 1634890835
1.407014 -0.761740 -2.278727 0.000000000000000e+00 1634890835
1.339653 -0.834067 -2.278727 0.000000000000000e+00 1634890835
1.573652 -0.519120 -2.278727 0.000000000000000e+00 1634890835
1.510471 -0.598026 -2.278727 0.000000000000000e+00 1634890835
1.380485 -0.748077 -2.278727 0.000000000000000e+00 1634890835
1.313628 -0.819351 -2.278727 0.000000000000000e+00 1634890835
1.546004 -0.508803 -2.278727 0.000000000000000e+00 1634890835
1.483295 -0.586636 -2.278727 0.000000000000000e+00 1634890835
1.354277 -0.734580 -2.278727 0.000000000000000e+00 1634890835
1.287921 -0.804815 -2.278727 0.000000000000000e+00 1634890835
1.518686 -0.498610 -2.278727 0.000000000000000e+00 1634890835
1.456443 -0.575382 -2.278727 0.000000000000000e+00 1634890835
1.328382 -0.721244 -2.278727 0.000000000000000e+00 1634890835
1.262519 -0.790452 -2.278727 0.000000000000000e+00 1634890835
1.491688 -0.488535 -2.278726 0.000000000000000e+00 1634890835
1.429906 -0.564261 -2.278727 0.000000000000000e+00 1634890835
1.302791 -0.708064 -2.278727 0.000000000000000e+00 1634890835
1.237416 -0.776258 -2.278727 0.000000000000000e+00 1634890835
1.465000 -0.478579 -2.278727 0.000000000000000e+00 1634890835
1.403673 -0.553268 -2.278727 0.000000000000000e+00 1634890835
1.277493 -0.695036 -2.278727 0.000000000000000e+00 1634890835
1.212600 -0.762228 -2.278727 0.000000000000000e+00 1634890835
1.438615 -0.468734 -2.278727 0.000000000000000e+00 1634890835
1.377737 -0.542399 -2.278727 0.000000000000000e+00 1634890835
1.252480 -0.682154 -2.278727 0.000000000000000e+00 1634890835
1.188066 -0.748353 -2.278727 0.000000000000000e+00 1634890835
1.412522 -0.458998 -2.278727 0.000000000000000e+00 1634890835
1.352087 -0.531649 -2.278727 0.000000000000000e+00 1634890835
1.227743 -0.669413 -2.278727 0.000000000000000e+00 1634890835
1.163801 -0.734634 -2.278727 0.000000000000000e+00 1634890835
1.386713 -0.449370 -2.278727 0.000000000000000e+00 1634890835
1.326717 -0.521017 -2.278727 0.000000000000000e+00 1634890835
1.203275 -0.656813 -2.278727 0.000000000000000e+00 1634890835
1.139799 -0.721064 -2.278727 0.000000000000000e+00 1634890835
1.361180 -0.439844 -2.278727 0.000000000000000e+00 1634890835
1.301617 -0.510498 -2.278727 0.000000000000000e+00 1634890835
1.179066 -0.644345 -2.278727 0.000000000000000e+00 1634890835
1.116052 -0.707638 -2.278727 0.000000000000000e+00 1634890835
1.335915 -0.430417 -2.278727 0.000000000000000e+00 1634890835
1.276779 -0.500089 -2.278727 0.000000000000000e+00 1634890835
1.155110 -0.632009 -2.278727 0.000000000000000e+00 1634890835
1.092553 -0.694350 -2.278727 0.000000000000000e+00 1634890835
1.310909 -0.421088 -2.278727 0.000000000000000e+00 1634890835
1.252195 -0.489786 -2.278727 0.000000000000000e+00 1634890835
1.131398 -0.619797 -2.278727 0.000000000000000e+00 1634890835
1.069293 -0.681200 -2.278727 0.000000000000000e+00 1634890835
1.286156 -0.411854 -2.278727 0.000000000000000e+00 1634890835
1.227860 -0.479588 -2.278727 0.000000000000000e+00 1634890835
1.107924 -0.607707 -2.278727 0.000000000000000e+00 1634890835
1.046266 -0.668181 -2.278727 0.000000000000000e+00 1634890835
1.261648 -0.402710 -2.278727 0.000000000000000e+00 1634890835
1.203764 -0.469490 -2.278727 0.000000000000000e+00 1634890835
1.084680 -0.595737 -2.278727 0.000000000000000e+00 1634890835
1.023464 -0.655289 -2.278727 0.000000000000000e+00 1634890835
1.237376 -0.393657 -2.278727 0.000000000000000e+00 1634890835
1.179900 -0.459490 -2.278727 0.000000000000000e+00 1634890835
1.061658 -0.583882 -2.278727 0.000000000000000e+00 1634890835
1.000880 -0.642522 -2.278727 0.000000000000000e+00 1634890835
1.213336 -0.384688 -2.278727 0.000000000000000e+00 1634890835
1.156262 -0.449584 -2.278727 0.000000000000000e+00 1634890835
1.038854 -0.572138 -2.278727 0.000000000000000e+00 1634890835
0.978510 -0.629874 -2.278727 0.000000000000000e+00 1634890835
1.189520 -0.375802 -2.278727 0.000000000000000e+00 1634890835
1.132844 -0.439770 -2.278727 0.000000000000000e+00 1634890835
1.016261 -0.560501 -2.278727 0.000000000000000e+00 1634890835
0.956343 -0.617343 -2.278727 0.000000000000000e+00 1634890835
1.165920 -0.366999 -2.278727 0.000000000000000e+00 1634890835
1.109637 -0.430046 -2.278727 0.000000000000000e+00 1634890835
0.993869 -0.548971 -2.278727 0.000000000000000e+00 1634890835
0.934377 -0.604923 -2.278727 0.000000000000000e+00 1634890835
1.142533 -0.358274 -2.278727 0.000000000000000e+00 1634890835
1.086638 -0.420407 -2.278727 0.000000000000000e+00 1634890835
0.971676 -0.537541 -2.278727 0.000000000000000e+00 1634890835
0.912604 -0.592614 -2.278727 0.000000000000000e+00 1634890835
1.119349 -0.349626 -2.278727 0.000000000000000e+00 1634890835
1.063839 -0.410853 -2.278727 0.000000000000000e+00 1634890835
0.949675 -0.526211 -2.278727 0.000000000000000e+00 1634890835
0.891018 -0.580411 -2.278727 0.000000000000000e+00 1634890835
1.096363 -0.341051 -2.278727 0.000000000000000e+00 1634890835
1.041233 -0.401379 -2.278727 0.000000000000000e+00 1634890835
0.927858 -0.514976 -2.278727 0.000000000000000e+00 1634890835
0.869613 -0.568309 -2.278727 0.000000000000000e+00 1634890835
1.073571 -0.332549 -2.278727 0.000000000000000e+00 1634890835
1.018817 -0.391985 -2.278727 0.000000000000000e+00 1634890835
0.906222 -0.503834 -2.278727 0.000000000000000e+00 1634890835
0.848384 -0.556308 -2.278727 0.000000000000000e+00 1634890835
1.050966 -0.324117 -2.278727 0.000000000000000e+00 1634890835
0.996582 -0.382668 -2.278726 0.000000000000000e+00 1634890835
0.884761 -0.492782 -2.278727 0.000000000000000e+00 1634890835
0.827326 -0.544404 -2.278727 0.000000000000000e+00 1634890835
1.028542 -0.315752 -2.278727 0.000000000000000e+00 1634890835
0.974527 -0.373425 -2.278727 0.000000000000000e+00 1634890835
0.863469 -0.481816 -2.278727 0.000000000000000e+00 1634890835
0.451010 -0.297860 -1.274411 0.000000000000000e+00 1936876886
1.006294 -0.307453 -2.278727 0.000000000000000e+00 1634890835
0.952641 -0.364254 -2.278727 0.000000000000000e+00 1634890835
0.842340 -0.470936 -2.278727 0.000000000000000e+00 1634890835
0.433312 -0.287260 -1.256713 0.000000000000000e+00 1936876886
0.984217 -0.299218 -2.278727 0.000000000000000e+00 1634890835
0.930923 -0.355153 -2.278727 0.000000000000000e+00 1634890835
0.821371 -0.460137 -2.278727 0.000000000000000e+00 1634890835
0.421219 -0.280349 -1.254495 0.000000000000000e+00 1936876886
0.962305 -0.291044 -2.278727 0.000000000000000e+00 1634890835
0.909366 -0.346119 -2.278727 0.000000000000000e+00 1634890835
0.445941 -0.250343 -1.269342 0.000000000000000e+00 1936876886
0.335126 -0.223970 -1.025468 0.000000000000000e+00 1953264973
0.940553 -0.282931 -2.278727 0.000000000000000e+00 1634890835
0.887966 -0.337151 -2.278727 0.000000000000000e+00 1634890835
0.428905 -0.241307 -1.253204 0.000000000000000e+00 1936876886
0.306471 -0.205703 -0.964041 0.000000000000000e+00 1953264973
0.495092 -0.148090 -1.227674 0.000000000000000e+00 1936876886
0.866717 -0.328247 -2.278727 0.000000000000000e+00 1634890835
0.358553 -0.202188 -1.075957 0.000000000000000e+00 1953264973
0.281222 -0.189607 -0.909916 0.000000000000000e+00 1953264973
0.483539 -0.143780 -1.227674 0.000000000000000e+00 1936876886
0.845615 -0.319403 -2.278727 0.000000000000000e+00 1634890835
0.326693 -0.184663 -1.007391 0.000000000000000e+00 1953264973
0.258801 -0.175315 -0.861853 0.000000000000000e+00 1953264973
0.472063 -0.139500 -1.227674 0.000000000000000e+00 1936876886
0.824655 -0.310620 -2.278727 0.000000000000000e+00 1634890835
0.299053 -0.169463 -0.948140 0.000000000000000e+00 1953264973
0.238755 -0.162536 -0.818882 0.000000000000000e+00 1953264973
