# .PCD v0.7 - Point Cloud Data file format
VERSION 0.7
FIELDS x y z rgb label
SIZE 4 4 4 4 4
TYPE F F F F U
COUNT 1 1 1 1 1
WIDTH 534
HEIGHT 1
VIEWPOINT 0 0 0 1 0 0 0
POINTS 534
DATA ascii
36.689701 -20.449665 10.013546 0.000000000000000e+00 1954047316
35.290951 -13.120625 -2.242182 0.000000000000000e+00 1851878480
29.313816 -10.890156 -2.128735 0.000000000000000e+00 1851878480
28.672623 -11.989437 -2.016372 0.000000000000000e+00 1851878480
27.167269 -14.023891 -1.740241 0.000000000000000e+00 1851878480
25.959740 -14.747725 -1.557260 0.000000000000000e+00 1851878480
26.646961 -9.891891 -2.177367 0.000000000000000e+00 1851878480
26.114201 -10.915794 -2.081167 0.000000000000000e+00 1851878480
24.963387 -12.890226 -1.848525 0.000000000000000e+00 1851878480
24.284325 -13.804053 -1.707890 0.000000000000000e+00 1851878480
24.074055 -8.929983 -2.186265 0.000000000000000e+00 1851878480
24.272732 -10.142491 -2.162130 0.000000000000000e+00 1851878480
23.268934 -12.018988 -1.955889 0.000000000000000e+00 1851878480
22.997362 -13.080239 -1.855553 0.000000000000000e+00 1851878480
22.168388 -8.216837 -2.215230 0.000000000000000e+00 1851878480
22.282255 -9.307495 -2.194132 0.000000000000000e+00 1851878480
21.990036 -11.361940 -2.068753 0.000000000000000e+00 1851878480
21.794352 -12.403336 -1.984561 0.000000000000000e+00 1851878480
20.449083 -7.573792 -2.230027 0.000000000000000e+00 1851878480
20.550243 -8.580989 -2.216892 0.000000000000000e+00 1851878480
20.747749 -10.723392 -2.160135 0.000000000000000e+00 1851878480
20.460394 -11.651080 -2.075700 0.000000000000000e+00 1851878480
18.960148 -7.016963 -2.240932 0.000000000000000e+00 1851878480
19.032623 -7.944488 -2.232495 0.000000000000000e+00 1851878480
19.507900 -10.085727 -2.227210 0.000000000000000e+00 1851878480
19.176912 -10.926688 -2.145149 0.000000000000000e+00 1851878480
17.623137 -6.517151 -2.244228 0.000000000000000e+00 1851878480
17.625841 -7.354675 -2.233835 0.000000000000000e+00 1851878480
17.956833 -9.286709 -2.231044 0.000000000000000e+00 1851878480
17.964355 -10.241888 -2.196935 0.000000000000000e+00 1851878480
16.449778 -6.078569 -2.245657 0.000000000000000e+00 1851878480
16.473425 -6.871382 -2.243553 0.000000000000000e+00 1851878480
16.644241 -8.610572 -2.236013 0.000000000000000e+00 1851878480
16.728519 -9.542998 -2.220727 0.000000000000000e+00 1851878480
15.367139 -5.674148 -2.239052 0.000000000000000e+00 1851878480
15.435126 -6.435997 -2.248391 0.000000000000000e+00 1851878480
15.458915 -7.999870 -2.233209 0.000000000000000e+00 1851878480
15.488747 -8.841037 -2.218496 0.000000000000000e+00 1851878480
14.461221 -5.335526 -2.240200 0.000000000000000e+00 1851878480
14.478506 -6.034966 -2.246525 0.000000000000000e+00 1851878480
14.511218 -7.511804 -2.243504 0.000000000000000e+00 1851878480
14.475410 -8.267571 -2.225471 0.000000000000000e+00 1851878480
13.645810 -5.030791 -2.239801 0.000000000000000e+00 1851878480
13.642653 -5.684542 -2.246680 0.000000000000000e+00 1851878480
13.627037 -7.056328 -2.245396 0.000000000000000e+00 1851878480
13.588467 -7.765660 -2.232300 0.000000000000000e+00 1851878480
12.920846 -4.759829 -2.240318 0.000000000000000e+00 1851878480
12.841328 -5.348733 -2.237243 0.000000000000000e+00 1851878480
12.811550 -6.636148 -2.241679 0.000000000000000e+00 1851878480
12.762983 -7.298298 -2.231572 0.000000000000000e+00 1851878480
12.294209 -4.525464 -2.245672 0.000000000000000e+00 1851878480
12.156821 -5.061810 -2.234290 0.000000000000000e+00 1851878480
12.128040 -6.284095 -2.246130 0.000000000000000e+00 1851878480
12.102555 -6.924831 -2.244394 0.000000000000000e+00 1851878480
11.660787 -4.288958 -2.238389 0.000000000000000e+00 1851878480
11.550492 -4.807619 -2.233662 0.000000000000000e+00 1851878480
11.490785 -5.955792 -2.245996 0.000000000000000e+00 1851878480
11.428315 -6.543000 -2.240895 0.000000000000000e+00 1851878480
11.111950 -4.083891 -2.236643 0.000000000000000e+00 1851878480
11.029516 -4.589115 -2.239038 0.000000000000000e+00 1851878480
10.888474 -5.645402 -2.240336 0.000000000000000e+00 1851878480
10.833904 -6.206456 -2.239948 0.000000000000000e+00 1851878480
10.689836 -3.925673 -2.251647 0.000000000000000e+00 1851878480
10.564421 -4.394010 -2.246584 0.000000000000000e+00 1851878480
10.384283 -5.385710 -2.243838 0.000000000000000e+00 1851878480
10.308052 -5.908811 -2.241613 0.000000000000000e+00 1851878480
10.208962 -3.746130 -2.246132 0.000000000000000e+00 1851878480
10.094801 -4.197157 -2.244468 0.000000000000000e+00 1851878480
9.904287 -5.138419 -2.242772 0.000000000000000e+00 1851878480
9.824033 -5.634808 -2.241956 0.000000000000000e+00 1851878480
9.714610 -3.561913 -2.228799 0.000000000000000e+00 1851878480
9.692073 -4.028247 -2.249094 0.000000000000000e+00 1851878480
9.490330 -4.925237 -2.247756 0.000000000000000e+00 1851878480
9.405504 -5.398067 -2.247934 0.000000000000000e+00 1851878480
9.384272 -3.438065 -2.241637 0.000000000000000e+00 1851878480
9.298721 -3.863348 -2.248484 0.000000000000000e+00 1851878480
9.098675 -4.723505 -2.250010 0.000000000000000e+00 1851878480
5.133636 -2.948147 -1.282569 1.880790849211783e-38 1684957512
8.992281 -3.291828 -2.233230 0.000000000000000e+00 1851878480
5.104637 -2.120048 -1.284290 1.880790849211783e-38 1684957512
4.991010 -2.591883 -1.286557 1.880790849211783e-38 1684957512
4.962534 -2.851649 -1.293815 1.880790849211783e-38 1684957512
4.993175 -1.826406 -1.287557 1.880790849211783e-38 1684957512
4.917030 -2.041379 -1.285399 1.880790849211783e-38 1684957512
4.815225 -2.501410 -1.291945 1.880790849211783e-38 1684957512
4.748154 -2.730157 -1.289811 1.880790849211783e-38 1684957512
4.783892 -1.748451 -1.279280 1.880790849211783e-38 1684957512
4.740271 -1.967267 -1.285953 1.880790849211783e-38 1684957512
4.620734 -2.401163 -1.288628 1.880790849211783e-38 1684957512
4.540536 -2.612411 -1.283259 1.880790849211783e-38 1684957512
4.589456 -1.676034 -1.271295 1.880790849211783e-38 1684957512
4.557329 -1.890642 -1.281471 1.880790849211783e-38 1684957512
4.443151 -2.309638 -1.286306 1.880790849211783e-38 1684957512
4.382596 -2.523121 -1.286962 1.880790849211783e-38 1684957512
4.517027 -1.648245 -1.294729 1.880790849211783e-38 1684957512
4.383421 -1.817817 -1.276183 1.880790849211783e-38 1684957512
4.266119 -2.218347 -1.280589 1.880790849211783e-38 1684957512
4.215577 -2.428495 -1.284643 1.880790849211783e-38 1684957512
4.315745 -1.573517 -1.278776 1.880790849211783e-38 1684957512
4.292930 -1.779621 -1.292742 1.880790849211783e-38 1684957512
4.175613 -2.172005 -1.298206 1.880790849211783e-38 1684957512
4.077779 -2.350604 -1.288079 1.880790849211783e-38 1684957512
4.174721 -1.520855 -1.277548 1.880790849211783e-38 1684957512
4.178564 -1.731559 -1.300259 1.880790849211783e-38 1684957512
4.006662 -2.084816 -1.288868 1.880790849211783e-38 1684957512
3.880888 -2.238530 -1.269348 1.880790849211783e-38 1684957512
4.074865 -1.483259 -1.286765 1.880790849211783e-38 1684957512
4.040603 -1.673755 -1.298099 1.880790849211783e-38 1684957512
3.942613 -2.052176 -1.310986 1.880790849211783e-38 1684957512
3.794956 -2.190365 -1.283973 1.880790849211783e-38 1684957512
3.972133 -1.444669 -1.293283 1.880790849211783e-38 1684957512
3.873804 -1.604049 -1.283793 1.880790849211783e-38 1684957512
3.730323 -1.942330 -1.281034 1.880790849211783e-38 1684957512
3.673426 -2.121586 -1.284449 1.880790849211783e-38 1684957512
3.995562 -1.451983 -1.340295 1.880790849211783e-38 1684957512
3.735827 -1.546324 -1.276144 1.880790849211783e-38 1684957512
3.653066 -1.902750 -1.294522 1.880790849211783e-38 1684957512
3.580925 -2.069500 -1.292886 1.880790849211783e-38 1684957512
3.998299 -1.451764 -1.380828 1.880790849211783e-38 1684957512
3.682972 -1.523860 -1.295828 1.880790849211783e-38 1684957512
3.490466 -1.818676 -1.275357 1.880790849211783e-38 1684957512
3.453923 -1.997403 -1.286601 1.880790849211783e-38 1684957512
3.972620 -1.441230 -1.411528 1.880790849211783e-38 1684957512
3.550916 -1.468652 -1.285950 1.880790849211783e-38 1684957512
3.441904 -1.793987 -1.295757 1.880790849211783e-38 1684957512
3.353928 -1.940846 -1.288012 1.880790849211783e-38 1684957512
3.995364 -1.448256 -1.459624 1.880790849211783e-38 1684957512
3.503766 -1.448585 -1.305179 1.880790849211783e-38 1684957512
3.316408 -1.729171 -1.285490 1.880790849211783e-38 1684957512
3.263767 -1.889916 -1.291246 1.880790849211783e-38 1684957512
3.996465 -1.447424 -1.500276 1.880790849211783e-38 1684957512
3.531458 -1.459463 -1.352299 1.880790849211783e-38 1684957512
3.218220 -1.678558 -1.283537 1.880790849211783e-38 1684957512
3.178156 -1.841560 -1.294479 1.880790849211783e-38 1684957512
4.000747 -1.447737 -1.542411 1.880790849211783e-38 1684957512
3.554008 -1.468204 -1.398194 1.880790849211783e-38 1684957512
3.136093 -1.636292 -1.286193 1.880790849211783e-38 1684957512
3.125233 -1.812104 -1.309654 1.880790849211783e-38 1684957512
3.960268 -1.431855 -1.567161 1.880790849211783e-38 1684957512
3.487880 -1.440314 -1.408971 1.880790849211783e-38 1684957512
3.142520 -1.640222 -1.324547 1.880790849211783e-38 1684957512
3.191287 -1.851645 -1.375097 1.880790849211783e-38 1684957512
3.980898 -1.438067 -1.616140 1.880790849211783e-38 1684957512
3.526798 -1.455803 -1.462131 1.880790849211783e-38 1684957512
3.148587 -1.643969 -1.363133 1.880790849211783e-38 1684957512
3.159197 -1.834267 -1.398917 1.880790849211783e-38 1684957512
4.005136 -1.445562 -1.667304 1.880790849211783e-38 1684957512
3.529219 -1.456219 -1.500844 1.880790849211783e-38 1684957512
3.214241 -1.678846 -1.428595 1.880790849211783e-38 1684957512
3.132033 -1.819733 -1.424483 1.880790849211783e-38 1684957512
3.996559 -1.441199 -1.705234 1.880790849211783e-38 1684957512
3.487660 -1.438488 -1.520683 1.880790849211783e-38 1684957512
3.219040 -1.681955 -1.468086 1.880790849211783e-38 1684957512
3.175678 -1.846356 -1.482733 1.880790849211783e-38 1684957512
4.000806 -1.441455 -1.748867 1.880790849211783e-38 1684957512
3.500803 -1.443321 -1.564325 1.880790849211783e-38 1684957512
3.167427 -1.655585 -1.481575 1.880790849211783e-38 1684957512
3.186993 -1.854214 -1.526846 1.880790849211783e-38 1684957512
4.041085 -1.454671 -1.809003 1.880790849211783e-38 1684957512
3.573826 -1.472822 -1.635930 1.880790849211783e-38 1684957512
3.188791 -1.667355 -1.529125 1.880790849211783e-38 1684957512
3.154481 -1.836576 -1.550003 1.880790849211783e-38 1684957512
4.019529 -1.445615 -1.841950 1.880790849211783e-38 1684957512
3.556089 -1.464908 -1.666870 1.880790849211783e-38 1684957512
3.155117 -1.650353 -1.550425 1.880790849211783e-38 1684957512
3.148947 -1.834639 -1.586258 1.880790849211783e-38 1684957512
4.019804 -1.444404 -1.884981 1.880790849211783e-38 1684957512
3.502861 -1.442379 -1.680680 1.880790849211783e-38 1684957512
3.131927 -1.638827 -1.576495 1.880790849211783e-38 1684957512
3.150677 -1.836944 -1.626445 1.880790849211783e-38 1684957512
4.024602 -1.444811 -1.930502 1.880790849211783e-38 1684957512
3.523215 -1.450151 -1.729724 1.880790849211783e-38 1684957512
3.167465 -1.658041 -1.632581 1.880790849211783e-38 1684957512
3.181378 -1.856166 -1.682324 1.880790849211783e-38 1684957512
3.992198 -1.431862 -1.958201 1.880790849211783e-38 1684957512
3.562486 -1.465695 -1.789028 1.880790849211783e-38 1684957512
3.175020 -1.662618 -1.675078 1.880790849211783e-38 1684957512
3.161470 -1.845876 -1.711917 1.880790849211783e-38 1684957512
4.002382 -1.434188 -2.006884 1.880790849211783e-38 1684957512
3.527774 -1.450794 -1.811542 1.880790849211783e-38 1684957512
3.200754 -1.676727 -1.727901 1.880790849211783e-38 1684957512
3.123552 -1.825059 -1.731372 1.880790849211783e-38 1684957512
4.075405 -1.458989 -2.088332 1.880790849211783e-38 1684957512
3.565891 -1.465838 -1.871822 1.880790849211783e-38 1684957512
3.185903 -1.669583 -1.759286 1.880790849211783e-38 1684957512
3.193342 -1.867198 -1.811304 1.880790849211783e-38 1684957512
4.077580 -1.458396 -2.134664 1.880790849211783e-38 1684957512
3.551659 -1.459355 -1.905229 1.880790849211783e-38 1684957512
3.164904 -1.659217 -1.787179 1.880790849211783e-38 1684957512
3.142250 -1.838680 -1.823284 1.880790849211783e-38 1684957512
4.037938 -1.442843 -2.159055 1.880790849211783e-38 1684957512
3.502814 -1.438655 -1.919685 1.880790849211783e-38 1684957512
3.241758 -1.700168 -1.871390 1.880790849211783e-38 1684957512
3.168492 -1.855414 -1.880200 1.880790849211783e-38 1684957512
4.062189 -1.450119 -2.217819 1.880790849211783e-38 1684957512
3.493921 -1.434370 -1.955716 1.880790849211783e-38 1684957512
3.154589 -1.655100 -1.861152 1.880790849211783e-38 1684957512
3.146584 -1.843970 -1.908997 1.880790849211783e-38 1684957512
4.016299 -1.432351 -2.238432 0.000000000000000e+00 1851878480
3.548432 -1.456100 -2.028139 1.880790849211783e-38 1684957512
3.150094 -1.653394 -1.898903 1.880790849211783e-38 1684957512
3.179949 -1.864934 -1.971893 1.880790849211783e-38 1684957512
4.014570 -1.430338 -2.283517 0.000000000000000e+00 1634890835
3.546734 -1.454748 -2.069437 1.880790849211783e-38 1684957512
3.197669 -1.679036 -1.968991 1.880790849211783e-38 1684957512
3.132857 -1.838722 -1.985133 1.880790849211783e-38 1684957512
3.959165 -1.409207 -2.297822 0.000000000000000e+00 1634890835
3.523843 -1.444704 -2.098464 1.880790849211783e-38 1684957512
3.170891 -1.665643 -1.993970 1.880790849211783e-38 1684957512
3.139184 -1.843859 -2.032105 1.880790849211783e-38 1684957512
3.868158 -1.375445 -2.290178 0.000000000000000e+00 1634890835
3.537865 -1.449788 -2.149766 1.880790849211783e-38 1684957512
3.182276 -1.672304 -2.043163 1.880790849211783e-38 1684957512
3.155179 -1.854700 -2.086090 1.880790849211783e-38 1684957512
3.746700 -1.330920 -2.262432 0.000000000000000e+00 1634890835
3.499287 -1.433317 -2.169217 1.880790849211783e-38 1684957512
3.167686 -1.665322 -2.076067 1.880790849211783e-38 1684957512
3.146548 -1.851085 -2.124358 1.880790849211783e-38 1684957512
3.727155 -1.322633 -2.294981 0.000000000000000e+00 1634890835
3.530544 -1.445445 -2.232293 1.880790849211783e-38 1684957512
3.178261 -1.671576 -2.125854 1.880790849211783e-38 1684957512
3.135203 -1.845883 -2.160991 1.880790849211783e-38 1684957512
3.632292 -1.287650 -2.280214 0.000000000000000e+00 1634890835
3.489795 -1.428085 -2.250157 0.000000000000000e+00 1851878480
3.196921 -1.682095 -2.181905 1.880790849211783e-38 1684957512
3.129400 -1.843948 -2.201691 1.880790849211783e-38 1684957512
3.565917 -1.262810 -2.281816 0.000000000000000e+00 1634890835
3.486428 -1.426028 -2.292017 0.000000000000000e+00 1634890835
3.179607 -1.673694 -2.213894 1.880790849211783e-38 1684957512
3.139925 -1.851655 -2.254453 0.000000000000000e+00 1851878480
3.495101 -1.236434 -2.279339 0.000000000000000e+00 1634890835
3.439667 -1.406222 -2.305169 0.000000000000000e+00 1634890835
3.172506 -1.670670 -2.253143 1.880790849211783e-38 1684957512
3.074266 -1.814427 -2.252230 0.000000000000000e+00 1851878480
3.441132 -1.216055 -2.286756 0.000000000000000e+00 1634890835
3.331195 -1.361212 -2.275433 0.000000000000000e+00 1634890835
3.126372 -1.647089 -2.264422 0.000000000000000e+00 1851878480
3.007262 -1.776359 -2.247600 0.000000000000000e+00 1851878480
3.395465 -1.198633 -2.298897 0.000000000000000e+00 1634890835
3.267774 -1.334640 -2.274711 0.000000000000000e+00 1634890835
3.046843 -1.605894 -2.250241 0.000000000000000e+00 1851878480
2.980574 -1.762076 -2.272245 0.000000000000000e+00 1851878480
3.357958 -1.184107 -2.315972 0.000000000000000e+00 1634890835
3.237352 -1.321555 -2.296203 0.000000000000000e+00 1634890835
3.049567 -1.608042 -2.296226 0.000000000000000e+00 1851878480
2.852872 -1.688017 -2.218094 0.000000000000000e+00 1851878480
3.258946 -1.147935 -2.289351 0.000000000000000e+00 1634890835
3.205329 -1.307823 -2.316211 0.000000000000000e+00 1634890835
2.944085 -1.553117 -2.259763 0.000000000000000e+00 1851878480
2.844512 -1.684520 -2.255206 0.000000000000000e+00 1851878480
3.189751 -1.122317 -2.281979 0.000000000000000e+00 1634890835
3.103133 -1.265479 -2.284196 0.000000000000000e+00 1634890835
2.884384 -1.522312 -2.256545 0.000000000000000e+00 1851878480
2.764459 -1.638542 -2.234662 0.000000000000000e+00 1851878480
3.141706 -1.104171 -2.288681 0.000000000000000e+00 1634890835
3.067584 -1.250337 -2.299866 0.000000000000000e+00 1634890835
2.827954 -1.493217 -2.254692 0.000000000000000e+00 1851878480
2.706220 -1.605439 -2.230146 0.000000000000000e+00 1851878480
3.127017 -1.097761 -2.319337 0.000000000000000e+00 1634890835
3.032445 -1.235368 -2.315372 0.000000000000000e+00 1634890835
2.796030 -1.477045 -2.271587 0.000000000000000e+00 1851878480
0.826355 -0.490665 -0.694152 0.000000000000000e+00 1886740808
3.014783 -1.057143 -2.276433 0.000000000000000e+00 1634890835
2.951499 -1.201756 -2.294796 0.000000000000000e+00 1634890835
2.742453 -1.449426 -2.270136 0.000000000000000e+00 1851878480
0.814279 -0.483933 -0.697158 0.000000000000000e+00 1886740808
2.946274 -1.031918 -2.264598 0.000000000000000e+00 1634890835
2.885156 -1.174115 -2.284014 0.000000000000000e+00 1634890835
0.895755 -0.473645 -0.755409 0.000000000000000e+00 1886740808
0.830090 -0.493783 -0.724284 0.000000000000000e+00 1886740808
2.959208 -1.035226 -2.315099 0.000000000000000e+00 1634890835
2.820196 -1.147054 -2.272970 0.000000000000000e+00 1634890835
0.845210 -0.447134 -0.726099 0.000000000000000e+00 1886740808
0.810220 -0.482411 -0.720395 0.000000000000000e+00 1886740808
2.872957 -1.003851 -2.287489 0.000000000000000e+00 1634890835
2.772783 -1.127150 -2.274969 0.000000000000000e+00 1634890835
0.826032 -0.437203 -0.722814 0.000000000000000e+00 1886740808
0.799765 -0.476634 -0.724562 0.000000000000000e+00 1886740808
2.797850 -0.976424 -2.267005 0.000000000000000e+00 1634890835
2.736536 -1.111796 -2.285434 0.000000000000000e+00 1634890835
0.813740 -0.430911 -0.725235 0.000000000000000e+00 1886740808
0.799716 -0.477061 -0.738175 0.000000000000000e+00 1886740808
2.759405 -0.961823 -2.275131 0.000000000000000e+00 1634890835
0.850035 -0.345156 -0.722567 0.000000000000000e+00 1886740808
0.793670 -0.420495 -0.720383 0.000000000000000e+00 1886740808
0.772187 -0.461086 -0.726147 0.000000000000000e+00 1886740808
0.858447 -0.298849 -0.720169 0.000000000000000e+00 1886740808
0.822922 -0.333955 -0.711936 0.000000000000000e+00 1886740808
0.804593 -0.426499 -0.743701 0.000000000000000e+00 1886740808
0.781403 -0.467047 -0.748557 0.000000000000000e+00 1886740808
0.843066 -0.293124 -0.719585 0.000000000000000e+00 1886740808
0.824372 -0.334349 -0.725801 0.000000000000000e+00 1886740808
0.750704 -0.398139 -0.706582 0.000000000000000e+00 1886740808
0.736786 -0.440818 -0.718974 0.000000000000000e+00 1886740808
0.835863 -0.290248 -0.725818 0.000000000000000e+00 1886740808
0.808984 -0.327915 -0.724801 0.000000000000000e+00 1886740808
0.772796 -0.410071 -0.740636 0.000000000000000e+00 1886740808
0.739970 -0.443171 -0.735501 0.000000000000000e+00 1886740808
0.832939 -0.288856 -0.735787 0.000000000000000e+00 1886740808
0.788061 -0.319243 -0.718453 0.000000000000000e+00 1886740808
0.761283 -0.404177 -0.742865 0.000000000000000e+00 1886740808
0.758837 -0.454938 -0.768236 0.000000000000000e+00 1886740808
0.821342 -0.284459 -0.738050 0.000000000000000e+00 1886740808
0.781597 -0.316432 -0.725035 0.000000000000000e+00 1886740808
0.812520 -0.431614 -0.807238 0.000000000000000e+00 1886740808
0.746518 -0.448019 -0.769739 0.000000000000000e+00 1886740808
0.782736 -0.270724 -0.715450 0.000000000000000e+00 1886740808
0.772448 -0.312536 -0.729060 0.000000000000000e+00 1886740808
0.765150 -0.406674 -0.773928 0.000000000000000e+00 1886740808
0.731651 -0.439562 -0.768332 0.000000000000000e+00 1886740808
0.782554 -0.270293 -0.727547 0.000000000000000e+00 1886740808
0.732193 -0.296063 -0.703104 0.000000000000000e+00 1886740808
0.776394 -0.412880 -0.799479 0.000000000000000e+00 1886740808
0.764786 -0.459963 -0.817924 0.000000000000000e+00 1886740808
0.750831 -0.258977 -0.709995 0.000000000000000e+00 1886740808
0.754363 -0.304833 -0.736985 0.000000000000000e+00 1886740808
0.758069 -0.403364 -0.794681 0.000000000000000e+00 1886740808
2.117880 -1.275144 -2.306705 0.000000000000000e+00 1634890835
0.706993 -0.243514 -0.679955 0.000000000000000e+00 1886740808
0.764607 -0.308773 -0.759956 0.000000000000000e+00 1886740808
0.758953 -0.404067 -0.809930 0.000000000000000e+00 1886740808
2.061547 -1.242606 -2.286616 0.000000000000000e+00 1634890835
0.756405 -0.260161 -0.739878 0.000000000000000e+00 1886740808
0.733544 -0.296034 -0.741714 0.000000000000000e+00 1886740808
2.130024 -1.134689 -2.313975 0.000000000000000e+00 1634890835
2.021517 -1.219856 -2.283397 0.000000000000000e+00 1634890835
0.756005 -0.259646 -0.752074 0.000000000000000e+00 1886740808
0.737112 -0.297275 -0.758222 0.000000000000000e+00 1886740808
2.073073 -1.105009 -2.292582 0.000000000000000e+00 1634890835
0.805481 -0.486615 -0.926532 0.000000000000000e+00 1886740808
0.733262 -0.251463 -0.741851 0.000000000000000e+00 1886740808
0.759581 -0.306130 -0.794845 0.000000000000000e+00 1886740808
2.069434 -1.103737 -2.329675 0.000000000000000e+00 1634890835
0.796787 -0.481926 -0.933357 0.000000000000000e+00 1886740808
0.730972 -0.250300 -0.752098 0.000000000000000e+00 1886740808
0.792688 -0.319252 -0.843826 0.000000000000000e+00 1886740808
2.037428 -1.087336 -2.334851 0.000000000000000e+00 1634890835
0.803508 -0.486569 -0.958513 0.000000000000000e+00 1886740808
0.757581 -0.259015 -0.792713 0.000000000000000e+00 1886740808
2.104829 -0.847115 -2.279330 0.000000000000000e+00 1634890835
0.791011 -0.422413 -0.922774 0.000000000000000e+00 1886740808
0.787359 -0.477368 -0.956508 0.000000000000000e+00 1886740808
0.739908 -0.252579 -0.787363 0.000000000000000e+00 1886740808
2.094124 -0.842205 -2.306921 0.000000000000000e+00 1634890835
0.803192 -0.429191 -0.953833 0.000000000000000e+00 1886740808
0.761620 -0.462333 -0.942254 0.000000000000000e+00 1886740808
0.763562 -0.260240 -0.826329 0.000000000000000e+00 1886740808
2.036190 -0.818308 -2.281871 0.000000000000000e+00 1634890835
0.772910 -0.413278 -0.934391 0.000000000000000e+00 1886740808
1.792896 -1.089725 -2.258963 0.000000000000000e+00 1634890835
2.092188 -0.711915 -2.302627 0.000000000000000e+00 1634890835
1.985545 -0.797363 -2.263600 0.000000000000000e+00 1634890835
0.740271 -0.396089 -0.911060 0.000000000000000e+00 1886740808
1.786318 -1.087118 -2.292185 0.000000000000000e+00 1634890835
2.041568 -0.693547 -2.285102 0.000000000000000e+00 1634890835
2.018999 -0.810185 -2.341586 0.000000000000000e+00 1634890835
0.773570 -0.414185 -0.969225 0.000000000000000e+00 1886740808
0.775070 -0.472308 -1.012940 0.000000000000000e+00 1886740808
2.035732 -0.690403 -2.317332 0.000000000000000e+00 1634890835
1.944118 -0.779535 -2.293823 0.000000000000000e+00 1634890835
0.817183 -0.437837 -1.042384 0.000000000000000e+00 1886740808
1.719495 -1.049211 -2.288827 0.000000000000000e+00 1634890835
1.954700 -0.661787 -2.262990 0.000000000000000e+00 1634890835
0.818459 -0.327922 -0.982447 0.000000000000000e+00 1886740808
1.772525 -0.950366 -2.301976 0.000000000000000e+00 1634890835
1.677485 -1.024967 -2.274366 0.000000000000000e+00 1634890835
1.954474 -0.660555 -2.301327 0.000000000000000e+00 1634890835
0.818552 -0.327695 -0.999646 0.000000000000000e+00 1886740808
0.793047 -0.425509 -1.048642 0.000000000000000e+00 1886740808
1.679494 -1.027616 -2.319493 0.000000000000000e+00 1634890835
1.884518 -0.635778 -2.256878 0.000000000000000e+00 1634890835
0.773514 -0.309412 -0.961107 0.000000000000000e+00 1886740808
1.723419 -0.925372 -2.320385 0.000000000000000e+00 1634890835
1.608070 -0.985306 -2.262342 0.000000000000000e+00 1634890835
0.802349 -0.270195 -0.977341 0.000000000000000e+00 1886740808
0.798210 -0.319024 -1.009121 0.000000000000000e+00 1886740808
1.689981 -0.908096 -2.316954 0.000000000000000e+00 1634890835
1.604639 -0.984623 -2.299841 0.000000000000000e+00 1634890835
0.784977 -0.263854 -0.972595 0.000000000000000e+00 1886740808
0.793297 -0.316791 -1.020480 0.000000000000000e+00 1886740808
1.642835 -0.883435 -2.293630 0.000000000000000e+00 1634890835
1.597168 -0.981486 -2.332222 0.000000000000000e+00 1634890835
0.800073 -0.268418 -1.008364 0.000000000000000e+00 1886740808
0.769874 -0.307170 -1.007753 0.000000000000000e+00 1886740808
1.620982 -0.872362 -2.304787 0.000000000000000e+00 1634890835
1.547322 -0.952287 -2.302146 0.000000000000000e+00 1634890835
0.787409 -0.263656 -1.009537 0.000000000000000e+00 1886740808
1.729411 -0.689399 -2.303689 0.000000000000000e+00 1634890835
1.600474 -0.862009 -2.317701 0.000000000000000e+00 1634890835
1.521105 -0.937595 -2.306118 0.000000000000000e+00 1634890835
0.746226 -0.249371 -0.973310 0.000000000000000e+00 1886740808
1.690943 -0.673452 -2.292307 0.000000000000000e+00 1634890835
1.573772 -0.848317 -2.321359 0.000000000000000e+00 1634890835
1.496679 -0.923992 -2.312393 0.000000000000000e+00 1634890835
0.757718 -0.252698 -1.005482 0.000000000000000e+00 1886740808
0.762440 -0.303375 -1.051957 0.000000000000000e+00 1886740808
1.545352 -0.833690 -2.321976 0.000000000000000e+00 1634890835
1.440902 -0.890991 -2.268929 0.000000000000000e+00 1634890835
1.710944 -0.569412 -2.310031 0.000000000000000e+00 1634890835
1.624797 -0.645892 -2.281779 0.000000000000000e+00 1634890835
1.520858 -0.821173 -2.328041 0.000000000000000e+00 1634890835
1.409988 -0.873314 -2.263094 0.000000000000000e+00 1634890835
0.762938 -0.253371 -1.048136 0.000000000000000e+00 1886740808
1.585290 -0.629574 -2.266208 0.000000000000000e+00 1634890835
1.479171 -0.799362 -2.306938 0.000000000000000e+00 1634890835
1.420281 -0.881177 -2.323868 0.000000000000000e+00 1634890835
1.628366 -0.539602 -2.276468 0.000000000000000e+00 1634890835
1.571248 -0.623375 -2.286600 0.000000000000000e+00 1634890835
1.439893 -0.778829 -2.288287 0.000000000000000e+00 1634890835
1.386559 -0.861742 -2.313015 0.000000000000000e+00 1634890835
1.598931 -0.528667 -2.274870 0.000000000000000e+00 1634890835
1.552619 -0.615357 -2.300414 0.000000000000000e+00 1634890835
1.417003 -0.767148 -2.294903 0.000000000000000e+00 1634890835
1.327105 -0.826254 -2.257382 0.000000000000000e+00 1634890835
1.597867 -0.527108 -2.313791 0.000000000000000e+00 1634890835
1.539322 -0.609449 -2.322253 0.000000000000000e+00 1634890835
1.401307 -0.759360 -2.313097 0.000000000000000e+00 1634890835
1.332316 -0.831008 -2.311145 0.000000000000000e+00 1634890835
1.575494 -0.518508 -2.322193 0.000000000000000e+00 1634890835
1.481086 -0.585762 -2.275333 0.000000000000000e+00 1634890835
1.380880 -0.749010 -2.323490 0.000000000000000e+00 1634890835
1.324495 -0.827670 -2.343438 0.000000000000000e+00 1634890835
1.545502 -0.507414 -2.318963 0.000000000000000e+00 1634890835
1.478296 -0.584016 -2.312917 0.000000000000000e+00 1634890835
1.346128 -0.730879 -2.309168 0.000000000000000e+00 1634890835
1.276660 -0.799305 -2.304249 0.000000000000000e+00 1634890835
1.483296 -0.485787 -2.265907 0.000000000000000e+00 1634890835
1.456517 -0.574762 -2.321133 0.000000000000000e+00 1634890835
1.310420 -0.712211 -2.292072 0.000000000000000e+00 1634890835
1.241945 -0.779099 -2.287066 0.000000000000000e+00 1634890835
1.459408 -0.476752 -2.270028 0.000000000000000e+00 1634890835
1.397429 -0.550807 -2.268589 0.000000000000000e+00 1634890835
1.284953 -0.699095 -2.292035 0.000000000000000e+00 1634890835
1.228967 -0.772516 -2.309484 0.000000000000000e+00 1634890835
1.459619 -0.475577 -2.311995 0.000000000000000e+00 1634890835
1.381839 -0.544014 -2.285511 0.000000000000000e+00 1634890835
1.310662 -0.713842 -2.384580 0.000000000000000e+00 1634890835
1.176922 -0.741334 -2.257352 0.000000000000000e+00 1634890835
1.419303 -0.461202 -2.289665 0.000000000000000e+00 1634890835
1.373293 -0.539987 -2.314466 0.000000000000000e+00 1634890835
1.257982 -0.685900 -2.334850 0.000000000000000e+00 1634890835
1.168232 -0.737431 -2.287403 0.000000000000000e+00 1634890835
1.383301 -0.448265 -2.273120 0.000000000000000e+00 1634890835
1.336350 -0.524800 -2.295273 0.000000000000000e+00 1634890835
1.202013 -0.656125 -2.276338 0.000000000000000e+00 1634890835
1.155316 -0.730881 -2.309749 0.000000000000000e+00 1634890835
1.384041 -0.447231 -2.316998 0.000000000000000e+00 1634890835
1.303569 -0.511263 -2.282144 0.000000000000000e+00 1634890835
1.200503 -0.656060 -2.320157 0.000000000000000e+00 1634890835
1.116659 -0.708023 -2.279966 0.000000000000000e+00 1634890835
1.339747 -0.431651 -2.285263 0.000000000000000e+00 1634890835
1.295774 -0.507529 -2.312628 0.000000000000000e+00 1634890835
1.189017 -0.650561 -2.345617 0.000000000000000e+00 1634890835
1.102003 -0.700356 -2.298436 0.000000000000000e+00 1634890835
1.287219 -0.413478 -2.237547 0.000000000000000e+00 1634890835
1.270113 -0.496794 -2.311332 0.000000000000000e+00 1634890835
1.155946 -0.633244 -2.328169 0.000000000000000e+00 1634890835
1.080241 -0.688175 -2.302058 0.000000000000000e+00 1634890835
1.296907 -0.415296 -2.297775 0.000000000000000e+00 1634890835
1.225237 -0.478563 -2.273859 0.000000000000000e+00 1634890835
1.141687 -0.626227 -2.348169 0.000000000000000e+00 1634890835
1.021815 -0.652566 -2.225473 0.000000000000000e+00 1634890835
1.268087 -0.404766 -2.290357 0.000000000000000e+00 1634890835
1.238755 -0.483137 -2.344966 0.000000000000000e+00 1634890835
1.113716 -0.611684 -2.339727 0.000000000000000e+00 1634890835
1.027238 -0.657705 -2.287130 0.000000000000000e+00 1634890835
1.227674 -0.390570 -2.260859 0.000000000000000e+00 1634890835
1.184957 -0.461459 -2.288494 0.000000000000000e+00 1634890835
1.077320 -0.592496 -2.312343 0.000000000000000e+00 1634890835
1.028949 -0.660540 -2.342632 0.000000000000000e+00 1634890835
1.226476 -0.388854 -2.303404 0.000000000000000e+00 1634890835
1.169770 -0.454836 -2.305347 0.000000000000000e+00 1634890835
1.036428 -0.570802 -2.273405 0.000000000000000e+00 1634890835
1.008131 -0.648941 -2.347708 0.000000000000000e+00 1634890835
1.218413 -0.384931 -2.334076 0.000000000000000e+00 1634890835
1.166720 -0.452921 -2.346870 0.000000000000000e+00 1634890835
1.047912 -0.577958 -2.349699 0.000000000000000e+00 1634890835
0.973671 -0.628528 -2.320013 0.000000000000000e+00 1634890835
1.170466 -0.368430 -2.287611 0.000000000000000e+00 1634890835
1.143321 -0.443100 -2.347898 0.000000000000000e+00 1634890835
0.998296 -0.551416 -2.288876 0.000000000000000e+00 1634890835
0.929583 -0.601820 -2.267035 0.000000000000000e+00 1634890835
1.175174 -0.368509 -2.343828 0.000000000000000e+00 1634890835
1.104317 -0.427246 -2.315800 0.000000000000000e+00 1634890835
0.984100 -0.544414 -2.307862 0.000000000000000e+00 1634890835
0.917064 -0.595510 -2.289864 0.000000000000000e+00 1634890835
1.135264 -0.354596 -2.311125 0.000000000000000e+00 1634890835
1.101350 -0.425339 -2.359075 0.000000000000000e+00 1634890835
0.959591 -0.531706 -2.302522 0.000000000000000e+00 1634890835
0.921381 -0.600189 -2.356380 0.000000000000000e+00 1634890835
1.095799 -0.340875 -2.277554 0.000000000000000e+00 1634890835
1.045897 -0.403177 -2.288933 0.000000000000000e+00 1634890835
0.957924 -0.531663 -2.352567 0.000000000000000e+00 1634890835
0.874226 -0.571324 -2.290816 0.000000000000000e+00 1634890835
1.083847 -0.335732 -2.300538 0.000000000000000e+00 1634890835
1.018420 -0.391833 -2.277840 0.000000000000000e+00 1634890835
0.937587 -0.521272 -2.357595 0.000000000000000e+00 1634890835
0.856292 -0.561493 -2.299966 0.000000000000000e+00 1634890835
1.066116 -0.328789 -2.311575 0.000000000000000e+00 1634890835
0.977133 -0.375200 -2.234255 0.000000000000000e+00 1634890835
0.913814 -0.508963 -2.353553 0.000000000000000e+00 1634890835
0.839175 -0.552200 -2.311361 0.000000000000000e+00 1634890835
1.034601 -0.317612 -2.292149 0.000000000000000e+00 1634890835
0.972367 -0.372597 -2.273677 0.000000000000000e+00 1634890835
0.881671 -0.491973 -2.326762 0.000000000000000e+00 1634890835
0.456308 -0.301359 -1.289382 0.000000000000000e+00 1936876886
1.017073 -0.310746 -2.303135 0.000000000000000e+00 1634890835
0.980326 -0.374840 -2.344949 0.000000000000000e+00 1634890835
0.852061 -0.476371 -2.305025 0.000000000000000e+00 1634890835
0.433276 -0.287236 -1.256609 0.000000000000000e+00 1936876886
0.987368 -0.300176 -2.286021 0.000000000000000e+00 1634890835
0.943168 -0.359825 -2.308702 0.000000000000000e+00 1634890835
0.843332 -0.472440 -2.339654 0.000000000000000e+00 1634890835
0.416535 -0.277231 -1.240545 0.000000000000000e+00 1936876886
0.989245 -0.299192 -2.342520 0.000000000000000e+00 1634890835
0.925017 -0.352076 -2.317946 0.000000000000000e+00 1634890835
0.479741 -0.269318 -1.365552 0.000000000000000e+00 1936876886
0.335718 -0.224365 -1.027279 0.000000000000000e+00 1953264973
0.958444 -0.288312 -2.322071 0.000000000000000e+00 1634890835
0.910326 -0.345641 -2.336110 0.000000000000000e+00 1634890835
0.448845 -0.252526 -1.311464 0.000000000000000e+00 1936876886
0.318476 -0.213761 -1.001804 0.000000000000000e+00 1953264973
0.489427 -0.146395 -1.213626 0.000000000000000e+00 1936876886
0.872830 -0.330562 -2.294798 0.000000000000000e+00 1634890835
0.386669 -0.218042 -1.160328 0.000000000000000e+00 1953264973
0.275429 -0.185702 -0.891172 0.000000000000000e+00 1953264973
0.474716 -0.141156 -1.205273 0.000000000000000e+00 1936876886
0.846169 -0.319612 -2.280220 0.000000000000000e+00 1634890835
0.347012 -0.196148 -1.070045 0.000000000000000e+00 1953264973
0.280649 -0.190115 -0.934614 0.000000000000000e+00 1953264973
0.483607 -0.142911 -1.257695 0.000000000000000e+00 1936876886
0.851516 -0.320737 -2.352950 0.000000000000000e+00 1634890835
0.311677 -0.176617 -0.988165 0.000000000000000e+00 1953264973
0.245312 -0.167000 -0.841372 0.000000000000000e+00 1953264973
