# .PCD v0.7 - Point Cloud Data file format
VERSION 0.7
FIELDS x y z rgb label
SIZE 4 4 4 4 4
TYPE F F F F U
COUNT 1 1 1 1 1
WIDTH 530
HEIGHT 1
VIEWPOINT 0 0 0 1 0 0 0
POINTS 530
DATA ascii
30.378313 -11.285619 -2.206037 0.000000000000000e+00 1851878480
31.286755 -13.082536 -2.200208 0.000000000000000e+00 1851878480
26.846897 -9.966111 -2.193704 0.000000000000000e+00 1851878480
26.533518 -11.091069 -2.114584 0.000000000000000e+00 1851878480
25.682802 -13.261708 -1.901798 0.000000000000000e+00 1851878480
24.765417 -14.077523 -1.741724 0.000000000000000e+00 1851878480
24.200634 -8.976937 -2.197761 0.000000000000000e+00 1851878480
24.319281 -10.161942 -2.166276 0.000000000000000e+00 1851878480
23.247482 -12.007907 -1.954086 0.000000000000000e+00 1851878480
22.769333 -12.950543 -1.837154 0.000000000000000e+00 1851878480
22.157967 -8.212975 -2.214189 0.000000000000000e+00 1851878480
22.214073 -9.279015 -2.187418 0.000000000000000e+00 1851878480
21.678537 -11.200994 -2.039448 0.000000000000000e+00 1851878480
21.223286 -12.078338 -1.932561 0.000000000000000e+00 1851878480
20.412533 -7.560253 -2.226041 0.000000000000000e+00 1851878480
20.374250 -8.507502 -2.197906 0.000000000000000e+00 1851878480
20.472616 -10.581190 -2.131490 0.000000000000000e+00 1851878480
20.045860 -11.415027 -2.033645 0.000000000000000e+00 1851878480
18.941854 -7.010193 -2.238770 0.000000000000000e+00 1851878480
18.935677 -7.904020 -2.221123 0.000000000000000e+00 1851878480
19.155319 -9.903439 -2.186956 0.000000000000000e+00 1851878480
19.016047 -10.835030 -2.127155 0.000000000000000e+00 1851878480
17.549019 -6.489742 -2.234790 0.000000000000000e+00 1851878480
17.572824 -7.332553 -2.227115 0.000000000000000e+00 1851878480
17.814249 -9.212969 -2.213329 0.000000000000000e+00 1851878480
17.963146 -10.241199 -2.196788 0.000000000000000e+00 1851878480
16.456553 -6.081072 -2.246582 0.000000000000000e+00 1851878480
16.466803 -6.868619 -2.242652 0.000000000000000e+00 1851878480
16.559435 -8.566699 -2.224620 0.000000000000000e+00 1851878480
16.784430 -9.574894 -2.228150 0.000000000000000e+00 1851878480
15.355143 -5.669719 -2.237304 0.000000000000000e+00 1851878480
15.438311 -6.437325 -2.248855 0.000000000000000e+00 1851878480
15.463720 -8.002357 -2.233903 0.000000000000000e+00 1851878480
15.522068 -8.860057 -2.223268 0.000000000000000e+00 1851878480
14.456160 -5.333658 -2.239416 0.000000000000000e+00 1851878480
14.450744 -6.023395 -2.242217 0.000000000000000e+00 1851878480
14.493762 -7.502768 -2.240805 0.000000000000000e+00 1851878480
14.532553 -8.300208 -2.234256 0.000000000000000e+00 1851878480
13.613076 -5.018723 -2.234428 0.000000000000000e+00 1851878480
13.623200 -5.676436 -2.243476 0.000000000000000e+00 1851878480
13.605309 -7.045078 -2.241815 0.000000000000000e+00 1851878480
13.595087 -7.769443 -2.233387 0.000000000000000e+00 1851878480
12.918997 -4.759147 -2.239997 0.000000000000000e+00 1851878480
12.894081 -5.370706 -2.246434 0.000000000000000e+00 1851878480
12.814536 -6.637695 -2.242201 0.000000000000000e+00 1851878480
12.831296 -7.337361 -2.243516 0.000000000000000e+00 1851878480
12.280063 -4.520257 -2.243088 0.000000000000000e+00 1851878480
12.180756 -5.071776 -2.238689 0.000000000000000e+00 1851878480
12.102396 -6.270807 -2.241380 0.000000000000000e+00 1851878480
12.148453 -6.951093 -2.252906 0.000000000000000e+00 1851878480
11.700058 -4.303402 -2.245927 0.000000000000000e+00 1851878480
11.598837 -4.827741 -2.243011 0.000000000000000e+00 1851878480
11.511289 -5.966420 -2.250003 0.000000000000000e+00 1851878480
11.443161 -6.551499 -2.243806 0.000000000000000e+00 1851878480
11.112926 -4.084250 -2.236839 0.000000000000000e+00 1851878480
11.063023 -4.603056 -2.245840 0.000000000000000e+00 1851878480
10.850737 -5.625835 -2.232571 0.000000000000000e+00 1851878480
10.872399 -6.228508 -2.247908 0.000000000000000e+00 1851878480
10.613853 -3.897769 -2.235642 0.000000000000000e+00 1851878480
10.568033 -4.395513 -2.247353 0.000000000000000e+00 1851878480
10.433828 -5.411406 -2.254544 0.000000000000000e+00 1851878480
10.294674 -5.901142 -2.238704 0.000000000000000e+00 1851878480
10.216814 -3.749011 -2.247859 0.000000000000000e+00 1851878480
10.133209 -4.213126 -2.253007 0.000000000000000e+00 1851878480
9.866745 -5.118942 -2.234271 0.000000000000000e+00 1851878480
9.824808 -5.635252 -2.242133 0.000000000000000e+00 1851878480
9.763411 -3.579805 -2.239995 0.000000000000000e+00 1851878480
9.672743 -4.020213 -2.244608 0.000000000000000e+00 1851878480
9.498751 -4.929607 -2.249751 0.000000000000000e+00 1851878480
9.382071 -5.384617 -2.242334 0.000000000000000e+00 1851878480
9.366191 -3.431441 -2.237318 0.000000000000000e+00 1851878480
9.225024 -3.832729 -2.230664 0.000000000000000e+00 1851878480
9.104525 -4.726542 -2.251457 0.000000000000000e+00 1851878480
8.953866 -5.142031 -2.237002 0.000000000000000e+00 1851878480
9.048422 -3.312380 -2.247173 0.000000000000000e+00 1851878480
8.906381 -3.698981 -2.240781 0.000000000000000e+00 1851878480
8.702337 -4.519213 -2.243245 0.000000000000000e+00 1851878480
8.628395 -4.958183 -2.249565 0.000000000000000e+00 1851878480
8.750053 -3.200600 -2.256318 0.000000000000000e+00 1851878480
8.608848 -3.574094 -2.250506 0.000000000000000e+00 1851878480
8.392916 -4.359947 -2.251854 0.000000000000000e+00 1851878480
8.251863 -4.744766 -2.241574 0.000000000000000e+00 1851878480
8.396694 -3.068884 -2.245394 0.000000000000000e+00 1851878480
8.240607 -3.419946 -2.235534 0.000000000000000e+00 1851878480
8.056366 -4.186488 -2.246756 0.000000000000000e+00 1851878480
7.910720 -4.551455 -2.235749 0.000000000000000e+00 1851878480
8.079366 -2.950522 -2.238013 0.000000000000000e+00 1851878480
8.003962 -3.320503 -2.250627 0.000000000000000e+00 1851878480
7.783316 -4.045922 -2.253294 0.000000000000000e+00 1851878480
7.675903 -4.419123 -2.254051 0.000000000000000e+00 1851878480
7.845401 -2.862755 -2.248752 0.000000000000000e+00 1851878480
7.707932 -3.196500 -2.244076 0.000000000000000e+00 1851878480
7.499887 -3.899880 -2.251290 0.000000000000000e+00 1851878480
7.386171 -4.255000 -2.250840 0.000000000000000e+00 1851878480
7.588871 -2.766896 -2.248619 0.000000000000000e+00 1851878480
7.482902 -3.102014 -2.253347 0.000000000000000e+00 1851878480
7.241127 -3.766576 -2.251280 0.000000000000000e+00 1851878480
7.100956 -4.093291 -2.243034 0.000000000000000e+00 1851878480
7.307752 -2.662221 -2.236319 0.000000000000000e+00 1851878480
7.205816 -2.986025 -2.242261 0.000000000000000e+00 1851878480
6.978150 -3.630992 -2.244740 0.000000000000000e+00 1851878480
6.876342 -3.966333 -2.249091 0.000000000000000e+00 1851878480
7.081666 -2.577742 -2.236257 0.000000000000000e+00 1851878480
6.988072 -2.894696 -2.245014 0.000000000000000e+00 1851878480
6.737134 -3.506758 -2.240213 0.000000000000000e+00 1851878480
6.644468 -3.835041 -2.248068 0.000000000000000e+00 1851878480
6.891219 -2.506344 -2.243705 0.000000000000000e+00 1851878480
6.778698 -2.806896 -2.246486 0.000000000000000e+00 1851878480
6.500923 -3.384945 -2.232489 0.000000000000000e+00 1851878480
6.451204 -3.725891 -2.255726 0.000000000000000e+00 1851878480
6.685620 -2.429547 -2.242665 0.000000000000000e+00 1851878480
6.544659 -2.708949 -2.235631 0.000000000000000e+00 1851878480
6.306489 -3.284822 -2.234803 0.000000000000000e+00 1851878480
6.213567 -3.590964 -2.243396 0.000000000000000e+00 1851878480
6.476378 -2.351543 -2.236641 0.000000000000000e+00 1851878480
6.429329 -2.660187 -2.262114 0.000000000000000e+00 1851878480
6.150930 -3.204886 -2.247445 0.000000000000000e+00 1851878480
6.042828 -3.494567 -2.250980 0.000000000000000e+00 1851878480
6.317674 -2.291994 -2.244760 0.000000000000000e+00 1851878480
6.185137 -2.558161 -2.239923 0.000000000000000e+00 1851878480
5.948455 -3.100451 -2.239387 0.000000000000000e+00 1851878480
5.859237 -3.390614 -2.250128 0.000000000000000e+00 1851878480
6.116244 -2.217041 -2.234444 0.000000000000000e+00 1851878480
6.033601 -2.494511 -2.247562 0.000000000000000e+00 1851878480
5.833210 -3.041429 -2.261041 0.000000000000000e+00 1851878480
5.623693 -3.256454 -2.224905 0.000000000000000e+00 1851878480
5.943520 -2.152601 -2.231203 0.000000000000000e+00 1851878480
5.852589 -2.418728 -2.241127 0.000000000000000e+00 1851878480
5.683559 -2.964429 -2.266799 0.000000000000000e+00 1851878480
5.503145 -3.188758 -2.241459 0.000000000000000e+00 1851878480
5.848839 -2.116499 -2.254908 0.000000000000000e+00 1851878480
5.729615 -2.366974 -2.254107 0.000000000000000e+00 1851878480
5.496384 -2.867801 -2.254209 0.000000000000000e+00 1851878480
5.335198 -3.093507 -2.235757 0.000000000000000e+00 1851878480
5.656648 -2.045189 -2.238455 0.000000000000000e+00 1851878480
5.553619 -2.293358 -2.243452 0.000000000000000e+00 1851878480
5.367799 -2.801695 -2.262484 0.000000000000000e+00 1851878480
5.190300 -3.011511 -2.236454 0.000000000000000e+00 1851878480
5.507696 -1.989610 -2.235981 0.000000000000000e+00 1851878480
5.385158 -2.222902 -2.232565 0.000000000000000e+00 1851878480
5.196126 -2.713048 -2.249584 0.000000000000000e+00 1851878480
5.081930 -2.950629 -2.250319 0.000000000000000e+00 1851878480
5.387486 -1.944489 -2.242765 0.000000000000000e+00 1851878480
5.291295 -2.183282 -2.250188 0.000000000000000e+00 1851878480
5.086705 -2.656862 -2.260827 0.000000000000000e+00 1851878480
4.942070 -2.871377 -2.247708 0.000000000000000e+00 1851878480
5.262106 -1.897568 -2.245213 0.000000000000000e+00 1851878480
5.132770 -2.117015 -2.237981 0.000000000000000e+00 1851878480
4.945566 -2.584069 -2.255491 0.000000000000000e+00 1851878480
4.847563 -2.818400 -2.263341 0.000000000000000e+00 1851878480
5.112945 -1.842149 -2.235014 0.000000000000000e+00 1851878480
5.009660 -2.065397 -2.238554 0.000000000000000e+00 1851878480
4.828533 -2.523830 -2.258563 0.000000000000000e+00 1851878480
4.712129 -2.741548 -2.257518 0.000000000000000e+00 1851878480
4.994580 -1.797901 -2.235837 0.000000000000000e+00 1851878480
4.954235 -2.041707 -2.267816 0.000000000000000e+00 1851878480
4.694642 -2.454734 -2.251228 0.000000000000000e+00 1851878480
4.599014 -2.677601 -2.259797 0.000000000000000e+00 1851878480
4.879296 -1.754828 -2.235939 0.000000000000000e+00 1851878480
4.839121 -1.993444 -2.268275 0.000000000000000e+00 1851878480
4.538167 -2.373787 -2.230056 0.000000000000000e+00 1851878480
4.412897 -2.571042 -2.222963 0.000000000000000e+00 1851878480
4.790619 -1.721375 -2.246435 0.000000000000000e+00 1851878480
4.724380 -1.945367 -2.266768 0.000000000000000e+00 1851878480
4.500687 -2.355051 -2.265479 0.000000000000000e+00 1851878480
4.329175 -2.524046 -2.234811 0.000000000000000e+00 1851878480
4.672492 -1.677400 -2.241278 0.000000000000000e+00 1851878480
4.584701 -1.887058 -2.250861 0.000000000000000e+00 1851878480
4.356203 -2.280297 -2.245282 0.000000000000000e+00 1851878480
4.252250 -2.480963 -2.248605 0.000000000000000e+00 1851878480
4.622078 -1.657778 -2.267162 0.000000000000000e+00 1851878480
4.456685 -1.833591 -2.238081 0.000000000000000e+00 1851878480
4.292570 -2.247830 -2.264676 0.000000000000000e+00 1851878480
4.160047 -2.428911 -2.252640 0.000000000000000e+00 1851878480
4.457156 -1.597148 -2.234917 0.000000000000000e+00 1851878480
4.376545 -1.799851 -2.247394 0.000000000000000e+00 1851878480
4.167642 -2.183234 -2.249867 0.000000000000000e+00 1851878480
4.059856 -2.372131 -2.250361 0.000000000000000e+00 1851878480
4.332938 -1.551186 -2.220298 0.000000000000000e+00 1851878480
4.269114 -1.754914 -2.240960 0.000000000000000e+00 1851878480
4.077963 -2.137070 -2.251890 0.000000000000000e+00 1851878480
3.985668 -2.330484 -2.260722 0.000000000000000e+00 1851878480
4.285192 -1.532650 -2.243351 0.000000000000000e+00 1851878480
4.237919 -1.741336 -2.273363 0.000000000000000e+00 1851878480
4.024190 -2.109703 -2.272406 0.000000000000000e+00 1851878480
3.894683 -2.278964 -2.259882 0.000000000000000e+00 1851878480
4.210384 -1.504462 -2.251261 0.000000000000000e+00 1851878480
4.093499 -1.681257 -2.243404 0.000000000000000e+00 1851878480
3.909427 -2.050333 -2.256820 0.000000000000000e+00 1851878480
3.796725 -2.223296 -2.252996 0.000000000000000e+00 1851878480
4.054089 -1.447227 -2.213397 0.000000000000000e+00 1851878480
4.035017 -1.656508 -2.258594 0.000000000000000e+00 1851878480
3.835802 -2.012508 -2.263056 0.000000000000000e+00 1851878480
3.699471 -2.167974 -2.244427 0.000000000000000e+00 1851878480
4.069520 -1.451331 -2.268094 0.000000000000000e+00 1634890835
3.984094 -1.634874 -2.277146 0.000000000000000e+00 1851878480
3.748838 -1.967658 -2.259831 0.000000000000000e+00 1851878480
3.596422 -2.109182 -2.230149 0.000000000000000e+00 1851878480
3.990992 -1.421937 -2.270106 0.000000000000000e+00 1634890835
3.879258 -1.591138 -2.263457 0.000000000000000e+00 1851878480
3.643830 -1.913307 -2.243719 0.000000000000000e+00 1851878480
3.534555 -2.074485 -2.239669 0.000000000000000e+00 1851878480
3.963608 -1.410789 -2.300401 0.000000000000000e+00 1634890835
3.830208 -1.570307 -2.280906 0.000000000000000e+00 1851878480
3.599044 -1.890548 -2.263207 0.000000000000000e+00 1851878480
3.446616 -2.024435 -2.231117 0.000000000000000e+00 1851878480
3.858201 -1.371905 -2.284282 0.000000000000000e+00 1634890835
3.690511 -1.512341 -2.242521 0.000000000000000e+00 1851878480
3.506953 -1.842924 -2.251620 0.000000000000000e+00 1851878480
3.391658 -1.993709 -2.242441 0.000000000000000e+00 1851878480
3.810865 -1.353713 -2.301177 0.000000000000000e+00 1634890835
3.657550 -1.498142 -2.267325 0.000000000000000e+00 1851878480
3.480868 -1.829970 -2.281324 0.000000000000000e+00 1851878480
3.320901 -1.953655 -2.242071 0.000000000000000e+00 1851878480
3.671585 -1.302914 -2.260764 0.000000000000000e+00 1634890835
3.591033 -1.470210 -2.270540 0.000000000000000e+00 1851878480
3.385059 -1.780339 -2.264176 0.000000000000000e+00 1851878480
3.255378 -1.916637 -2.243824 0.000000000000000e+00 1851878480
3.628738 -1.286390 -2.277983 0.000000000000000e+00 1634890835
3.574248 -1.462645 -2.304611 0.000000000000000e+00 1634890835
3.346835 -1.760973 -2.284221 0.000000000000000e+00 1851878480
3.226962 -1.901435 -2.270332 0.000000000000000e+00 1851878480
3.570114 -1.264296 -2.284502 0.000000000000000e+00 1634890835
3.477835 -1.422513 -2.286368 0.000000000000000e+00 1634890835
3.246865 -1.709097 -2.260724 0.000000000000000e+00 1851878480
3.093446 -1.824246 -2.221082 0.000000000000000e+00 1851878480
3.512934 -1.242743 -2.290969 0.000000000000000e+00 1634890835
3.399504 -1.389802 -2.278252 0.000000000000000e+00 1634890835
3.168033 -1.668315 -2.249966 0.000000000000000e+00 1851878480
3.054128 -1.802542 -2.237477 0.000000000000000e+00 1851878480
3.463624 -1.224003 -2.301702 0.000000000000000e+00 1634890835
3.335255 -1.362871 -2.278207 0.000000000000000e+00 1634890835
3.143258 -1.655985 -2.276653 0.000000000000000e+00 1851878480
3.007229 -1.776339 -2.247576 0.000000000000000e+00 1851878480
3.376658 -1.191994 -2.286164 0.000000000000000e+00 1634890835
3.250901 -1.327749 -2.262966 0.000000000000000e+00 1634890835
3.101685 -1.634799 -2.290745 0.000000000000000e+00 1851878480
3.013108 -1.781310 -2.297047 0.000000000000000e+00 1851878480
3.343548 -1.179025 -2.306033 0.000000000000000e+00 1634890835
3.232425 -1.319543 -2.292709 0.000000000000000e+00 1634890835
2.985152 -1.574076 -2.247724 0.000000000000000e+00 1851878480
2.896547 -1.713859 -2.252051 0.000000000000000e+00 1851878480
3.241883 -1.141925 -2.277364 0.000000000000000e+00 1634890835
3.196879 -1.304375 -2.310105 0.000000000000000e+00 1634890835
2.933953 -1.547772 -2.251986 0.000000000000000e+00 1851878480
2.816080 -1.667683 -2.232665 0.000000000000000e+00 1851878480
3.158453 -1.111304 -2.259588 0.000000000000000e+00 1634890835
3.117954 -1.271523 -2.295105 0.000000000000000e+00 1634890835
2.880893 -1.520470 -2.253814 0.000000000000000e+00 1851878480
2.808379 -1.664574 -2.270165 0.000000000000000e+00 1851878480
3.156893 -1.109509 -2.299744 0.000000000000000e+00 1634890835
3.054084 -1.244835 -2.289745 0.000000000000000e+00 1634890835
2.858186 -1.509180 -2.278796 0.000000000000000e+00 1851878480
2.689291 -1.595396 -2.216195 0.000000000000000e+00 1851878480
3.124712 -1.096952 -2.317627 0.000000000000000e+00 1634890835
3.010142 -1.226282 -2.298342 0.000000000000000e+00 1634890835
2.827168 -1.493495 -2.296885 0.000000000000000e+00 1851878480
0.860770 -0.511100 -0.723061 0.000000000000000e+00 1886740808
3.018718 -1.058523 -2.279404 0.000000000000000e+00 1634890835
2.944213 -1.198789 -2.289131 0.000000000000000e+00 1634890835
2.767839 -1.462843 -2.291151 0.000000000000000e+00 1634890835
0.847997 -0.503972 -0.726027 0.000000000000000e+00 1886740808
2.958588 -1.036231 -2.274063 0.000000000000000e+00 1634890835
2.916600 -1.186911 -2.308906 0.000000000000000e+00 1634890835
0.851546 -0.450269 -0.718127 0.000000000000000e+00 1886740808
0.836699 -0.497714 -0.730051 0.000000000000000e+00 1886740808
2.918109 -1.020848 -2.282946 0.000000000000000e+00 1634890835
2.815381 -1.145096 -2.269089 0.000000000000000e+00 1634890835
0.858161 -0.453986 -0.737224 0.000000000000000e+00 1886740808
0.792392 -0.471796 -0.704543 0.000000000000000e+00 1886740808
2.866623 -1.001637 -2.282445 0.000000000000000e+00 1634890835
2.793961 -1.135760 -2.292345 0.000000000000000e+00 1634890835
0.857481 -0.453848 -0.750333 0.000000000000000e+00 1886740808
0.809498 -0.482435 -0.733380 0.000000000000000e+00 1886740808
2.847844 -0.993871 -2.307513 0.000000000000000e+00 1634890835
2.782293 -1.130386 -2.323648 0.000000000000000e+00 1634890835
0.803704 -0.425596 -0.716290 0.000000000000000e+00 1886740808
0.787905 -0.470016 -0.727273 0.000000000000000e+00 1886740808
2.768515 -0.964998 -2.282642 0.000000000000000e+00 1634890835
0.879042 -0.356934 -0.747224 0.000000000000000e+00 1886740808
0.813983 -0.431256 -0.738819 0.000000000000000e+00 1886740808
0.752482 -0.449319 -0.707616 0.000000000000000e+00 1886740808
0.819872 -0.285420 -0.687808 0.000000000000000e+00 1886740808
0.834341 -0.338589 -0.721815 0.000000000000000e+00 1886740808
0.797008 -0.422478 -0.736690 0.000000000000000e+00 1886740808
0.702160 -0.419683 -0.672645 0.000000000000000e+00 1886740808
0.836470 -0.290831 -0.713955 0.000000000000000e+00 1886740808
0.789464 -0.320191 -0.695067 0.000000000000000e+00 1886740808
0.757439 -0.401711 -0.712921 0.000000000000000e+00 1886740808
0.752430 -0.450178 -0.734240 0.000000000000000e+00 1886740808
0.813714 -0.282557 -0.706585 0.000000000000000e+00 1886740808
0.771048 -0.312537 -0.690812 0.000000000000000e+00 1886740808
0.760527 -0.403561 -0.728878 0.000000000000000e+00 1886740808
0.735083 -0.440244 -0.730644 0.000000000000000e+00 1886740808
0.829048 -0.287506 -0.732350 0.000000000000000e+00 1886740808
0.804834 -0.326038 -0.733745 0.000000000000000e+00 1886740808
0.799643 -0.424543 -0.780297 0.000000000000000e+00 1886740808
0.776533 -0.465547 -0.786150 0.000000000000000e+00 1886740808
0.797273 -0.276123 -0.716422 0.000000000000000e+00 1886740808
0.788568 -0.319254 -0.731502 0.000000000000000e+00 1886740808
0.763627 -0.405642 -0.758663 0.000000000000000e+00 1886740808
0.777914 -0.466862 -0.802112 0.000000000000000e+00 1886740808
0.817954 -0.282905 -0.747640 0.000000000000000e+00 1886740808
0.773452 -0.312942 -0.730007 0.000000000000000e+00 1886740808
0.781833 -0.415541 -0.790802 0.000000000000000e+00 1886740808
0.750415 -0.450835 -0.788037 0.000000000000000e+00 1886740808
0.774196 -0.267406 -0.719776 0.000000000000000e+00 1886740808
0.734565 -0.297022 -0.705381 0.000000000000000e+00 1886740808
0.749002 -0.398313 -0.771273 0.000000000000000e+00 1886740808
0.765370 -0.460314 -0.818548 0.000000000000000e+00 1886740808
0.757834 -0.261393 -0.716618 0.000000000000000e+00 1886740808
0.805862 -0.325644 -0.787298 0.000000000000000e+00 1886740808
0.786501 -0.418492 -0.824486 0.000000000000000e+00 1886740808
2.084220 -1.254878 -2.270044 0.000000000000000e+00 1634890835
0.769923 -0.265189 -0.740479 0.000000000000000e+00 1886740808
0.789495 -0.318824 -0.784692 0.000000000000000e+00 1886740808
0.769630 -0.409751 -0.821324 0.000000000000000e+00 1886740808
2.058412 -1.240717 -2.283139 0.000000000000000e+00 1634890835
0.737546 -0.253675 -0.721431 0.000000000000000e+00 1886740808
0.793328 -0.320161 -0.802165 0.000000000000000e+00 1886740808
2.117175 -1.127844 -2.300015 0.000000000000000e+00 1634890835
2.042945 -1.232787 -2.307602 0.000000000000000e+00 1634890835
0.742004 -0.254837 -0.738145 0.000000000000000e+00 1886740808
0.769251 -0.310237 -0.791281 0.000000000000000e+00 1886740808
2.067567 -1.102074 -2.286494 0.000000000000000e+00 1634890835
0.803021 -0.485128 -0.923702 0.000000000000000e+00 1886740808
0.777043 -0.266477 -0.786145 0.000000000000000e+00 1886740808
0.745343 -0.300391 -0.779947 0.000000000000000e+00 1886740808
2.102245 -1.121236 -2.366611 0.000000000000000e+00 1634890835
0.791946 -0.478998 -0.927687 0.000000000000000e+00 1886740808
0.706688 -0.241985 -0.727112 0.000000000000000e+00 1886740808
0.740120 -0.298080 -0.787866 0.000000000000000e+00 1886740808
1.998951 -1.066801 -2.290758 0.000000000000000e+00 1634890835
0.771275 -0.467050 -0.920062 0.000000000000000e+00 1886740808
0.736659 -0.251862 -0.770820 0.000000000000000e+00 1886740808
2.159572 -0.869147 -2.338612 0.000000000000000e+00 1634890835
0.798900 -0.426625 -0.931977 0.000000000000000e+00 1886740808
0.795355 -0.482216 -0.966221 0.000000000000000e+00 1886740808
0.724610 -0.247357 -0.771084 0.000000000000000e+00 1886740808
2.097240 -0.843458 -2.310354 0.000000000000000e+00 1634890835
0.810465 -0.433078 -0.962470 0.000000000000000e+00 1886740808
0.794421 -0.482244 -0.982835 0.000000000000000e+00 1886740808
0.755683 -0.257555 -0.817803 0.000000000000000e+00 1886740808
2.050756 -0.824163 -2.298196 0.000000000000000e+00 1634890835
0.820028 -0.438472 -0.991353 0.000000000000000e+00 1886740808
1.857213 -1.128817 -2.340001 0.000000000000000e+00 1634890835
2.075673 -0.706296 -2.284451 0.000000000000000e+00 1634890835
2.044084 -0.820871 -2.330337 0.000000000000000e+00 1634890835
0.809350 -0.433050 -0.996077 0.000000000000000e+00 1886740808
1.783611 -1.085470 -2.288711 0.000000000000000e+00 1634890835
2.057762 -0.699048 -2.303228 0.000000000000000e+00 1634890835
1.994052 -0.800174 -2.312653 0.000000000000000e+00 1634890835
0.822049 -0.440142 -1.029966 0.000000000000000e+00 1886740808
0.762242 -0.464491 -0.996174 0.000000000000000e+00 1886740808
2.015721 -0.683617 -2.294554 0.000000000000000e+00 1634890835
1.940494 -0.778082 -2.289546 0.000000000000000e+00 1634890835
0.792318 -0.424515 -1.010666 0.000000000000000e+00 1886740808
1.746021 -1.065397 -2.324135 0.000000000000000e+00 1634890835
1.984435 -0.671854 -2.297414 0.000000000000000e+00 1634890835
0.831965 -0.333333 -0.998658 0.000000000000000e+00 1886740808
1.777387 -0.952973 -2.308291 0.000000000000000e+00 1634890835
1.693809 -1.034942 -2.296500 0.000000000000000e+00 1634890835
1.967848 -0.665075 -2.317074 0.000000000000000e+00 1634890835
0.799473 -0.320057 -0.976346 0.000000000000000e+00 1886740808
0.785641 -0.421535 -1.038849 0.000000000000000e+00 1886740808
1.657926 -1.014420 -2.289706 0.000000000000000e+00 1634890835
1.901485 -0.641501 -2.277197 0.000000000000000e+00 1634890835
0.780314 -0.312132 -0.969556 0.000000000000000e+00 1886740808
1.725163 -0.926309 -2.322734 0.000000000000000e+00 1634890835
1.647971 -1.009755 -2.318478 0.000000000000000e+00 1634890835
0.802275 -0.270170 -0.977250 0.000000000000000e+00 1886740808
0.784414 -0.313510 -0.991679 0.000000000000000e+00 1886740808
1.706508 -0.916977 -2.339614 0.000000000000000e+00 1634890835
1.608719 -0.987127 -2.305690 0.000000000000000e+00 1634890835
0.818100 -0.274987 -1.013635 0.000000000000000e+00 1886740808
0.787362 -0.314421 -1.012846 0.000000000000000e+00 1886740808
1.626171 -0.874474 -2.270364 0.000000000000000e+00 1634890835
1.578530 -0.970033 -2.305007 0.000000000000000e+00 1634890835
0.794482 -0.266542 -1.001317 0.000000000000000e+00 1886740808
0.775586 -0.309448 -1.015230 0.000000000000000e+00 1886740808
1.599777 -0.860950 -2.274638 0.000000000000000e+00 1634890835
1.536205 -0.945445 -2.285606 0.000000000000000e+00 1634890835
0.795251 -0.266282 -1.019592 0.000000000000000e+00 1886740808
1.729442 -0.689411 -2.303730 0.000000000000000e+00 1634890835
1.594118 -0.858586 -2.308498 0.000000000000000e+00 1634890835
1.516967 -0.935044 -2.299845 0.000000000000000e+00 1634890835
0.768204 -0.256716 -1.001977 0.000000000000000e+00 1886740808
1.692369 -0.674020 -2.294241 0.000000000000000e+00 1634890835
1.575451 -0.849222 -2.323836 0.000000000000000e+00 1634890835
1.501837 -0.927176 -2.320361 0.000000000000000e+00 1634890835
0.795921 -0.265438 -1.056177 0.000000000000000e+00 1886740808
0.767402 -0.305350 -1.058805 0.000000000000000e+00 1886740808
1.559320 -0.841225 -2.342964 0.000000000000000e+00 1634890835
1.451899 -0.897791 -2.286246 0.000000000000000e+00 1634890835
1.699903 -0.565738 -2.295124 0.000000000000000e+00 1634890835
1.651227 -0.656399 -2.318897 0.000000000000000e+00 1634890835
1.520940 -0.821217 -2.328166 0.000000000000000e+00 1634890835
1.417613 -0.878037 -2.275332 0.000000000000000e+00 1634890835
0.737823 -0.245030 -1.013633 0.000000000000000e+00 1886740808
1.587897 -0.630610 -2.269935 0.000000000000000e+00 1634890835
1.484680 -0.802340 -2.315531 0.000000000000000e+00 1634890835
1.404562 -0.871424 -2.298148 0.000000000000000e+00 1634890835
1.654576 -0.548287 -2.313109 0.000000000000000e+00 1634890835
1.582821 -0.627967 -2.303442 0.000000000000000e+00 1634890835
1.462247 -0.790920 -2.323813 0.000000000000000e+00 1634890835
1.367493 -0.849893 -2.281210 0.000000000000000e+00 1634890835
1.624478 -0.537114 -2.311218 0.000000000000000e+00 1634890835
1.581998 -0.627001 -2.343943 0.000000000000000e+00 1634890835
1.452522 -0.786378 -2.352429 0.000000000000000e+00 1634890835
1.373275 -0.855000 -2.335917 0.000000000000000e+00 1634890835
1.569899 -0.517882 -2.273291 0.000000000000000e+00 1634890835
1.491923 -0.590683 -2.250746 0.000000000000000e+00 1634890835
1.378592 -0.747051 -2.275603 0.000000000000000e+00 1634890835
1.327960 -0.828291 -2.303588 0.000000000000000e+00 1634890835
1.526696 -0.502448 -2.250268 0.000000000000000e+00 1634890835
1.480222 -0.585420 -2.274005 0.000000000000000e+00 1634890835
1.388390 -0.753084 -2.336126 0.000000000000000e+00 1634890835
1.290244 -0.806267 -2.282837 0.000000000000000e+00 1634890835
1.521626 -0.499575 -2.283138 0.000000000000000e+00 1634890835
1.471439 -0.581307 -2.302188 0.000000000000000e+00 1634890835
1.337196 -0.726030 -2.293846 0.000000000000000e+00 1634890835
1.267553 -0.793604 -2.287813 0.000000000000000e+00 1634890835
1.514752 -0.496088 -2.313959 0.000000000000000e+00 1634890835
1.447449 -0.571184 -2.306683 0.000000000000000e+00 1634890835
1.333779 -0.724906 -2.332929 0.000000000000000e+00 1634890835
1.231182 -0.772347 -2.267246 0.000000000000000e+00 1634890835
1.476995 -0.482497 -2.297384 0.000000000000000e+00 1634890835
1.405106 -0.553833 -2.281052 0.000000000000000e+00 1634890835
1.301280 -0.707978 -2.321158 0.000000000000000e+00 1634890835
1.220895 -0.767441 -2.294313 0.000000000000000e+00 1634890835
1.446019 -0.471146 -2.290453 0.000000000000000e+00 1634890835
1.363890 -0.536948 -2.255824 0.000000000000000e+00 1634890835
1.277723 -0.695902 -2.324653 0.000000000000000e+00 1634890835
1.210659 -0.762585 -2.322061 0.000000000000000e+00 1634890835
1.413893 -0.459444 -2.280937 0.000000000000000e+00 1634890835
1.367142 -0.537569 -2.304099 0.000000000000000e+00 1634890835
1.251691 -0.682471 -2.323175 0.000000000000000e+00 1634890835
1.153593 -0.728190 -2.258739 0.000000000000000e+00 1634890835
1.387667 -0.449679 -2.280293 0.000000000000000e+00 1634890835
1.343789 -0.527721 -2.308049 0.000000000000000e+00 1634890835
1.250090 -0.682368 -2.367384 0.000000000000000e+00 1634890835
1.132246 -0.716286 -2.263625 0.000000000000000e+00 1634890835
1.380180 -0.445984 -2.310533 0.000000000000000e+00 1634890835
1.319553 -0.517532 -2.310127 0.000000000000000e+00 1634890835
1.205786 -0.658947 -2.330367 0.000000000000000e+00 1634890835
1.124139 -0.712765 -2.295238 0.000000000000000e+00 1634890835
1.329411 -0.428321 -2.267633 0.000000000000000e+00 1634890835
1.272642 -0.498468 -2.271343 0.000000000000000e+00 1634890835
1.171551 -0.641004 -2.311161 0.000000000000000e+00 1634890835
1.108707 -0.704617 -2.312420 0.000000000000000e+00 1634890835
1.318305 -0.423464 -2.291583 0.000000000000000e+00 1634890835
1.273683 -0.498191 -2.317830 0.000000000000000e+00 1634890835
1.172548 -0.642339 -2.361607 0.000000000000000e+00 1634890835
1.090741 -0.694864 -2.324435 0.000000000000000e+00 1634890835
1.263951 -0.404743 -2.239385 0.000000000000000e+00 1634890835
1.223830 -0.478014 -2.271249 0.000000000000000e+00 1634890835
1.104701 -0.605940 -2.272098 0.000000000000000e+00 1634890835
1.061226 -0.677735 -2.311309 0.000000000000000e+00 1634890835
1.261884 -0.402786 -2.279154 0.000000000000000e+00 1634890835
1.192705 -0.465177 -2.257793 0.000000000000000e+00 1634890835
1.099590 -0.603926 -2.310051 0.000000000000000e+00 1634890835
1.045079 -0.669128 -2.326851 0.000000000000000e+00 1634890835
1.238166 -0.393908 -2.280182 0.000000000000000e+00 1634890835
1.204101 -0.468914 -2.325467 0.000000000000000e+00 1634890835
1.080964 -0.594499 -2.320164 0.000000000000000e+00 1634890835
1.026411 -0.658911 -2.336852 0.000000000000000e+00 1634890835
1.217935 -0.386146 -2.287364 0.000000000000000e+00 1634890835
1.197048 -0.465443 -2.359107 0.000000000000000e+00 1634890835
1.066103 -0.587145 -2.338496 0.000000000000000e+00 1634890835
0.983461 -0.633061 -2.290256 0.000000000000000e+00 1634890835
1.196470 -0.377998 -2.292041 0.000000000000000e+00 1634890835
1.137593 -0.441614 -2.288280 0.000000000000000e+00 1634890835
1.036241 -0.571521 -2.323528 0.000000000000000e+00 1634890835
0.966956 -0.624194 -2.304015 0.000000000000000e+00 1634890835
1.156946 -0.364174 -2.261187 0.000000000000000e+00 1634890835
1.131072 -0.438353 -2.322745 0.000000000000000e+00 1634890835
1.008961 -0.557307 -2.313330 0.000000000000000e+00 1634890835
0.944807 -0.611676 -2.304163 0.000000000000000e+00 1634890835
1.145102 -0.359080 -2.283852 0.000000000000000e+00 1634890835
1.086871 -0.420497 -2.279215 0.000000000000000e+00 1634890835
0.981191 -0.542805 -2.301041 0.000000000000000e+00 1634890835
0.929025 -0.603277 -2.319731 0.000000000000000e+00 1634890835
1.125271 -0.351475 -2.290783 0.000000000000000e+00 1634890835
1.087022 -0.419806 -2.328385 0.000000000000000e+00 1634890835
0.967526 -0.536102 -2.321560 0.000000000000000e+00 1634890835
0.896836 -0.584201 -2.293606 0.000000000000000e+00 1634890835
1.133084 -0.352474 -2.355048 0.000000000000000e+00 1634890835
1.043003 -0.402062 -2.282600 0.000000000000000e+00 1634890835
0.951807 -0.528268 -2.337544 0.000000000000000e+00 1634890835
0.866842 -0.566499 -2.271467 0.000000000000000e+00 1634890835
1.056638 -0.327304 -2.242785 0.000000000000000e+00 1634890835
1.048137 -0.403266 -2.344306 0.000000000000000e+00 1634890835
0.923456 -0.513416 -2.322064 0.000000000000000e+00 1634890835
0.850861 -0.557932 -2.285380 0.000000000000000e+00 1634890835
1.065837 -0.328703 -2.310971 0.000000000000000e+00 1634890835
1.008093 -0.387088 -2.305046 0.000000000000000e+00 1634890835
0.903543 -0.503243 -2.327101 0.000000000000000e+00 1634890835
0.833472 -0.548448 -2.295654 0.000000000000000e+00 1634890835
1.038878 -0.318925 -2.301624 0.000000000000000e+00 1634890835
0.968639 -0.371169 -2.264959 0.000000000000000e+00 1634890835
0.877108 -0.489427 -2.314719 0.000000000000000e+00 1634890835
0.470497 -0.310730 -1.329474 0.000000000000000e+00 1936876886
1.027052 -0.313795 -2.325732 0.000000000000000e+00 1634890835
0.965931 -0.369336 -2.310516 0.000000000000000e+00 1634890835
0.854222 -0.477579 -2.310869 0.000000000000000e+00 1634890835
0.431642 -0.286153 -1.251869 0.000000000000000e+00 1936876886
0.988276 -0.300452 -2.288124 0.000000000000000e+00 1634890835
0.956702 -0.364988 -2.341830 0.000000000000000e+00 1634890835
0.835988 -0.468326 -2.319278 0.000000000000000e+00 1634890835
0.428655 -0.285298 -1.276642 0.000000000000000e+00 1936876886
0.968425 -0.292895 -2.293219 0.000000000000000e+00 1634890835
0.928469 -0.353389 -2.326596 0.000000000000000e+00 1634890835
0.479257 -0.269046 -1.364174 0.000000000000000e+00 1936876886
0.330613 -0.220954 -1.011658 0.000000000000000e+00 1953264973
0.947639 -0.285062 -2.295893 0.000000000000000e+00 1634890835
0.892051 -0.338702 -2.289211 0.000000000000000e+00 1634890835
0.450340 -0.253367 -1.315832 0.000000000000000e+00 1936876886
0.308662 -0.207174 -0.970934 0.000000000000000e+00 1953264973
0.512248 -0.153221 -1.270213 0.000000000000000e+00 1936876886
0.873434 -0.330791 -2.296388 0.000000000000000e+00 1634890835
0.370355 -0.208843 -1.111371 0.000000000000000e+00 1953264973
0.290875 -0.196116 -0.941152 0.000000000000000e+00 1953264973
0.492162 -0.146344 -1.249566 0.000000000000000e+00 1936876886
0.855193 -0.323021 -2.304537 0.000000000000000e+00 1634890835
0.336525 -0.190220 -1.037710 0.000000000000000e+00 1953264973
0.281090 -0.190414 -0.936080 0.000000000000000e+00 1953264973
0.486559 -0.143784 -1.265373 0.000000000000000e+00 1936876886
0.836709 -0.315160 -2.312036 0.000000000000000e+00 1634890835
0.310283 -0.175827 -0.983744 0.000000000000000e+00 1953264973
0.238118 -0.162103 -0.816699 0.000000000000000e+00 1953264973
