# .PCD v0.7 - Point Cloud Data file format
VERSION 0.7
FIELDS x y z rgb label
SIZE 4 4 4 4 4
TYPE F F F F U
COUNT 1 1 1 1 1
WIDTH 537
HEIGHT 1
VIEWPOINT 0 0 0 1 0 0 0
POINTS 537
DATA ascii
37.037998 -18.916624 10.333670 0.000000000000000e+00 1954047316
37.034935 -18.921198 9.944577 0.000000000000000e+00 1954047316
36.201969 -20.165310 10.270761 0.000000000000000e+00 1954047316
36.195873 -20.174421 9.878766 0.000000000000000e+00 1954047316
35.363766 -13.147697 -2.246809 0.000000000000000e+00 1851878480
29.339071 -10.899538 -2.130569 0.000000000000000e+00 1851878480
28.964058 -12.111301 -2.036869 0.000000000000000e+00 1851878480
27.313345 -14.099298 -1.749600 0.000000000000000e+00 1851878480
26.264292 -14.920741 -1.575528 0.000000000000000e+00 1851878480
26.646887 -9.891864 -2.177361 0.000000000000000e+00 1851878480
26.234232 -10.965967 -2.090733 0.000000000000000e+00 1851878480
24.938536 -12.877395 -1.846686 0.000000000000000e+00 1851878480
24.297827 -13.811728 -1.708839 0.000000000000000e+00 1851878480
24.099289 -8.939344 -2.188557 0.000000000000000e+00 1851878480
24.239830 -10.128744 -2.159199 0.000000000000000e+00 1851878480
23.161453 -11.963471 -1.946854 0.000000000000000e+00 1851878480
22.766138 -12.948726 -1.836896 0.000000000000000e+00 1851878480
22.076925 -8.182935 -2.206091 0.000000000000000e+00 1851878480
22.198738 -9.272609 -2.185908 0.000000000000000e+00 1851878480
21.797350 -11.262382 -2.050627 0.000000000000000e+00 1851878480
21.575016 -12.278510 -1.964589 0.000000000000000e+00 1851878480
20.420485 -7.563198 -2.226908 0.000000000000000e+00 1851878480
20.491314 -8.556382 -2.210534 0.000000000000000e+00 1851878480
20.632055 -10.663595 -2.148089 0.000000000000000e+00 1851878480
20.348331 -11.587268 -2.064331 0.000000000000000e+00 1851878480
18.930750 -7.006083 -2.237457 0.000000000000000e+00 1851878480
19.025923 -7.941691 -2.231708 0.000000000000000e+00 1851878480
19.390701 -10.025134 -2.213830 0.000000000000000e+00 1851878480
19.149893 -10.911291 -2.142126 0.000000000000000e+00 1851878480
17.577673 -6.500339 -2.238439 0.000000000000000e+00 1851878480
17.637129 -7.359385 -2.235265 0.000000000000000e+00 1851878480
17.892181 -9.253273 -2.223012 0.000000000000000e+00 1851878480
17.974270 -10.247540 -2.198148 0.000000000000000e+00 1851878480
16.396894 -6.059028 -2.238438 0.000000000000000e+00 1851878480
16.435158 -6.855420 -2.238342 0.000000000000000e+00 1851878480
16.575060 -8.574783 -2.226719 0.000000000000000e+00 1851878480
16.724466 -9.540688 -2.220190 0.000000000000000e+00 1851878480
15.362929 -5.672594 -2.238439 0.000000000000000e+00 1851878480
15.366798 -6.407506 -2.238438 0.000000000000000e+00 1851878480
15.432367 -7.986132 -2.229374 0.000000000000000e+00 1851878480
15.498630 -8.846679 -2.219911 0.000000000000000e+00 1851878480
14.449842 -5.331327 -2.238437 0.000000000000000e+00 1851878480
14.426387 -6.013242 -2.238438 0.000000000000000e+00 1851878480
14.431901 -7.470745 -2.231241 0.000000000000000e+00 1851878480
14.453465 -8.255037 -2.222097 0.000000000000000e+00 1851878480
13.637501 -5.027727 -2.238437 0.000000000000000e+00 1851878480
13.592609 -5.663690 -2.238438 0.000000000000000e+00 1851878480
13.574142 -7.028938 -2.236680 0.000000000000000e+00 1851878480
13.563904 -7.751622 -2.228265 0.000000000000000e+00 1851878480
12.910007 -4.755836 -2.238439 0.000000000000000e+00 1851878480
12.848191 -5.351592 -2.238438 0.000000000000000e+00 1851878480
12.793034 -6.626556 -2.238439 0.000000000000000e+00 1851878480
12.768800 -7.301624 -2.232589 0.000000000000000e+00 1851878480
12.254613 -4.510888 -2.238439 0.000000000000000e+00 1851878480
12.179394 -5.071209 -2.238439 0.000000000000000e+00 1851878480
12.086513 -6.262577 -2.238439 0.000000000000000e+00 1851878480
12.070443 -6.906458 -2.238439 0.000000000000000e+00 1851878480
11.661047 -4.289053 -2.238439 0.000000000000000e+00 1851878480
11.575189 -4.817897 -2.238438 0.000000000000000e+00 1851878480
11.452125 -5.935754 -2.238439 0.000000000000000e+00 1851878480
11.415792 -6.535830 -2.238439 0.000000000000000e+00 1851878480
11.120873 -4.087171 -2.238439 0.000000000000000e+00 1851878480
11.026565 -4.587887 -2.238439 0.000000000000000e+00 1851878480
10.879252 -5.640621 -2.238439 0.000000000000000e+00 1851878480
10.826604 -6.202274 -2.238439 0.000000000000000e+00 1851878480
10.627131 -3.902645 -2.238439 0.000000000000000e+00 1851878480
10.526118 -4.378079 -2.238439 0.000000000000000e+00 1851878480
10.359300 -5.372752 -2.238440 0.000000000000000e+00 1851878480
10.293456 -5.900445 -2.238440 0.000000000000000e+00 1851878480
10.173995 -3.733299 -2.238438 0.000000000000000e+00 1851878480
10.067684 -4.185883 -2.238439 0.000000000000000e+00 1851878480
9.885156 -5.128494 -2.238440 0.000000000000000e+00 1851878480
9.808620 -5.625967 -2.238439 0.000000000000000e+00 1851878480
9.756626 -3.577318 -2.238439 0.000000000000000e+00 1851878480
9.646156 -4.009163 -2.238439 0.000000000000000e+00 1851878480
9.450994 -4.904823 -2.238439 0.000000000000000e+00 1851878480
9.365779 -5.375267 -2.238440 0.000000000000000e+00 1851878480
9.370882 -3.433159 -2.238439 0.000000000000000e+00 1851878480
9.257176 -3.846087 -2.238439 0.000000000000000e+00 1851878480
9.051882 -4.699213 -2.238439 0.000000000000000e+00 1851878480
8.959621 -5.145336 -2.238440 0.000000000000000e+00 1851878480
9.013253 -3.299505 -2.238439 0.000000000000000e+00 1851878480
8.897071 -3.695115 -2.238439 0.000000000000000e+00 1851878480
8.683696 -4.509532 -2.238440 0.000000000000000e+00 1851878480
8.585718 -4.933660 -2.238439 0.000000000000000e+00 1851878480
8.680717 -3.175237 -2.238439 0.000000000000000e+00 1851878480
8.562683 -3.554928 -2.238439 0.000000000000000e+00 1851878480
8.342916 -4.333973 -2.238439 0.000000000000000e+00 1851878480
8.240318 -4.738128 -2.238438 0.000000000000000e+00 1851878480
8.370687 -3.059378 -2.238439 0.000000000000000e+00 1851878480
8.251315 -3.424390 -2.238439 0.000000000000000e+00 1851878480
8.026541 -4.170990 -2.238439 0.000000000000000e+00 1851878480
7.920234 -4.556930 -2.238438 0.000000000000000e+00 1851878480
8.080903 -2.951083 -2.238439 0.000000000000000e+00 1851878480
7.960615 -3.302521 -2.238438 0.000000000000000e+00 1851878480
4.416965 -2.296027 -1.278725 1.880790849211783e-38 1684957512
4.354545 -2.506971 -1.278725 1.880790849211783e-38 1684957512
4.461191 -1.627871 -1.278725 1.880790849211783e-38 1684957512
4.392154 -1.821438 -1.278725 1.880790849211783e-38 1684957512
4.259911 -2.215118 -1.278725 1.880790849211783e-38 1684957512
4.196157 -2.417308 -1.278725 1.880790849211783e-38 1684957512
4.315574 -1.573455 -1.278725 1.880790849211783e-38 1684957512
4.246383 -1.760325 -1.278725 1.880790849211783e-38 1684957512
4.112955 -2.139412 -1.278725 1.880790849211783e-38 1684957512
4.048165 -2.333533 -1.278725 1.880790849211783e-38 1684957512
4.178566 -1.522256 -1.278725 1.880790849211783e-38 1684957512
4.109360 -1.702881 -1.278725 1.880790849211783e-38 1684957512
3.975131 -2.068409 -1.278725 1.880790849211783e-38 1684957512
3.909558 -2.255067 -1.278725 1.880790849211783e-38 1684957512
4.049402 -1.473991 -1.278725 1.880790849211783e-38 1684957512
3.980298 -1.648774 -1.278725 1.880790849211783e-38 1684957512
3.845591 -2.001675 -1.278725 1.880790849211783e-38 1684957512
3.779445 -2.181413 -1.278725 1.880790849211783e-38 1684957512
3.963596 -1.441564 -1.290504 1.880790849211783e-38 1684957512
3.858511 -1.597717 -1.278725 1.880790849211783e-38 1684957512
3.723598 -1.938828 -1.278725 1.880790849211783e-38 1684957512
3.657056 -2.112132 -1.278725 1.880790849211783e-38 1684957512
3.966892 -1.441564 -1.330678 1.880790849211783e-38 1684957512
3.743382 -1.549451 -1.278725 1.880790849211783e-38 1684957512
3.608490 -1.879532 -1.278725 1.880790849211783e-38 1684957512
3.541703 -2.046832 -1.278725 1.880790849211783e-38 1684957512
3.970207 -1.441564 -1.371126 1.880790849211783e-38 1684957512
3.634364 -1.503747 -1.278725 1.880790849211783e-38 1684957512
3.499684 -1.823479 -1.278725 1.880790849211783e-38 1684957512
3.432778 -1.985175 -1.278725 1.880790849211783e-38 1684957512
3.973542 -1.441564 -1.411856 1.880790849211783e-38 1684957512
3.530965 -1.460401 -1.278725 1.880790849211783e-38 1684957512
3.396661 -1.770406 -1.278725 1.880790849211783e-38 1684957512
3.329744 -1.926851 -1.278725 1.880790849211783e-38 1684957512
3.976903 -1.441564 -1.452880 1.880790849211783e-38 1684957512
3.486784 -1.441564 -1.298854 1.880790849211783e-38 1684957512
3.298956 -1.720072 -1.278725 1.880790849211783e-38 1684957512
3.232119 -1.871589 -1.278725 1.880790849211783e-38 1684957512
3.980286 -1.441564 -1.494202 1.880790849211783e-38 1684957512
3.488148 -1.441564 -1.335714 1.880790849211783e-38 1684957512
3.206155 -1.672265 -1.278725 1.880790849211783e-38 1684957512
3.139477 -1.819148 -1.278725 1.880790849211783e-38 1684957512
3.983690 -1.441564 -1.535835 1.880790849211783e-38 1684957512
3.489522 -1.441564 -1.372825 1.880790849211783e-38 1684957512
3.117884 -1.626792 -1.278725 1.880790849211783e-38 1684957512
3.051428 -1.769309 -1.278725 1.880790849211783e-38 1684957512
3.987124 -1.441564 -1.577789 1.880790849211783e-38 1684957512
3.490907 -1.441564 -1.410194 1.880790849211783e-38 1684957512
3.033807 -1.583480 -1.278725 1.880790849211783e-38 1684957512
2.967629 -1.721874 -1.278725 1.880790849211783e-38 1684957512
3.990580 -1.441564 -1.620071 1.880790849211783e-38 1684957512
3.492304 -1.441564 -1.447831 1.880790849211783e-38 1684957512
2.953620 -1.542171 -1.278725 1.880790849211783e-38 1684957512
2.887765 -1.676670 -1.278725 1.880790849211783e-38 1684957512
3.994060 -1.441564 -1.662693 1.880790849211783e-38 1684957512
3.493703 -1.441564 -1.485740 1.880790849211783e-38 1684957512
2.877043 -1.502723 -1.278725 1.880790849211783e-38 1684957512
2.811552 -1.633532 -1.278725 1.880790849211783e-38 1684957512
3.997572 -1.441564 -1.705666 1.880790849211783e-38 1684957512
3.495119 -1.441564 -1.523935 1.880790849211783e-38 1684957512
2.803832 -1.465008 -1.278725 1.880790849211783e-38 1684957512
2.738738 -1.592318 -1.278725 1.880790849211783e-38 1684957512
4.001110 -1.441564 -1.748999 1.880790849211783e-38 1684957512
3.496542 -1.441564 -1.562421 1.880790849211783e-38 1684957512
2.757967 -1.441564 -1.290049 1.880790849211783e-38 1684957512
2.669089 -1.552894 -1.278725 1.880790849211783e-38 1684957512
4.004674 -1.441564 -1.792703 1.880790849211783e-38 1684957512
3.497979 -1.441564 -1.601210 1.880790849211783e-38 1684957512
2.756969 -1.441564 -1.322053 1.880790849211783e-38 1684957512
2.602390 -1.515143 -1.278725 1.880790849211783e-38 1684957512
4.008266 -1.441564 -1.836789 1.880790849211783e-38 1684957512
3.499423 -1.441564 -1.640309 1.880790849211783e-38 1684957512
2.755958 -1.441564 -1.354278 1.880790849211783e-38 1684957512
2.538450 -1.478952 -1.278725 1.880790849211783e-38 1684957512
4.011901 -1.441564 -1.881275 1.880790849211783e-38 1684957512
3.500881 -1.441564 -1.679730 1.880790849211783e-38 1684957512
2.754942 -1.441564 -1.386735 1.880790849211783e-38 1684957512
2.499785 -1.457454 -1.290442 1.880790849211783e-38 1684957512
4.015556 -1.441564 -1.926163 1.880790849211783e-38 1684957512
3.502353 -1.441564 -1.719482 1.880790849211783e-38 1684957512
2.753916 -1.441564 -1.419428 1.880790849211783e-38 1684957512
2.499786 -1.458493 -1.321895 1.880790849211783e-38 1684957512
4.019250 -1.441564 -1.971470 1.880790849211783e-38 1684957512
3.503833 -1.441564 -1.759573 1.880790849211783e-38 1684957512
2.752884 -1.441564 -1.452367 1.880790849211783e-38 1684957512
2.499786 -1.459541 -1.353619 1.880790849211783e-38 1684957512
4.022968 -1.441564 -2.017206 1.880790849211783e-38 1684957512
3.505328 -1.441564 -1.800017 1.880790849211783e-38 1684957512
2.751845 -1.441564 -1.485561 1.880790849211783e-38 1684957512
2.499785 -1.460598 -1.385621 1.880790849211783e-38 1684957512
4.026731 -1.441564 -2.063391 1.880790849211783e-38 1684957512
3.506840 -1.441564 -1.840824 1.880790849211783e-38 1684957512
2.750796 -1.441564 -1.519016 1.880790849211783e-38 1684957512
2.499786 -1.461665 -1.417911 1.880790849211783e-38 1684957512
4.030520 -1.441564 -2.110028 1.880790849211783e-38 1684957512
3.508361 -1.441564 -1.882003 1.880790849211783e-38 1684957512
2.749737 -1.441564 -1.552739 1.880790849211783e-38 1684957512
2.499785 -1.462743 -1.450495 1.880790849211783e-38 1684957512
4.034358 -1.441564 -2.157141 1.880790849211783e-38 1684957512
3.509897 -1.441564 -1.923567 1.880790849211783e-38 1684957512
2.748670 -1.441564 -1.586742 1.880790849211783e-38 1684957512
2.499786 -1.463831 -1.483386 1.880790849211783e-38 1684957512
4.038224 -1.441564 -2.204735 1.880790849211783e-38 1684957512
3.511445 -1.441564 -1.965525 1.880790849211783e-38 1684957512
2.747593 -1.441564 -1.621032 1.880790849211783e-38 1684957512
2.499786 -1.464931 -1.516592 1.880790849211783e-38 1684957512
4.016311 -1.432355 -2.238439 0.000000000000000e+00 1851878480
3.513009 -1.441564 -2.007893 1.880790849211783e-38 1684957512
2.746508 -1.441564 -1.655619 1.880790849211783e-38 1684957512
2.499785 -1.466041 -1.550122 1.880790849211783e-38 1684957512
4.006145 -1.427336 -2.278725 0.000000000000000e+00 1634890835
3.514591 -1.441564 -2.050681 1.880790849211783e-38 1684957512
2.745411 -1.441564 -1.690510 1.880790849211783e-38 1684957512
2.499785 -1.467163 -1.583988 1.880790849211783e-38 1684957512
3.926259 -1.397495 -2.278724 0.000000000000000e+00 1634890835
3.516185 -1.441564 -2.093904 1.880790849211783e-38 1684957512
2.744310 -1.441564 -1.725721 1.880790849211783e-38 1684957512
2.499786 -1.468296 -1.618200 1.880790849211783e-38 1684957512
3.848813 -1.368567 -2.278724 0.000000000000000e+00 1634890835
3.517796 -1.441564 -2.137571 1.880790849211783e-38 1684957512
2.743193 -1.441564 -1.761253 1.880790849211783e-38 1684957512
2.499786 -1.469442 -1.652768 1.880790849211783e-38 1684957512
3.773682 -1.340505 -2.278725 0.000000000000000e+00 1634890835
3.519421 -1.441564 -2.181698 1.880790849211783e-38 1684957512
2.742064 -1.441564 -1.797119 1.880790849211783e-38 1684957512
2.499785 -1.470601 -1.687704 1.880790849211783e-38 1684957512
3.700753 -1.313264 -2.278724 0.000000000000000e+00 1634890835
3.521065 -1.441564 -2.226300 1.880790849211783e-38 1684957512
2.740926 -1.441564 -1.833333 1.880790849211783e-38 1684957512
2.499786 -1.471774 -1.723019 1.880790849211783e-38 1684957512
3.629920 -1.286808 -2.278724 0.000000000000000e+00 1634890835
3.471621 -1.420648 -2.238439 0.000000000000000e+00 1851878480
2.739778 -1.441564 -1.869904 1.880790849211783e-38 1684957512
2.499786 -1.472958 -1.758726 1.880790849211783e-38 1684957512
3.561086 -1.261099 -2.278725 0.000000000000000e+00 1634890835
3.466208 -1.417757 -2.278724 0.000000000000000e+00 1634890835
2.738617 -1.441564 -1.906842 1.880790849211783e-38 1684957512
2.499786 -1.474157 -1.794836 1.880790849211783e-38 1684957512
3.494158 -1.236100 -2.278725 0.000000000000000e+00 1634890835
3.400208 -1.390090 -2.278724 0.000000000000000e+00 1634890835
2.737446 -1.441564 -1.944159 1.880790849211783e-38 1684957512
2.499785 -1.475370 -1.831362 1.880790849211783e-38 1684957512
3.429047 -1.211784 -2.278724 0.000000000000000e+00 1634890835
3.336013 -1.363181 -2.278724 0.000000000000000e+00 1634890835
2.736261 -1.441564 -1.981866 1.880790849211783e-38 1684957512
2.499786 -1.476598 -1.868317 1.880790849211783e-38 1684957512
3.365670 -1.188115 -2.278724 0.000000000000000e+00 1634890835
3.273540 -1.336995 -2.278725 0.000000000000000e+00 1634890835
2.735061 -1.441564 -2.019975 1.880790849211783e-38 1684957512
2.499786 -1.477841 -1.905715 1.880790849211783e-38 1684957512
3.303952 -1.165063 -2.278725 0.000000000000000e+00 1634890835
3.212710 -1.311495 -2.278725 0.000000000000000e+00 1634890835
2.733850 -1.441564 -2.058502 1.880790849211783e-38 1684957512
2.499786 -1.479099 -1.943571 1.880790849211783e-38 1684957512
3.243819 -1.142607 -2.278725 0.000000000000000e+00 1634890835
3.153453 -1.286657 -2.278725 0.000000000000000e+00 1634890835
2.732625 -1.441564 -2.097455 1.880790849211783e-38 1684957512
2.499785 -1.480373 -1.981898 1.880790849211783e-38 1684957512
3.185202 -1.120716 -2.278724 0.000000000000000e+00 1634890835
3.095699 -1.262448 -2.278724 0.000000000000000e+00 1634890835
2.731387 -1.441564 -2.136851 1.880790849211783e-38 1684957512
2.499786 -1.481666 -2.020712 1.880790849211783e-38 1684957512
3.128038 -1.099368 -2.278725 0.000000000000000e+00 1634890835
3.039385 -1.238844 -2.278724 0.000000000000000e+00 1634890835
2.730130 -1.441564 -2.176698 1.880790849211783e-38 1684957512
2.499786 -1.482973 -2.060027 1.880790849211783e-38 1684957512
3.072263 -1.078539 -2.278724 0.000000000000000e+00 1634890835
2.984448 -1.215814 -2.278724 0.000000000000000e+00 1634890835
2.728864 -1.441564 -2.217020 1.880790849211783e-38 1684957512
0.840392 -0.499001 -0.705944 0.000000000000000e+00 1886740808
3.017818 -1.058208 -2.278724 0.000000000000000e+00 1634890835
2.930829 -1.193339 -2.278724 0.000000000000000e+00 1634890835
2.704160 -1.429188 -2.238439 0.000000000000000e+00 1851878480
0.824541 -0.490031 -0.705944 0.000000000000000e+00 1886740808
2.964653 -1.038355 -2.278725 0.000000000000000e+00 1634890835
2.878475 -1.171396 -2.278724 0.000000000000000e+00 1634890835
0.837100 -0.442630 -0.705944 0.000000000000000e+00 1886740808
0.809071 -0.481279 -0.705944 0.000000000000000e+00 1886740808
2.912713 -1.018960 -2.278725 0.000000000000000e+00 1634890835
2.827336 -1.149958 -2.278725 0.000000000000000e+00 1634890835
0.821749 -0.434723 -0.705944 0.000000000000000e+00 1886740808
0.793967 -0.472734 -0.705944 0.000000000000000e+00 1886740808
2.861949 -1.000005 -2.278725 0.000000000000000e+00 1634890835
2.777360 -1.129011 -2.278724 0.000000000000000e+00 1634890835
0.806752 -0.426999 -0.705944 0.000000000000000e+00 1886740808
0.779214 -0.464387 -0.705944 0.000000000000000e+00 1886740808
2.812315 -0.981472 -2.278725 0.000000000000000e+00 1634890835
2.728502 -1.108532 -2.278725 0.000000000000000e+00 1634890835
0.792095 -0.419449 -0.705944 0.000000000000000e+00 1886740808
0.764797 -0.456231 -0.705944 0.000000000000000e+00 1886740808
2.763764 -0.963342 -2.278725 0.000000000000000e+00 1634890835
0.830480 -0.337216 -0.705944 0.000000000000000e+00 1886740808
0.777763 -0.412067 -0.705944 0.000000000000000e+00 1886740808
0.750703 -0.448257 -0.705944 0.000000000000000e+00 1886740808
0.841490 -0.292946 -0.705944 0.000000000000000e+00 1886740808
0.815995 -0.331144 -0.705944 0.000000000000000e+00 1886740808
0.763744 -0.404846 -0.705944 0.000000000000000e+00 1886740808
0.744294 -0.444867 -0.713009 0.000000000000000e+00 1886740808
0.827083 -0.287567 -0.705944 0.000000000000000e+00 1886740808
0.801818 -0.325202 -0.705944 0.000000000000000e+00 1886740808
0.750026 -0.397780 -0.705944 0.000000000000000e+00 1886740808
0.744294 -0.445310 -0.726300 0.000000000000000e+00 1886740808
0.812976 -0.282300 -0.705944 0.000000000000000e+00 1886740808
0.787937 -0.319383 -0.705944 0.000000000000000e+00 1886740808
0.744294 -0.394947 -0.713320 0.000000000000000e+00 1886740808
0.744294 -0.445761 -0.739799 0.000000000000000e+00 1886740808
0.799155 -0.277140 -0.705944 0.000000000000000e+00 1886740808
0.774339 -0.313685 -0.705944 0.000000000000000e+00 1886740808
0.744294 -0.395158 -0.726287 0.000000000000000e+00 1886740808
0.744294 -0.446219 -0.753512 0.000000000000000e+00 1886740808
0.785612 -0.272084 -0.705944 0.000000000000000e+00 1886740808
0.761016 -0.308100 -0.705944 0.000000000000000e+00 1886740808
0.744294 -0.395372 -0.739456 0.000000000000000e+00 1886740808
0.744294 -0.446685 -0.767446 0.000000000000000e+00 1886740808
0.772336 -0.267127 -0.705944 0.000000000000000e+00 1886740808
0.747956 -0.302626 -0.705944 0.000000000000000e+00 1886740808
0.744294 -0.395589 -0.752832 0.000000000000000e+00 1886740808
0.744294 -0.447157 -0.781609 0.000000000000000e+00 1886740808
0.759317 -0.262267 -0.705944 0.000000000000000e+00 1886740808
0.744294 -0.300956 -0.714724 0.000000000000000e+00 1886740808
0.744294 -0.395810 -0.766425 0.000000000000000e+00 1886740808
0.744294 -0.447639 -0.796008 0.000000000000000e+00 1886740808
0.746546 -0.257499 -0.705944 0.000000000000000e+00 1886740808
0.744294 -0.300764 -0.727148 0.000000000000000e+00 1886740808
0.744294 -0.396034 -0.780240 0.000000000000000e+00 1886740808
2.092191 -1.259677 -2.278725 0.000000000000000e+00 1634890835
0.744294 -0.256361 -0.715830 0.000000000000000e+00 1886740808
0.744294 -0.300570 -0.739766 0.000000000000000e+00 1886740808
0.744294 -0.396262 -0.794286 0.000000000000000e+00 1886740808
2.054432 -1.238318 -2.278725 0.000000000000000e+00 1634890835
0.744294 -0.255996 -0.728032 0.000000000000000e+00 1886740808
0.744294 -0.300373 -0.752585 0.000000000000000e+00 1886740808
2.097577 -1.117404 -2.278725 0.000000000000000e+00 1634890835
2.017380 -1.217359 -2.278725 0.000000000000000e+00 1634890835
0.744294 -0.255623 -0.740423 0.000000000000000e+00 1886740808
0.744294 -0.300172 -0.765610 0.000000000000000e+00 1886740808
2.060543 -1.098330 -2.278725 0.000000000000000e+00 1634890835
0.796276 -0.481053 -0.915943 0.000000000000000e+00 1886740808
0.744294 -0.255246 -0.753012 0.000000000000000e+00 1886740808
0.744294 -0.299969 -0.778849 0.000000000000000e+00 1886740808
2.024176 -1.079598 -2.278725 0.000000000000000e+00 1634890835
0.784636 -0.474577 -0.919123 0.000000000000000e+00 1886740808
0.744294 -0.254862 -0.765805 0.000000000000000e+00 1886740808
0.744294 -0.299761 -0.792310 0.000000000000000e+00 1886740808
1.988451 -1.061198 -2.278725 0.000000000000000e+00 1634890835
0.775673 -0.469713 -0.925309 0.000000000000000e+00 1886740808
0.744294 -0.254473 -0.778809 0.000000000000000e+00 1886740808
2.104270 -0.846890 -2.278725 0.000000000000000e+00 1634890835
0.797389 -0.425819 -0.930214 0.000000000000000e+00 1886740808
0.768823 -0.466130 -0.933989 0.000000000000000e+00 1886740808
0.744294 -0.254076 -0.792031 0.000000000000000e+00 1886740808
2.068528 -0.831911 -2.278725 0.000000000000000e+00 1634890835
0.785519 -0.419747 -0.932845 0.000000000000000e+00 1886740808
0.764549 -0.464111 -0.945878 0.000000000000000e+00 1886740808
0.744294 -0.253673 -0.805477 0.000000000000000e+00 1886740808
2.033382 -0.817180 -2.278725 0.000000000000000e+00 1634890835
0.776431 -0.415161 -0.938648 0.000000000000000e+00 1886740808
1.808580 -1.099258 -2.278725 0.000000000000000e+00 1634890835
2.070470 -0.704525 -2.278725 0.000000000000000e+00 1634890835
1.998812 -0.802691 -2.278725 0.000000000000000e+00 1634890835
0.769417 -0.411684 -0.946931 0.000000000000000e+00 1886740808
1.775829 -1.080734 -2.278724 0.000000000000000e+00 1634890835
2.035870 -0.691612 -2.278724 0.000000000000000e+00 1634890835
1.964798 -0.788435 -2.278725 0.000000000000000e+00 1634890835
0.764804 -0.409492 -0.958243 0.000000000000000e+00 1886740808
0.749057 -0.456456 -0.978943 0.000000000000000e+00 1886740808
2.001816 -0.678901 -2.278725 0.000000000000000e+00 1634890835
1.931322 -0.774404 -2.278725 0.000000000000000e+00 1634890835
0.767164 -0.411038 -0.978580 0.000000000000000e+00 1886740808
1.711906 -1.044580 -2.278725 0.000000000000000e+00 1634890835
1.968291 -0.666388 -2.278725 0.000000000000000e+00 1634890835
0.797683 -0.319597 -0.957507 0.000000000000000e+00 1886740808
1.754621 -0.940767 -2.278725 0.000000000000000e+00 1634890835
1.680699 -1.026931 -2.278725 0.000000000000000e+00 1634890835
1.935279 -0.654067 -2.278725 0.000000000000000e+00 1634890835
0.785811 -0.314588 -0.959661 0.000000000000000e+00 1886740808
0.751064 -0.402983 -0.993127 0.000000000000000e+00 1886740808
1.649974 -1.009555 -2.278725 0.000000000000000e+00 1634890835
1.902760 -0.641932 -2.278724 0.000000000000000e+00 1634890835
0.776731 -0.310699 -0.965105 0.000000000000000e+00 1886740808
1.692476 -0.908758 -2.278725 0.000000000000000e+00 1634890835
1.619715 -0.992442 -2.278725 0.000000000000000e+00 1634890835
0.796759 -0.268312 -0.970531 0.000000000000000e+00 1886740808
0.769655 -0.307611 -0.973021 0.000000000000000e+00 1886740808
1.662096 -0.893112 -2.278725 0.000000000000000e+00 1634890835
1.589905 -0.975583 -2.278725 0.000000000000000e+00 1634890835
0.785168 -0.263918 -0.972832 0.000000000000000e+00 1886740808
0.764879 -0.305442 -0.983924 0.000000000000000e+00 1886740808
1.632160 -0.877694 -2.278725 0.000000000000000e+00 1634890835
1.560532 -0.958972 -2.278725 0.000000000000000e+00 1634890835
0.776222 -0.260416 -0.978303 0.000000000000000e+00 1886740808
0.765615 -0.305470 -1.002178 0.000000000000000e+00 1886740808
1.602652 -0.862497 -2.278725 0.000000000000000e+00 1634890835
1.531580 -0.942599 -2.278725 0.000000000000000e+00 1634890835
0.769282 -0.257587 -0.986297 0.000000000000000e+00 1886740808
1.710670 -0.681928 -2.278725 0.000000000000000e+00 1634890835
1.573559 -0.847513 -2.278725 0.000000000000000e+00 1634890835
1.503036 -0.926457 -2.278725 0.000000000000000e+00 1634890835
0.764661 -0.255532 -0.997355 0.000000000000000e+00 1886740808
1.680923 -0.669461 -2.278725 0.000000000000000e+00 1634890835
1.544868 -0.832736 -2.278725 0.000000000000000e+00 1634890835
1.474888 -0.910540 -2.278725 0.000000000000000e+00 1634890835
0.766225 -0.255535 -1.016772 0.000000000000000e+00 1886740808
0.744042 -0.296055 -1.026574 0.000000000000000e+00 1886740808
1.516566 -0.818160 -2.278725 0.000000000000000e+00 1634890835
1.447123 -0.894838 -2.278725 0.000000000000000e+00 1634890835
1.687757 -0.561695 -2.278725 0.000000000000000e+00 1634890835
1.622622 -0.645028 -2.278725 0.000000000000000e+00 1634890835
1.488641 -0.803778 -2.278725 0.000000000000000e+00 1634890835
1.419727 -0.879346 -2.278725 0.000000000000000e+00 1634890835
0.752074 -0.249763 -1.033212 0.000000000000000e+00 1886740808
1.594045 -0.633051 -2.278724 0.000000000000000e+00 1634890835
1.461081 -0.789586 -2.278724 0.000000000000000e+00 1634890835
1.392691 -0.864059 -2.278725 0.000000000000000e+00 1634890835
1.629981 -0.540137 -2.278725 0.000000000000000e+00 1634890835
1.565836 -0.621228 -2.278725 0.000000000000000e+00 1634890835
1.433876 -0.775575 -2.278725 0.000000000000000e+00 1634890835
1.366003 -0.848967 -2.278725 0.000000000000000e+00 1634890835
1.601640 -0.529563 -2.278725 0.000000000000000e+00 1634890835
1.537980 -0.609555 -2.278724 0.000000000000000e+00 1634890835
1.407013 -0.761740 -2.278725 0.000000000000000e+00 1634890835
1.339652 -0.834066 -2.278725 0.000000000000000e+00 1634890835
1.573651 -0.519119 -2.278725 0.000000000000000e+00 1634890835
1.510469 -0.598025 -2.278725 0.000000000000000e+00 1634890835
1.380483 -0.748076 -2.278725 0.000000000000000e+00 1634890835
1.313627 -0.819351 -2.278725 0.000000000000000e+00 1634890835
1.546003 -0.508802 -2.278725 0.000000000000000e+00 1634890835
1.483294 -0.586635 -2.278725 0.000000000000000e+00 1634890835
1.354276 -0.734580 -2.278725 0.000000000000000e+00 1634890835
1.287919 -0.804814 -2.278724 0.000000000000000e+00 1634890835
1.518685 -0.498609 -2.278725 0.000000000000000e+00 1634890835
1.456442 -0.575382 -2.278725 0.000000000000000e+00 1634890835
1.328381 -0.721244 -2.278725 0.000000000000000e+00 1634890835
1.262519 -0.790451 -2.278725 0.000000000000000e+00 1634890835
1.491687 -0.488534 -2.278724 0.000000000000000e+00 1634890835
1.429905 -0.564261 -2.278725 0.000000000000000e+00 1634890835
1.302790 -0.708063 -2.278724 0.000000000000000e+00 1634890835
1.237415 -0.776258 -2.278725 0.000000000000000e+00 1634890835
1.464999 -0.478578 -2.278725 0.000000000000000e+00 1634890835
1.403672 -0.553268 -2.278724 0.000000000000000e+00 1634890835
1.277492 -0.695035 -2.278725 0.000000000000000e+00 1634890835
1.212599 -0.762227 -2.278725 0.000000000000000e+00 1634890835
1.438614 -0.468734 -2.278725 0.000000000000000e+00 1634890835
1.377736 -0.542399 -2.278725 0.000000000000000e+00 1634890835
1.252479 -0.682153 -2.278725 0.000000000000000e+00 1634890835
1.188065 -0.748353 -2.278725 0.000000000000000e+00 1634890835
1.412521 -0.458998 -2.278725 0.000000000000000e+00 1634890835
1.352086 -0.531649 -2.278725 0.000000000000000e+00 1634890835
1.227742 -0.669413 -2.278725 0.000000000000000e+00 1634890835
1.163800 -0.734633 -2.278725 0.000000000000000e+00 1634890835
1.386712 -0.449370 -2.278725 0.000000000000000e+00 1634890835
1.326716 -0.521016 -2.278724 0.000000000000000e+00 1634890835
1.203273 -0.656813 -2.278725 0.000000000000000e+00 1634890835
1.139798 -0.721064 -2.278725 0.000000000000000e+00 1634890835
1.361179 -0.439844 -2.278725 0.000000000000000e+00 1634890835
1.301616 -0.510497 -2.278725 0.000000000000000e+00 1634890835
1.179065 -0.644345 -2.278725 0.000000000000000e+00 1634890835
1.116051 -0.707637 -2.278725 0.000000000000000e+00 1634890835
1.335914 -0.430416 -2.278725 0.000000000000000e+00 1634890835
1.276778 -0.500088 -2.278725 0.000000000000000e+00 1634890835
1.155109 -0.632008 -2.278725 0.000000000000000e+00 1634890835
1.092552 -0.694350 -2.278725 0.000000000000000e+00 1634890835
1.310908 -0.421088 -2.278725 0.000000000000000e+00 1634890835
1.252194 -0.489785 -2.278725 0.000000000000000e+00 1634890835
1.131397 -0.619796 -2.278724 0.000000000000000e+00 1634890835
1.069292 -0.681200 -2.278725 0.000000000000000e+00 1634890835
1.286155 -0.411853 -2.278725 0.000000000000000e+00 1634890835
1.227858 -0.479587 -2.278725 0.000000000000000e+00 1634890835
1.107923 -0.607707 -2.278725 0.000000000000000e+00 1634890835
1.046265 -0.668180 -2.278725 0.000000000000000e+00 1634890835
1.261647 -0.402710 -2.278725 0.000000000000000e+00 1634890835
1.203762 -0.469489 -2.278725 0.000000000000000e+00 1634890835
1.084679 -0.595736 -2.278725 0.000000000000000e+00 1634890835
1.023463 -0.655289 -2.278725 0.000000000000000e+00 1634890835
1.237375 -0.393656 -2.278725 0.000000000000000e+00 1634890835
1.179899 -0.459489 -2.278725 0.000000000000000e+00 1634890835
1.061657 -0.583881 -2.278725 0.000000000000000e+00 1634890835
1.000880 -0.642521 -2.278725 0.000000000000000e+00 1634890835
1.213335 -0.384687 -2.278725 0.000000000000000e+00 1634890835
1.156261 -0.449584 -2.278725 0.000000000000000e+00 1634890835
1.038853 -0.572137 -2.278725 0.000000000000000e+00 1634890835
0.978509 -0.629874 -2.278725 0.000000000000000e+00 1634890835
1.189519 -0.375802 -2.278725 0.000000000000000e+00 1634890835
1.132843 -0.439770 -2.278725 0.000000000000000e+00 1634890835
1.016260 -0.560501 -2.278725 0.000000000000000e+00 1634890835
0.956343 -0.617343 -2.278725 0.000000000000000e+00 1634890835
1.165919 -0.366998 -2.278725 0.000000000000000e+00 1634890835
1.109636 -0.430045 -2.278724 0.000000000000000e+00 1634890835
0.993868 -0.548970 -2.278725 0.000000000000000e+00 1634890835
0.934376 -0.604923 -2.278725 0.000000000000000e+00 1634890835
1.142532 -0.358273 -2.278725 0.000000000000000e+00 1634890835
1.086637 -0.420406 -2.278725 0.000000000000000e+00 1634890835
0.971675 -0.537541 -2.278725 0.000000000000000e+00 1634890835
0.912603 -0.592613 -2.278725 0.000000000000000e+00 1634890835
1.119348 -0.349625 -2.278725 0.000000000000000e+00 1634890835
1.063838 -0.410852 -2.278725 0.000000000000000e+00 1634890835
0.949674 -0.526210 -2.278725 0.000000000000000e+00 1634890835
0.891017 -0.580410 -2.278725 0.000000000000000e+00 1634890835
1.096363 -0.341051 -2.278725 0.000000000000000e+00 1634890835
1.041232 -0.401379 -2.278725 0.000000000000000e+00 1634890835
0.927857 -0.514976 -2.278725 0.000000000000000e+00 1634890835
0.869612 -0.568309 -2.278725 0.000000000000000e+00 1634890835
1.073570 -0.332549 -2.278725 0.000000000000000e+00 1634890835
1.018816 -0.391985 -2.278725 0.000000000000000e+00 1634890835
0.906221 -0.503834 -2.278725 0.000000000000000e+00 1634890835
0.848384 -0.556308 -2.278725 0.000000000000000e+00 1634890835
1.050965 -0.324117 -2.278725 0.000000000000000e+00 1634890835
0.996582 -0.382668 -2.278725 0.000000000000000e+00 1634890835
0.884760 -0.492781 -2.278725 0.000000000000000e+00 1634890835
0.827326 -0.544403 -2.278725 0.000000000000000e+00 1634890835
1.028542 -0.315752 -2.278725 0.000000000000000e+00 1634890835
0.974526 -0.373425 -2.278725 0.000000000000000e+00 1634890835
0.863469 -0.481816 -2.278725 0.000000000000000e+00 1634890835
0.451012 -0.297861 -1.274416 0.000000000000000e+00 1936876886
1.006293 -0.307452 -2.278725 0.000000000000000e+00 1634890835
0.952640 -0.364254 -2.278725 0.000000000000000e+00 1634890835
0.842339 -0.470936 -2.278725 0.000000000000000e+00 1634890835
0.433314 -0.287261 -1.256718 0.000000000000000e+00 1936876886
0.984216 -0.299218 -2.278725 0.000000000000000e+00 1634890835
0.930922 -0.355153 -2.278725 0.000000000000000e+00 1634890835
0.821370 -0.460137 -2.278725 0.000000000000000e+00 1634890835
0.421222 -0.280351 -1.254504 0.000000000000000e+00 1936876886
0.962304 -0.291044 -2.278725 0.000000000000000e+00 1634890835
0.909365 -0.346118 -2.278724 0.000000000000000e+00 1634890835
0.445943 -0.250344 -1.269347 0.000000000000000e+00 1936876886
0.335129 -0.223972 -1.025479 0.000000000000000e+00 1953264973
0.940552 -0.282930 -2.278725 0.000000000000000e+00 1634890835
0.887965 -0.337151 -2.278725 0.000000000000000e+00 1634890835
0.428906 -0.241308 -1.253206 0.000000000000000e+00 1936876886
0.306474 -0.205705 -0.964051 0.000000000000000e+00 1953264973
0.495093 -0.148090 -1.227675 0.000000000000000e+00 1936876886
0.866716 -0.328246 -2.278725 0.000000000000000e+00 1634890835
0.358557 -0.202190 -1.075969 0.000000000000000e+00 1953264973
0.281224 -0.189609 -0.909925 0.000000000000000e+00 1953264973
0.483539 -0.143780 -1.227675 0.000000000000000e+00 1936876886
0.845614 -0.319403 -2.278724 0.000000000000000e+00 1634890835
0.326696 -0.184665 -1.007401 0.000000000000000e+00 1953264973
0.258803 -0.175316 -0.861862 0.000000000000000e+00 1953264973
0.472064 -0.139500 -1.227675 0.000000000000000e+00 1936876886
0.824654 -0.310620 -2.278725 0.000000000000000e+00 1634890835
0.299056 -0.169465 -0.948150 0.000000000000000e+00 1953264973
0.238757 -0.162538 -0.818891 0.000000000000000e+00 1953264973
