# .PCD v0.7 - Point Cloud Data file format
VERSION 0.7
FIELDS x y z rgb label
SIZE 4 4 4 4 4
TYPE F F F F U
COUNT 1 1 1 1 1
WIDTH 530
HEIGHT 1
VIEWPOINT 0 0 0 1 0 0 0
POINTS 530
DATA ascii
30.133419 -11.194640 -2.188253 0.000000000000000e+00 1851878480
30.952400 -12.942724 -2.176696 0.000000000000000e+00 1851878480
26.820446 -9.956291 -2.191542 0.000000000000000e+00 1851878480
26.581240 -11.111016 -2.118387 0.000000000000000e+00 1851878480
25.603178 -13.220594 -1.895901 0.000000000000000e+00 1851878480
24.722263 -14.052994 -1.738689 0.000000000000000e+00 1851878480
24.178417 -8.968696 -2.195743 0.000000000000000e+00 1851878480
24.315895 -10.160527 -2.165974 0.000000000000000e+00 1851878480
23.250494 -12.009463 -1.954338 0.000000000000000e+00 1851878480
22.764582 -12.947841 -1.836771 0.000000000000000e+00 1851878480
22.136269 -8.204931 -2.212021 0.000000000000000e+00 1851878480
22.129265 -9.243590 -2.179067 0.000000000000000e+00 1851878480
21.743071 -11.234337 -2.045520 0.000000000000000e+00 1851878480
21.234751 -12.084863 -1.933605 0.000000000000000e+00 1851878480
20.362593 -7.541756 -2.220595 0.000000000000000e+00 1851878480
20.398752 -8.517732 -2.200549 0.000000000000000e+00 1851878480
20.461391 -10.575389 -2.130321 0.000000000000000e+00 1851878480
20.047892 -11.416184 -2.033851 0.000000000000000e+00 1851878480
19.022213 -7.039932 -2.248267 0.000000000000000e+00 1851878480
18.953838 -7.911602 -2.223253 0.000000000000000e+00 1851878480
19.197199 -9.925092 -2.191738 0.000000000000000e+00 1851878480
19.043242 -10.850525 -2.130197 0.000000000000000e+00 1851878480
17.659374 -6.530551 -2.248842 0.000000000000000e+00 1851878480
17.627752 -7.355472 -2.234076 0.000000000000000e+00 1851878480
17.838682 -9.225605 -2.216365 0.000000000000000e+00 1851878480
17.984354 -10.253290 -2.199382 0.000000000000000e+00 1851878480
16.377848 -6.051990 -2.235838 0.000000000000000e+00 1851878480
16.507235 -6.885484 -2.248158 0.000000000000000e+00 1851878480
16.605165 -8.590357 -2.230763 0.000000000000000e+00 1851878480
16.730944 -9.544382 -2.221049 0.000000000000000e+00 1851878480
15.319043 -5.656390 -2.232044 0.000000000000000e+00 1851878480
15.409392 -6.425266 -2.244643 0.000000000000000e+00 1851878480
15.462410 -8.001678 -2.233714 0.000000000000000e+00 1851878480
15.527499 -8.863157 -2.224046 0.000000000000000e+00 1851878480
14.409985 -5.316621 -2.232262 0.000000000000000e+00 1851878480
14.437008 -6.017669 -2.240086 0.000000000000000e+00 1851878480
14.481615 -7.496480 -2.238927 0.000000000000000e+00 1851878480
14.507944 -8.286153 -2.230473 0.000000000000000e+00 1851878480
13.660847 -5.036335 -2.242269 0.000000000000000e+00 1851878480
13.620049 -5.675123 -2.242957 0.000000000000000e+00 1851878480
13.607774 -7.046353 -2.242221 0.000000000000000e+00 1851878480
13.591123 -7.767178 -2.232736 0.000000000000000e+00 1851878480
12.933622 -4.764535 -2.242533 0.000000000000000e+00 1851878480
12.897768 -5.372241 -2.247076 0.000000000000000e+00 1851878480
12.811660 -6.636205 -2.241698 0.000000000000000e+00 1851878480
12.792542 -7.315201 -2.236741 0.000000000000000e+00 1851878480
12.237772 -4.504689 -2.235363 0.000000000000000e+00 1851878480
12.242258 -5.097384 -2.249993 0.000000000000000e+00 1851878480
12.123261 -6.281618 -2.245245 0.000000000000000e+00 1851878480
12.081791 -6.912950 -2.240544 0.000000000000000e+00 1851878480
11.655189 -4.286899 -2.237314 0.000000000000000e+00 1851878480
11.540290 -4.803372 -2.231689 0.000000000000000e+00 1851878480
11.469848 -5.944941 -2.241904 0.000000000000000e+00 1851878480
11.408833 -6.531846 -2.237075 0.000000000000000e+00 1851878480
11.106319 -4.081822 -2.235510 0.000000000000000e+00 1851878480
11.107417 -4.621528 -2.254853 0.000000000000000e+00 1851878480
10.904002 -5.653452 -2.243531 0.000000000000000e+00 1851878480
10.866107 -6.224904 -2.246607 0.000000000000000e+00 1851878480
10.606524 -3.895078 -2.234098 0.000000000000000e+00 1851878480
10.545800 -4.386265 -2.242624 0.000000000000000e+00 1851878480
10.407581 -5.397793 -2.248872 0.000000000000000e+00 1851878480
10.319359 -5.915292 -2.244072 0.000000000000000e+00 1851878480
10.175003 -3.733669 -2.238660 0.000000000000000e+00 1851878480
10.095856 -4.197596 -2.244702 0.000000000000000e+00 1851878480
9.929982 -5.151750 -2.248590 0.000000000000000e+00 1851878480
9.847547 -5.648295 -2.247322 0.000000000000000e+00 1851878480
9.775586 -3.584270 -2.242789 0.000000000000000e+00 1851878480
9.696104 -4.029922 -2.250030 0.000000000000000e+00 1851878480
9.522702 -4.942038 -2.255424 0.000000000000000e+00 1851878480
9.396919 -5.393139 -2.245882 0.000000000000000e+00 1851878480
9.382936 -3.437575 -2.241318 0.000000000000000e+00 1851878480
9.249321 -3.842823 -2.236539 0.000000000000000e+00 1851878480
9.031305 -4.688531 -2.233351 0.000000000000000e+00 1851878480
8.981238 -5.157750 -2.243840 0.000000000000000e+00 1851878480
9.039335 -3.309053 -2.244916 0.000000000000000e+00 1851878480
8.934124 -3.710504 -2.247761 0.000000000000000e+00 1851878480
8.721837 -4.529339 -2.248271 0.000000000000000e+00 1851878480
8.577618 -4.929006 -2.236327 0.000000000000000e+00 1851878480
8.700512 -3.182478 -2.243543 0.000000000000000e+00 1851878480
8.596078 -3.568792 -2.247169 0.000000000000000e+00 1851878480
8.410316 -4.368986 -2.256523 0.000000000000000e+00 1851878480
8.253372 -4.745634 -2.241985 0.000000000000000e+00 1851878480
8.386447 -3.065138 -2.242653 0.000000000000000e+00 1851878480
8.346795 -3.464016 -2.264341 0.000000000000000e+00 1851878480
8.071305 -4.194251 -2.250922 0.000000000000000e+00 1851878480
7.941905 -4.569398 -2.244563 0.000000000000000e+00 1851878480
8.047998 -2.939067 -2.229324 0.000000000000000e+00 1851878480
7.964739 -3.304232 -2.239598 0.000000000000000e+00 1851878480
7.809262 -4.059409 -2.260806 0.000000000000000e+00 1851878480
7.669288 -4.415315 -2.252109 0.000000000000000e+00 1851878480
7.788630 -2.842039 -2.232479 0.000000000000000e+00 1851878480
7.733150 -3.206958 -2.251418 0.000000000000000e+00 1851878480
7.529285 -3.915166 -2.260114 0.000000000000000e+00 1851878480
7.385881 -4.254833 -2.250752 0.000000000000000e+00 1851878480
7.566076 -2.758585 -2.241864 0.000000000000000e+00 1851878480
7.440604 -3.084480 -2.240610 0.000000000000000e+00 1851878480
7.207231 -3.748944 -2.240741 0.000000000000000e+00 1851878480
7.097698 -4.091413 -2.242004 0.000000000000000e+00 1851878480
7.298047 -2.658685 -2.233348 0.000000000000000e+00 1851878480
7.275911 -3.015071 -2.264072 0.000000000000000e+00 1851878480
7.065309 -3.676344 -2.272777 0.000000000000000e+00 1851878480
6.901386 -3.980779 -2.257282 0.000000000000000e+00 1851878480
7.135880 -2.597476 -2.253377 0.000000000000000e+00 1851878480
6.976132 -2.889750 -2.241178 0.000000000000000e+00 1851878480
6.784326 -3.531322 -2.255905 0.000000000000000e+00 1851878480
6.651409 -3.839047 -2.250416 0.000000000000000e+00 1851878480
6.924602 -2.518486 -2.254575 0.000000000000000e+00 1851878480
6.809326 -2.819578 -2.256636 0.000000000000000e+00 1851878480
6.524213 -3.397072 -2.240487 0.000000000000000e+00 1851878480
6.425101 -3.710815 -2.246599 0.000000000000000e+00 1851878480
6.645407 -2.414934 -2.229175 0.000000000000000e+00 1851878480
6.598505 -2.731236 -2.254024 0.000000000000000e+00 1851878480
6.421949 -3.344961 -2.275718 0.000000000000000e+00 1851878480
6.252567 -3.613503 -2.257477 0.000000000000000e+00 1851878480
6.500104 -2.360158 -2.244835 0.000000000000000e+00 1851878480
6.335947 -2.621549 -2.229258 0.000000000000000e+00 1851878480
6.205883 -3.233519 -2.267524 0.000000000000000e+00 1851878480
6.019238 -3.480924 -2.242192 0.000000000000000e+00 1851878480
6.304082 -2.287062 -2.239930 0.000000000000000e+00 1851878480
6.194508 -2.562037 -2.243316 0.000000000000000e+00 1851878480
5.970469 -3.111925 -2.247674 0.000000000000000e+00 1851878480
5.846056 -3.382986 -2.245067 0.000000000000000e+00 1851878480
6.106651 -2.213564 -2.230939 0.000000000000000e+00 1851878480
5.962155 -2.464972 -2.220948 0.000000000000000e+00 1851878480
5.804873 -3.026654 -2.250057 0.000000000000000e+00 1851878480
5.669475 -3.282964 -2.243018 0.000000000000000e+00 1851878480
6.012239 -2.177489 -2.256999 0.000000000000000e+00 1851878480
5.861382 -2.422362 -2.244494 0.000000000000000e+00 1851878480
5.676426 -2.960709 -2.263954 0.000000000000000e+00 1851878480
5.531860 -3.205398 -2.253155 0.000000000000000e+00 1851878480
5.799282 -2.098567 -2.235802 0.000000000000000e+00 1851878480
5.724906 -2.365029 -2.252255 0.000000000000000e+00 1851878480
5.479262 -2.858868 -2.247187 0.000000000000000e+00 1851878480
5.315976 -3.082361 -2.227701 0.000000000000000e+00 1851878480
5.645000 -2.040978 -2.233845 0.000000000000000e+00 1851878480
5.556545 -2.294566 -2.244634 0.000000000000000e+00 1851878480
5.368376 -2.801996 -2.262727 0.000000000000000e+00 1851878480
5.178097 -3.004430 -2.231196 0.000000000000000e+00 1851878480
5.543677 -2.002608 -2.250588 0.000000000000000e+00 1851878480
5.395549 -2.227191 -2.236873 0.000000000000000e+00 1851878480
5.179514 -2.704375 -2.242393 0.000000000000000e+00 1851878480
5.048126 -2.931001 -2.235350 0.000000000000000e+00 1851878480
5.400491 -1.949183 -2.248178 0.000000000000000e+00 1851878480
5.283466 -2.180052 -2.246859 0.000000000000000e+00 1851878480
5.114436 -2.671346 -2.273152 0.000000000000000e+00 1851878480
4.948379 -2.875043 -2.250577 0.000000000000000e+00 1851878480
5.255243 -1.895093 -2.242284 0.000000000000000e+00 1851878480
5.122815 -2.112908 -2.233640 0.000000000000000e+00 1851878480
4.946290 -2.584447 -2.255821 0.000000000000000e+00 1851878480
4.815412 -2.799707 -2.248330 0.000000000000000e+00 1851878480
5.193971 -1.871341 -2.270433 0.000000000000000e+00 1851878480
5.048330 -2.081339 -2.255834 0.000000000000000e+00 1851878480
4.840640 -2.530158 -2.264226 0.000000000000000e+00 1851878480
4.682017 -2.724029 -2.243092 0.000000000000000e+00 1851878480
5.039400 -1.814035 -2.255901 0.000000000000000e+00 1851878480
4.944283 -2.037606 -2.263261 0.000000000000000e+00 1851878480
4.708800 -2.462138 -2.258018 0.000000000000000e+00 1851878480
4.613465 -2.686014 -2.266898 0.000000000000000e+00 1851878480
4.874657 -1.753159 -2.233813 0.000000000000000e+00 1851878480
4.777427 -1.968029 -2.239357 0.000000000000000e+00 1851878480
4.615018 -2.413986 -2.267821 0.000000000000000e+00 1851878480
4.437779 -2.585539 -2.235497 0.000000000000000e+00 1851878480
4.817862 -1.731164 -2.259210 0.000000000000000e+00 1851878480
4.644177 -1.912341 -2.228286 0.000000000000000e+00 1851878480
4.491640 -2.350317 -2.260925 0.000000000000000e+00 1851878480
4.355362 -2.539315 -2.248329 0.000000000000000e+00 1851878480
4.703955 -1.688696 -2.256370 0.000000000000000e+00 1851878480
4.599766 -1.893258 -2.258257 0.000000000000000e+00 1851878480
4.414267 -2.310691 -2.275209 0.000000000000000e+00 1851878480
4.247464 -2.478171 -2.246074 0.000000000000000e+00 1851878480
4.597636 -1.649011 -2.255173 0.000000000000000e+00 1851878480
4.466305 -1.837549 -2.242912 0.000000000000000e+00 1851878480
4.277352 -2.239861 -2.256647 0.000000000000000e+00 1851878480
4.193359 -2.448361 -2.270679 0.000000000000000e+00 1851878480
4.502125 -1.613263 -2.257466 0.000000000000000e+00 1851878480
4.378882 -1.800812 -2.248594 0.000000000000000e+00 1851878480
4.136396 -2.166866 -2.232999 0.000000000000000e+00 1851878480
4.041562 -2.361442 -2.240221 0.000000000000000e+00 1851878480
4.347241 -1.556306 -2.227628 0.000000000000000e+00 1851878480
4.299907 -1.767572 -2.257124 0.000000000000000e+00 1851878480
4.094063 -2.145508 -2.260781 0.000000000000000e+00 1851878480
3.960979 -2.316048 -2.246718 0.000000000000000e+00 1851878480
4.300174 -1.538009 -2.251195 0.000000000000000e+00 1851878480
4.212682 -1.730965 -2.259825 0.000000000000000e+00 1851878480
4.020940 -2.107999 -2.270571 0.000000000000000e+00 1851878480
3.851729 -2.253830 -2.234958 0.000000000000000e+00 1851878480
4.221094 -1.508289 -2.256988 0.000000000000000e+00 1851878480
4.135872 -1.698661 -2.266627 0.000000000000000e+00 1851878480
3.982668 -2.088744 -2.299100 0.000000000000000e+00 1851878480
3.786071 -2.217057 -2.246675 0.000000000000000e+00 1851878480
4.144696 -1.479573 -2.262866 0.000000000000000e+00 1851878480
4.023541 -1.651797 -2.252170 0.000000000000000e+00 1851878480
3.812020 -2.000030 -2.249024 0.000000000000000e+00 1851878480
3.680619 -2.156926 -2.232990 0.000000000000000e+00 1851878480
4.084991 -1.456849 -2.276717 0.000000000000000e+00 1634890835
3.997236 -1.640267 -2.284657 0.000000000000000e+00 1851878480
3.727980 -1.956710 -2.247258 0.000000000000000e+00 1851878480
3.593241 -2.107316 -2.228176 0.000000000000000e+00 1851878480
4.046695 -1.441783 -2.301790 0.000000000000000e+00 1634890835
3.841666 -1.575719 -2.241523 0.000000000000000e+00 1851878480
3.639007 -1.910774 -2.240749 0.000000000000000e+00 1851878480
2.501413 -1.468117 -1.585019 1.880790849211783e-38 1684957512
3.950506 -1.406125 -2.292797 0.000000000000000e+00 1634890835
3.782099 -1.550584 -2.252257 0.000000000000000e+00 1851878480
3.611858 -1.897280 -2.271266 0.000000000000000e+00 1851878480
2.482177 -1.457954 -1.606802 1.880790849211783e-38 1684957512
3.848292 -1.368381 -2.278416 0.000000000000000e+00 1634890835
3.693634 -1.513621 -2.244418 0.000000000000000e+00 1851878480
3.526162 -1.853018 -2.263953 0.000000000000000e+00 1851878480
2.489812 -1.463580 -1.646174 1.880790849211783e-38 1684957512
3.789937 -1.346279 -2.288540 0.000000000000000e+00 1634890835
3.617468 -1.481724 -2.242478 0.000000000000000e+00 1851878480
3.466109 -1.822210 -2.271651 0.000000000000000e+00 1851878480
2.496543 -1.468693 -1.685514 1.880790849211783e-38 1684957512
3.766171 -1.336479 -2.319005 0.000000000000000e+00 1634890835
3.547688 -1.452464 -2.243134 0.000000000000000e+00 1851878480
3.401431 -1.788950 -2.275127 0.000000000000000e+00 1851878480
2.503433 -1.473922 -1.725533 1.880790849211783e-38 1684957512
3.629651 -1.286713 -2.278556 0.000000000000000e+00 1634890835
3.589000 -1.468681 -2.314123 0.000000000000000e+00 1634890835
3.331521 -1.752916 -2.273770 0.000000000000000e+00 1851878480
2.478198 -1.460238 -1.743538 1.880790849211783e-38 1684957512
3.590350 -1.271462 -2.297450 0.000000000000000e+00 1634890835
3.482780 -1.424536 -2.289620 0.000000000000000e+00 1634890835
3.233858 -1.702251 -2.251668 0.000000000000000e+00 1851878480
2.494464 -1.471018 -1.791015 1.880790849211783e-38 1684957512
3.526130 -1.247411 -2.299575 0.000000000000000e+00 1634890835
3.386091 -1.384319 -2.269264 0.000000000000000e+00 1634890835
3.196628 -1.683373 -2.270274 0.000000000000000e+00 1851878480
2.457748 -1.450559 -1.800565 1.880790849211783e-38 1684957512
3.390591 -1.198194 -2.253169 0.000000000000000e+00 1634890835
3.347771 -1.367985 -2.286756 0.000000000000000e+00 1634890835
3.105180 -1.635924 -2.249073 0.000000000000000e+00 1851878480
2.502997 -1.478494 -1.870717 1.880790849211783e-38 1684957512
3.370581 -1.189849 -2.282049 0.000000000000000e+00 1634890835
3.345132 -1.366235 -2.328560 0.000000000000000e+00 1634890835
3.087356 -1.627247 -2.280162 0.000000000000000e+00 1851878480
2.464229 -1.456820 -1.878609 1.880790849211783e-38 1684957512
3.344149 -1.179238 -2.306448 0.000000000000000e+00 1634890835
3.218312 -1.313782 -2.282698 0.000000000000000e+00 1634890835
2.990538 -1.576915 -2.251779 0.000000000000000e+00 1851878480
2.446459 -1.447546 -1.902110 1.880790849211783e-38 1684957512
3.233875 -1.139104 -2.271739 0.000000000000000e+00 1634890835
3.196347 -1.304158 -2.309721 0.000000000000000e+00 1634890835
2.919348 -1.540067 -2.240776 0.000000000000000e+00 1851878480
2.421702 -1.434132 -1.919991 1.880790849211783e-38 1684957512
3.190092 -1.122437 -2.282223 0.000000000000000e+00 1634890835
3.104880 -1.266192 -2.285482 0.000000000000000e+00 1634890835
2.905421 -1.533415 -2.273003 0.000000000000000e+00 1851878480
2.446893 -1.450315 -1.977956 1.880790849211783e-38 1684957512
3.142756 -1.104540 -2.289446 0.000000000000000e+00 1634890835
3.095776 -1.261828 -2.321003 0.000000000000000e+00 1634890835
2.852990 -1.506436 -2.274653 0.000000000000000e+00 1851878480
2.463286 -1.461321 -2.029949 1.880790849211783e-38 1684957512
3.050932 -1.071051 -2.262903 0.000000000000000e+00 1634890835
2.963801 -1.207403 -2.262960 0.000000000000000e+00 1634890835
2.822118 -1.490827 -2.292783 0.000000000000000e+00 1851878480
0.859878 -0.510570 -0.722311 0.000000000000000e+00 1886740808
3.025135 -1.060773 -2.284249 0.000000000000000e+00 1634890835
2.910835 -1.185199 -2.263180 0.000000000000000e+00 1634890835
2.799856 -1.479764 -2.317653 0.000000000000000e+00 1634890835
0.825647 -0.490689 -0.706891 0.000000000000000e+00 1886740808
2.969942 -1.040208 -2.282790 0.000000000000000e+00 1634890835
2.908417 -1.183581 -2.302428 0.000000000000000e+00 1634890835
0.858329 -0.453856 -0.723847 0.000000000000000e+00 1886740808
0.823573 -0.489906 -0.718597 0.000000000000000e+00 1886740808
2.893526 -1.012248 -2.263714 0.000000000000000e+00 1634890835
2.812826 -1.144056 -2.267030 0.000000000000000e+00 1634890835
0.833665 -0.441027 -0.716181 0.000000000000000e+00 1886740808
0.844927 -0.503076 -0.751254 0.000000000000000e+00 1886740808
2.867291 -1.001871 -2.282978 0.000000000000000e+00 1634890835
2.786879 -1.132881 -2.286534 0.000000000000000e+00 1634890835
0.839104 -0.444122 -0.734253 0.000000000000000e+00 1886740808
0.785156 -0.467928 -0.711326 0.000000000000000e+00 1886740808
2.816221 -0.982835 -2.281890 0.000000000000000e+00 1634890835
2.753393 -1.118645 -2.299513 0.000000000000000e+00 1634890835
0.850090 -0.450160 -0.757632 0.000000000000000e+00 1886740808
0.786506 -0.469181 -0.725982 0.000000000000000e+00 1886740808
2.810990 -0.979803 -2.317663 0.000000000000000e+00 1634890835
0.849408 -0.344901 -0.722033 0.000000000000000e+00 1886740808
0.805361 -0.426689 -0.730994 0.000000000000000e+00 1886740808
0.785633 -0.469114 -0.738791 0.000000000000000e+00 1886740808
0.880125 -0.306396 -0.738355 0.000000000000000e+00 1886740808
0.824620 -0.334645 -0.713405 0.000000000000000e+00 1886740808
0.792767 -0.420230 -0.732771 0.000000000000000e+00 1886740808
0.767820 -0.458928 -0.735546 0.000000000000000e+00 1886740808
0.853487 -0.296747 -0.728480 0.000000000000000e+00 1886740808
0.817727 -0.331654 -0.719950 0.000000000000000e+00 1886740808
0.798066 -0.423258 -0.751160 0.000000000000000e+00 1886740808
0.784126 -0.469142 -0.765169 0.000000000000000e+00 1886740808
0.814250 -0.282743 -0.707050 0.000000000000000e+00 1886740808
0.764390 -0.309839 -0.684847 0.000000000000000e+00 1886740808
0.777445 -0.412538 -0.745091 0.000000000000000e+00 1886740808
0.765114 -0.458230 -0.760493 0.000000000000000e+00 1886740808
0.805478 -0.279332 -0.711529 0.000000000000000e+00 1886740808
0.839967 -0.340270 -0.765774 0.000000000000000e+00 1886740808
0.748444 -0.397361 -0.730337 0.000000000000000e+00 1886740808
0.746160 -0.447338 -0.755401 0.000000000000000e+00 1886740808
0.788116 -0.272951 -0.708193 0.000000000000000e+00 1886740808
0.831575 -0.336666 -0.771397 0.000000000000000e+00 1886740808
0.785522 -0.417272 -0.780416 0.000000000000000e+00 1886740808
0.757341 -0.454515 -0.780899 0.000000000000000e+00 1886740808
0.795442 -0.275119 -0.727063 0.000000000000000e+00 1886740808
0.765732 -0.309818 -0.722721 0.000000000000000e+00 1886740808
0.777198 -0.413077 -0.786114 0.000000000000000e+00 1886740808
0.748544 -0.449711 -0.786072 0.000000000000000e+00 1886740808
0.745694 -0.257562 -0.693278 0.000000000000000e+00 1886740808
0.784089 -0.317047 -0.752938 0.000000000000000e+00 1886740808
0.769999 -0.409479 -0.792894 0.000000000000000e+00 1886740808
0.718424 -0.432079 -0.768341 0.000000000000000e+00 1886740808
0.767881 -0.264858 -0.726118 0.000000000000000e+00 1886740808
0.764395 -0.308887 -0.746786 0.000000000000000e+00 1886740808
0.781626 -0.415898 -0.819375 0.000000000000000e+00 1886740808
2.083590 -1.254499 -2.269358 0.000000000000000e+00 1634890835
0.746052 -0.256967 -0.717521 0.000000000000000e+00 1886740808
0.736770 -0.297532 -0.732288 0.000000000000000e+00 1886740808
0.731836 -0.389630 -0.780992 0.000000000000000e+00 1886740808
2.082989 -1.255530 -2.310399 0.000000000000000e+00 1634890835
0.732880 -0.252070 -0.716867 0.000000000000000e+00 1886740808
0.800064 -0.322880 -0.808976 0.000000000000000e+00 1886740808
2.120621 -1.129680 -2.303760 0.000000000000000e+00 1634890835
2.056138 -1.240748 -2.322504 0.000000000000000e+00 1634890835
0.743860 -0.255474 -0.739992 0.000000000000000e+00 1886740808
0.762890 -0.307672 -0.784738 0.000000000000000e+00 1886740808
2.119655 -1.129838 -2.344096 0.000000000000000e+00 1634890835
0.789522 -0.476973 -0.908174 0.000000000000000e+00 1886740808
0.745602 -0.255695 -0.754336 0.000000000000000e+00 1886740808
0.776190 -0.312823 -0.812226 0.000000000000000e+00 1886740808
2.059101 -1.098225 -2.318042 0.000000000000000e+00 1634890835
0.813696 -0.492153 -0.953164 0.000000000000000e+00 1886740808
0.759488 -0.260065 -0.781438 0.000000000000000e+00 1886740808
0.797150 -0.321049 -0.848575 0.000000000000000e+00 1886740808
2.017457 -1.076677 -2.311964 0.000000000000000e+00 1634890835
0.809003 -0.489896 -0.965068 0.000000000000000e+00 1886740808
0.743505 -0.254203 -0.777983 0.000000000000000e+00 1886740808
2.143269 -0.862586 -2.320957 0.000000000000000e+00 1634890835
0.830940 -0.443735 -0.969354 0.000000000000000e+00 1886740808
0.784912 -0.475884 -0.953534 0.000000000000000e+00 1886740808
0.760117 -0.259477 -0.808868 0.000000000000000e+00 1886740808
2.065387 -0.830648 -2.275265 0.000000000000000e+00 1634890835
0.799319 -0.427122 -0.949233 0.000000000000000e+00 1886740808
0.775322 -0.470650 -0.959206 0.000000000000000e+00 1886740808
0.776919 -0.264792 -0.840784 0.000000000000000e+00 1886740808
2.042676 -0.820915 -2.289140 0.000000000000000e+00 1634890835
0.807934 -0.432006 -0.976732 0.000000000000000e+00 1886740808
1.793460 -1.090068 -2.259675 0.000000000000000e+00 1634890835
2.090111 -0.711209 -2.300342 0.000000000000000e+00 1634890835
2.014602 -0.809032 -2.296726 0.000000000000000e+00 1634890835
0.796812 -0.426342 -0.980646 0.000000000000000e+00 1886740808
1.765976 -1.074737 -2.266082 0.000000000000000e+00 1634890835
2.058254 -0.699216 -2.303779 0.000000000000000e+00 1634890835
1.969197 -0.790200 -2.283827 0.000000000000000e+00 1634890835
0.789267 -0.422589 -0.988893 0.000000000000000e+00 1886740808
0.755839 -0.460589 -0.987807 0.000000000000000e+00 1886740808
2.032606 -0.689343 -2.313773 0.000000000000000e+00 1634890835
1.965365 -0.788055 -2.318892 0.000000000000000e+00 1634890835
0.807981 -0.432907 -1.030646 0.000000000000000e+00 1886740808
1.727635 -1.054178 -2.299663 0.000000000000000e+00 1634890835
1.983156 -0.671421 -2.295933 0.000000000000000e+00 1634890835
0.804869 -0.322476 -0.966133 0.000000000000000e+00 1886740808
1.760812 -0.944087 -2.286766 0.000000000000000e+00 1634890835
1.650938 -1.008746 -2.238374 0.000000000000000e+00 1634890835
1.974762 -0.667411 -2.325215 0.000000000000000e+00 1634890835
0.796287 -0.318782 -0.972454 0.000000000000000e+00 1886740808
0.773787 -0.415174 -1.023173 0.000000000000000e+00 1886740808
1.665948 -1.019328 -2.300785 0.000000000000000e+00 1634890835
1.909456 -0.644191 -2.286743 0.000000000000000e+00 1634890835
0.814657 -0.325870 -1.012229 0.000000000000000e+00 1886740808
1.714947 -0.920824 -2.308979 0.000000000000000e+00 1634890835
1.628550 -0.997855 -2.291155 0.000000000000000e+00 1634890835
0.777097 -0.261691 -0.946581 0.000000000000000e+00 1886740808
0.768795 -0.307268 -0.971934 0.000000000000000e+00 1886740808
1.657601 -0.890697 -2.272562 0.000000000000000e+00 1634890835
1.610919 -0.988477 -2.308843 0.000000000000000e+00 1634890835
0.773521 -0.260003 -0.958401 0.000000000000000e+00 1886740808
0.786757 -0.314179 -1.012067 0.000000000000000e+00 1886740808
1.633723 -0.878535 -2.280908 0.000000000000000e+00 1634890835
1.583584 -0.973138 -2.312386 0.000000000000000e+00 1634890835
0.815808 -0.273696 -1.028195 0.000000000000000e+00 1886740808
0.818019 -0.326379 -1.070774 0.000000000000000e+00 1886740808
1.630640 -0.877560 -2.318520 0.000000000000000e+00 1634890835
1.540366 -0.948006 -2.291797 0.000000000000000e+00 1634890835
0.772539 -0.258677 -0.990473 0.000000000000000e+00 1886740808
1.726573 -0.688267 -2.299908 0.000000000000000e+00 1634890835
1.611029 -0.867694 -2.332987 0.000000000000000e+00 1634890835
1.538997 -0.948623 -2.333245 0.000000000000000e+00 1634890835
0.780447 -0.260807 -1.017945 0.000000000000000e+00 1886740808
1.715266 -0.683139 -2.325280 0.000000000000000e+00 1634890835
1.607232 -0.866353 -2.370713 0.000000000000000e+00 1634890835
1.474571 -0.910343 -2.278234 0.000000000000000e+00 1634890835
0.757901 -0.252759 -1.005725 0.000000000000000e+00 1886740808
0.742743 -0.295538 -1.024782 0.000000000000000e+00 1886740808
1.529336 -0.825050 -2.297913 0.000000000000000e+00 1634890835
1.460877 -0.903343 -2.300383 0.000000000000000e+00 1634890835
1.683266 -0.560201 -2.272662 0.000000000000000e+00 1634890835
1.648562 -0.655340 -2.315154 0.000000000000000e+00 1634890835
1.501647 -0.810801 -2.298634 0.000000000000000e+00 1634890835
1.452389 -0.899576 -2.331148 0.000000000000000e+00 1634890835
0.796812 -0.264620 -1.094674 0.000000000000000e+00 1886740808
1.594132 -0.633086 -2.278848 0.000000000000000e+00 1634890835
1.488946 -0.804645 -2.322185 0.000000000000000e+00 1634890835
1.407933 -0.873516 -2.303664 0.000000000000000e+00 1634890835
1.643160 -0.544504 -2.297150 0.000000000000000e+00 1634890835
1.571594 -0.623513 -2.287105 0.000000000000000e+00 1634890835
1.458171 -0.788716 -2.317335 0.000000000000000e+00 1634890835
1.387313 -0.862211 -2.314273 0.000000000000000e+00 1634890835
1.577992 -0.521744 -2.245079 0.000000000000000e+00 1634890835
1.543085 -0.611578 -2.286288 0.000000000000000e+00 1634890835
1.433435 -0.776044 -2.321516 0.000000000000000e+00 1634890835
1.380610 -0.859567 -2.348394 0.000000000000000e+00 1634890835
1.560210 -0.514686 -2.259263 0.000000000000000e+00 1634890835
1.550993 -0.614070 -2.339859 0.000000000000000e+00 1634890835
1.384423 -0.750211 -2.285228 0.000000000000000e+00 1634890835
1.346152 -0.839638 -2.335146 0.000000000000000e+00 1634890835
1.561553 -0.513920 -2.301645 0.000000000000000e+00 1634890835
1.503835 -0.594759 -2.310282 0.000000000000000e+00 1634890835
1.393794 -0.756015 -2.345219 0.000000000000000e+00 1634890835
1.274182 -0.796230 -2.254420 0.000000000000000e+00 1634890835
1.554993 -0.510530 -2.333205 0.000000000000000e+00 1634890835
1.484196 -0.586346 -2.322148 0.000000000000000e+00 1634890835
1.358838 -0.737780 -2.330971 0.000000000000000e+00 1634890835
1.252732 -0.784324 -2.261061 0.000000000000000e+00 1634890835
1.515786 -0.496427 -2.315538 0.000000000000000e+00 1634890835
1.445893 -0.570570 -2.304203 0.000000000000000e+00 1634890835
1.319543 -0.717169 -2.308028 0.000000000000000e+00 1634890835
1.245718 -0.781466 -2.294015 0.000000000000000e+00 1634890835
1.469400 -0.480016 -2.285570 0.000000000000000e+00 1634890835
1.444776 -0.569469 -2.345453 0.000000000000000e+00 1634890835
1.287799 -0.700643 -2.297110 0.000000000000000e+00 1634890835
1.228305 -0.772099 -2.308238 0.000000000000000e+00 1634890835
1.471963 -0.479599 -2.331548 0.000000000000000e+00 1634890835
1.401413 -0.551720 -2.317886 0.000000000000000e+00 1634890835
1.264125 -0.688496 -2.299912 0.000000000000000e+00 1634890835
1.199672 -0.755664 -2.300987 0.000000000000000e+00 1634890835
1.423138 -0.462448 -2.295852 0.000000000000000e+00 1634890835
1.358916 -0.534334 -2.290235 0.000000000000000e+00 1634890835
1.252584 -0.682957 -2.324831 0.000000000000000e+00 1634890835
1.161665 -0.733285 -2.274544 0.000000000000000e+00 1634890835
1.386032 -0.449150 -2.277608 0.000000000000000e+00 1634890835
1.342118 -0.527065 -2.305179 0.000000000000000e+00 1634890835
1.250672 -0.682685 -2.368487 0.000000000000000e+00 1634890835
1.153338 -0.729630 -2.305795 0.000000000000000e+00 1634890835
1.397617 -0.451618 -2.339725 0.000000000000000e+00 1634890835
1.315641 -0.515998 -2.303279 0.000000000000000e+00 1634890835
1.179582 -0.644627 -2.279724 0.000000000000000e+00 1634890835
1.165849 -0.739212 -2.380401 0.000000000000000e+00 1634890835
1.331049 -0.428849 -2.270427 0.000000000000000e+00 1634890835
1.280685 -0.501619 -2.285698 0.000000000000000e+00 1634890835
1.181245 -0.646309 -2.330286 0.000000000000000e+00 1634890835
1.086357 -0.690412 -2.265804 0.000000000000000e+00 1634890835
1.312517 -0.421604 -2.281522 0.000000000000000e+00 1634890835
1.259879 -0.492791 -2.292708 0.000000000000000e+00 1634890835
1.145371 -0.627452 -2.306871 0.000000000000000e+00 1634890835
1.071786 -0.682789 -2.284040 0.000000000000000e+00 1634890835
1.297647 -0.415533 -2.299086 0.000000000000000e+00 1634890835
1.230710 -0.480701 -2.284018 0.000000000000000e+00 1634890835
1.143302 -0.627113 -2.351491 0.000000000000000e+00 1634890835
1.080141 -0.689815 -2.352505 0.000000000000000e+00 1634890835
1.277229 -0.407684 -2.306869 0.000000000000000e+00 1634890835
1.206599 -0.470595 -2.284093 0.000000000000000e+00 1634890835
1.112663 -0.611106 -2.337515 0.000000000000000e+00 1634890835
1.027886 -0.658120 -2.288573 0.000000000000000e+00 1634890835
1.212173 -0.385639 -2.232314 0.000000000000000e+00 1634890835
1.194387 -0.465132 -2.306706 0.000000000000000e+00 1634890835
1.083031 -0.595637 -2.324602 0.000000000000000e+00 1634890835
1.019295 -0.654343 -2.320652 0.000000000000000e+00 1634890835
1.237353 -0.392302 -2.323832 0.000000000000000e+00 1634890835
1.174574 -0.456704 -2.314814 0.000000000000000e+00 1634890835
1.069584 -0.589062 -2.346133 0.000000000000000e+00 1634890835
0.992200 -0.638686 -2.310608 0.000000000000000e+00 1634890835
1.197830 -0.378428 -2.294645 0.000000000000000e+00 1634890835
1.145828 -0.444811 -2.304845 0.000000000000000e+00 1634890835
1.030641 -0.568433 -2.310971 0.000000000000000e+00 1634890835
0.974272 -0.628916 -2.321446 0.000000000000000e+00 1634890835
1.170125 -0.368322 -2.286944 0.000000000000000e+00 1634890835
1.128848 -0.437491 -2.318178 0.000000000000000e+00 1634890835
0.991402 -0.547608 -2.273071 0.000000000000000e+00 1634890835
0.947313 -0.613298 -2.310275 0.000000000000000e+00 1634890835
1.162100 -0.364410 -2.317754 0.000000000000000e+00 1634890835
1.095602 -0.423875 -2.297525 0.000000000000000e+00 1634890835
0.969961 -0.536592 -2.274705 0.000000000000000e+00 1634890835
0.913407 -0.593135 -2.280731 0.000000000000000e+00 1634890835
1.122922 -0.350742 -2.286000 0.000000000000000e+00 1634890835
1.074408 -0.414934 -2.301366 0.000000000000000e+00 1634890835
0.969567 -0.537233 -2.326458 0.000000000000000e+00 1634890835
0.907606 -0.591216 -2.321151 0.000000000000000e+00 1634890835
1.115365 -0.346962 -2.318221 0.000000000000000e+00 1634890835
1.050669 -0.405017 -2.299378 0.000000000000000e+00 1634890835
0.942838 -0.523290 -2.315515 0.000000000000000e+00 1634890835
0.874707 -0.571639 -2.292076 0.000000000000000e+00 1634890835
1.099354 -0.340536 -2.333453 0.000000000000000e+00 1634890835
1.030473 -0.396470 -2.304798 0.000000000000000e+00 1634890835
0.915659 -0.509081 -2.302456 0.000000000000000e+00 1634890835
0.837424 -0.549121 -2.249288 0.000000000000000e+00 1634890835
1.056317 -0.325767 -2.290330 0.000000000000000e+00 1634890835
1.005548 -0.386111 -2.299227 0.000000000000000e+00 1634890835
0.888777 -0.495018 -2.289069 0.000000000000000e+00 1634890835
0.835135 -0.549542 -2.300234 0.000000000000000e+00 1634890835
1.033295 -0.317211 -2.289256 0.000000000000000e+00 1634890835
0.990167 -0.379418 -2.315300 0.000000000000000e+00 1634890835
0.893111 -0.498356 -2.356952 0.000000000000000e+00 1634890835
0.435014 -0.287296 -1.229212 0.000000000000000e+00 1936876886
1.018224 -0.311098 -2.305742 0.000000000000000e+00 1634890835
0.970712 -0.371164 -2.321953 0.000000000000000e+00 1634890835
0.863841 -0.482957 -2.336892 0.000000000000000e+00 1634890835
0.438105 -0.290437 -1.270613 0.000000000000000e+00 1936876886
0.978780 -0.297565 -2.266140 0.000000000000000e+00 1634890835
0.943026 -0.359771 -2.308353 0.000000000000000e+00 1634890835
0.839389 -0.470231 -2.328714 0.000000000000000e+00 1634890835
0.412484 -0.274535 -1.228480 0.000000000000000e+00 1936876886
0.961328 -0.290749 -2.276413 0.000000000000000e+00 1634890835
0.931324 -0.354476 -2.333751 0.000000000000000e+00 1634890835
0.466262 -0.261751 -1.327185 0.000000000000000e+00 1936876886
0.352308 -0.235453 -1.078045 0.000000000000000e+00 1953264973
0.944654 -0.284164 -2.288661 0.000000000000000e+00 1634890835
0.891720 -0.338576 -2.288361 0.000000000000000e+00 1634890835
0.452589 -0.254632 -1.322405 0.000000000000000e+00 1936876886
0.315719 -0.211911 -0.993133 0.000000000000000e+00 1953264973
0.497427 -0.148788 -1.233462 0.000000000000000e+00 1936876886
0.896812 -0.339644 -2.357852 0.000000000000000e+00 1634890835
0.379222 -0.213843 -1.137980 0.000000000000000e+00 1953264973
0.294018 -0.198235 -0.951321 0.000000000000000e+00 1953264973
0.467101 -0.138892 -1.185940 0.000000000000000e+00 1936876886
0.865728 -0.327000 -2.332925 0.000000000000000e+00 1634890835
0.343992 -0.194441 -1.060735 0.000000000000000e+00 1953264973
0.270746 -0.183406 -0.901633 0.000000000000000e+00 1953264973
0.489260 -0.144582 -1.272398 0.000000000000000e+00 1936876886
0.829313 -0.312374 -2.291598 0.000000000000000e+00 1634890835
0.320034 -0.181352 -1.014659 0.000000000000000e+00 1953264973
0.240062 -0.163426 -0.823366 0.000000000000000e+00 1953264973
