# .PCD v0.7 - Point Cloud Data file format
VERSION 0.7
FIELDS x y z rgb label
SIZE 4 4 4 4 4
TYPE F F F F U
COUNT 1 1 1 1 1
WIDTH 531
HEIGHT 1
VIEWPOINT 0 0 0 1 0 0 0
POINTS 531
DATA ascii
34.634167 -19.280010 10.200880 0.000000000000000e+00 1954047316
30.323019 -11.265077 -2.202022 0.000000000000000e+00 1851878480
31.103506 -13.005910 -2.187322 0.000000000000000e+00 1851878480
26.816570 -9.954852 -2.191226 0.000000000000000e+00 1851878480
26.507078 -11.080017 -2.112478 0.000000000000000e+00 1851878480
25.666245 -13.253160 -1.900572 0.000000000000000e+00 1851878480
24.758411 -14.073540 -1.741231 0.000000000000000e+00 1851878480
24.216604 -8.982861 -2.199211 0.000000000000000e+00 1851878480
24.313276 -10.159433 -2.165742 0.000000000000000e+00 1851878480
23.275627 -12.022445 -1.956452 0.000000000000000e+00 1851878480
22.799082 -12.967463 -1.839554 0.000000000000000e+00 1851878480
22.132378 -8.203489 -2.211632 0.000000000000000e+00 1851878480
22.139648 -9.247928 -2.180089 0.000000000000000e+00 1851878480
21.746645 -11.236184 -2.045856 0.000000000000000e+00 1851878480
21.206034 -12.068521 -1.930990 0.000000000000000e+00 1851878480
20.395924 -7.554101 -2.224230 0.000000000000000e+00 1851878480
20.375088 -8.507851 -2.197997 0.000000000000000e+00 1851878480
20.417555 -10.552732 -2.125757 0.000000000000000e+00 1851878480
20.042349 -11.413029 -2.033289 0.000000000000000e+00 1851878480
18.927895 -7.005027 -2.237120 0.000000000000000e+00 1851878480
18.973837 -7.919950 -2.225600 0.000000000000000e+00 1851878480
19.201895 -9.927520 -2.192273 0.000000000000000e+00 1851878480
18.991442 -10.821010 -2.124402 0.000000000000000e+00 1851878480
17.561686 -6.494426 -2.236403 0.000000000000000e+00 1851878480
17.620852 -7.352593 -2.233202 0.000000000000000e+00 1851878480
17.798447 -9.204797 -2.211365 0.000000000000000e+00 1851878480
17.964613 -10.242035 -2.196967 0.000000000000000e+00 1851878480
16.426054 -6.069803 -2.242419 0.000000000000000e+00 1851878480
16.400997 -6.841171 -2.233689 0.000000000000000e+00 1851878480
16.626707 -8.601501 -2.233658 0.000000000000000e+00 1851878480
16.783123 -9.574148 -2.227976 0.000000000000000e+00 1851878480
15.339067 -5.663783 -2.234962 0.000000000000000e+00 1851878480
15.388741 -6.416655 -2.241634 0.000000000000000e+00 1851878480
15.501046 -8.021672 -2.239296 0.000000000000000e+00 1851878480
15.534863 -8.867361 -2.225101 0.000000000000000e+00 1851878480
14.460905 -5.335409 -2.240151 0.000000000000000e+00 1851878480
14.482576 -6.036663 -2.247156 0.000000000000000e+00 1851878480
14.495072 -7.503446 -2.241008 0.000000000000000e+00 1851878480
14.488074 -8.274804 -2.227417 0.000000000000000e+00 1851878480
13.657390 -5.035059 -2.241702 0.000000000000000e+00 1851878480
13.587062 -5.661378 -2.237525 0.000000000000000e+00 1851878480
13.662759 -7.074826 -2.251282 0.000000000000000e+00 1851878480
13.599173 -7.771778 -2.234058 0.000000000000000e+00 1851878480
12.869744 -4.741004 -2.231458 0.000000000000000e+00 1851878480
12.914683 -5.379287 -2.250023 0.000000000000000e+00 1851878480
12.809965 -6.635327 -2.241401 0.000000000000000e+00 1851878480
12.798391 -7.318546 -2.237763 0.000000000000000e+00 1851878480
12.246583 -4.507933 -2.236973 0.000000000000000e+00 1851878480
12.197317 -5.078672 -2.241733 0.000000000000000e+00 1851878480
12.130819 -6.285534 -2.246644 0.000000000000000e+00 1851878480
12.061592 -6.901393 -2.236798 0.000000000000000e+00 1851878480
11.695757 -4.301820 -2.245102 0.000000000000000e+00 1851878480
11.631241 -4.841228 -2.249278 0.000000000000000e+00 1851878480
11.490610 -5.955702 -2.245961 0.000000000000000e+00 1851878480
11.444053 -6.552011 -2.243981 0.000000000000000e+00 1851878480
11.119272 -4.086583 -2.238117 0.000000000000000e+00 1851878480
11.011944 -4.581804 -2.235471 0.000000000000000e+00 1851878480
10.912982 -5.658108 -2.245379 0.000000000000000e+00 1851878480
10.839795 -6.209831 -2.241166 0.000000000000000e+00 1851878480
10.629928 -3.903672 -2.239028 0.000000000000000e+00 1851878480
10.587573 -4.403640 -2.251508 0.000000000000000e+00 1851878480
10.425071 -5.406864 -2.252652 0.000000000000000e+00 1851878480
10.341103 -5.927757 -2.248801 0.000000000000000e+00 1851878480
10.232912 -3.754919 -2.251401 0.000000000000000e+00 1851878480
10.089974 -4.195150 -2.243394 0.000000000000000e+00 1851878480
9.958241 -5.166410 -2.254989 0.000000000000000e+00 1851878480
9.807517 -5.625335 -2.238187 0.000000000000000e+00 1851878480
9.786407 -3.588237 -2.245271 0.000000000000000e+00 1851878480
9.687877 -4.026503 -2.248120 0.000000000000000e+00 1851878480
9.546282 -4.954275 -2.261009 0.000000000000000e+00 1851878480
9.382751 -5.385007 -2.242496 0.000000000000000e+00 1851878480
9.370182 -3.432903 -2.238271 0.000000000000000e+00 1851878480
9.275097 -3.853532 -2.242772 0.000000000000000e+00 1851878480
9.119892 -4.734520 -2.255258 0.000000000000000e+00 1851878480
8.983025 -5.158775 -2.244287 0.000000000000000e+00 1851878480
9.039480 -3.309107 -2.244952 0.000000000000000e+00 1851878480
8.961663 -3.721941 -2.254690 0.000000000000000e+00 1851878480
8.754459 -4.546280 -2.256680 0.000000000000000e+00 1851878480
8.612069 -4.948802 -2.245309 0.000000000000000e+00 1851878480
8.708370 -3.185353 -2.245570 0.000000000000000e+00 1851878480
8.550032 -3.549675 -2.235131 0.000000000000000e+00 1851878480
8.362457 -4.344124 -2.243683 0.000000000000000e+00 1851878480
8.275406 -4.758304 -2.247970 0.000000000000000e+00 1851878480
8.360476 -3.055646 -2.235708 0.000000000000000e+00 1851878480
8.327048 -3.455820 -2.258984 0.000000000000000e+00 1851878480
8.100579 -4.209464 -2.259086 0.000000000000000e+00 1851878480
7.984211 -4.593739 -2.256519 0.000000000000000e+00 1851878480
8.116781 -2.964185 -2.248377 0.000000000000000e+00 1851878480
8.015150 -3.325145 -2.253773 0.000000000000000e+00 1851878480
7.766357 -4.037107 -2.248384 0.000000000000000e+00 1851878480
7.627624 -4.391328 -2.239874 0.000000000000000e+00 1851878480
7.845539 -2.862805 -2.248791 0.000000000000000e+00 1851878480
7.711073 -3.197803 -2.244990 0.000000000000000e+00 1851878480
7.454697 -3.876381 -2.237725 0.000000000000000e+00 1851878480
7.405128 -4.265921 -2.256618 0.000000000000000e+00 1851878480
7.597956 -2.770209 -2.251310 0.000000000000000e+00 1851878480
7.444298 -3.086011 -2.241722 0.000000000000000e+00 1851878480
7.239748 -3.765859 -2.250851 0.000000000000000e+00 1851878480
7.053566 -4.065972 -2.228064 0.000000000000000e+00 1851878480
7.384953 -2.690345 -2.259943 0.000000000000000e+00 1851878480
7.214903 -2.989790 -2.245089 0.000000000000000e+00 1851878480
6.971217 -3.627385 -2.242509 0.000000000000000e+00 1851878480
6.875232 -3.965693 -2.248728 0.000000000000000e+00 1851878480
7.136857 -2.597831 -2.253685 0.000000000000000e+00 1851878480
6.960548 -2.883295 -2.236171 0.000000000000000e+00 1851878480
6.808232 -3.543765 -2.263854 0.000000000000000e+00 1851878480
6.637527 -3.831035 -2.245719 0.000000000000000e+00 1851878480
6.955008 -2.529544 -2.264474 0.000000000000000e+00 1851878480
6.796225 -2.814153 -2.252294 0.000000000000000e+00 1851878480
6.535430 -3.402912 -2.244339 0.000000000000000e+00 1851878480
6.455524 -3.728386 -2.257237 0.000000000000000e+00 1851878480
6.681013 -2.427873 -2.241119 0.000000000000000e+00 1851878480
6.600204 -2.731940 -2.254605 0.000000000000000e+00 1851878480
6.372816 -3.319369 -2.258307 0.000000000000000e+00 1851878480
6.259876 -3.617728 -2.260116 0.000000000000000e+00 1851878480
6.470159 -2.349286 -2.234494 0.000000000000000e+00 1851878480
6.374393 -2.637457 -2.242785 0.000000000000000e+00 1851878480
6.177601 -3.218783 -2.257190 0.000000000000000e+00 1851878480
5.995222 -3.467036 -2.233246 0.000000000000000e+00 1851878480
6.274401 -2.276294 -2.229384 0.000000000000000e+00 1851878480
6.196978 -2.563059 -2.244211 0.000000000000000e+00 1851878480
5.983306 -3.118616 -2.252507 0.000000000000000e+00 1851878480
5.861570 -3.391964 -2.251024 0.000000000000000e+00 1851878480
6.175903 -2.238667 -2.256239 0.000000000000000e+00 1851878480
6.059042 -2.505029 -2.257039 0.000000000000000e+00 1851878480
5.787677 -3.017688 -2.243391 0.000000000000000e+00 1851878480
5.679730 -3.288903 -2.247075 0.000000000000000e+00 1851878480
5.923159 -2.145226 -2.223559 0.000000000000000e+00 1851878480
5.848849 -2.417183 -2.239695 0.000000000000000e+00 1851878480
5.630140 -2.936566 -2.245493 0.000000000000000e+00 1851878480
5.540793 -3.210573 -2.256793 0.000000000000000e+00 1851878480
5.835006 -2.111494 -2.249574 0.000000000000000e+00 1851878480
5.763041 -2.380783 -2.267257 0.000000000000000e+00 1851878480
5.496326 -2.867771 -2.254185 0.000000000000000e+00 1851878480
5.335212 -3.093515 -2.235763 0.000000000000000e+00 1851878480
5.699846 -2.060808 -2.255549 0.000000000000000e+00 1851878480
5.545350 -2.289943 -2.240111 0.000000000000000e+00 1851878480
5.357361 -2.796247 -2.258084 0.000000000000000e+00 1851878480
5.221724 -3.029743 -2.249995 0.000000000000000e+00 1851878480
5.541461 -2.001807 -2.249688 0.000000000000000e+00 1851878480
5.458421 -2.253144 -2.262938 0.000000000000000e+00 1851878480
5.238071 -2.734949 -2.267744 0.000000000000000e+00 1851878480
5.072188 -2.944972 -2.246005 0.000000000000000e+00 1851878480
5.391355 -1.945886 -2.244375 0.000000000000000e+00 1851878480
5.306446 -2.189534 -2.256632 0.000000000000000e+00 1851878480
5.067869 -2.647024 -2.252455 0.000000000000000e+00 1851878480
4.922499 -2.860007 -2.238806 0.000000000000000e+00 1851878480
5.256827 -1.895664 -2.242960 0.000000000000000e+00 1851878480
5.155602 -2.126431 -2.247936 0.000000000000000e+00 1851878480
4.962457 -2.592894 -2.263194 0.000000000000000e+00 1851878480
4.831098 -2.808827 -2.255654 0.000000000000000e+00 1851878480
5.147322 -1.854534 -2.250041 0.000000000000000e+00 1851878480
5.021174 -2.070143 -2.243700 0.000000000000000e+00 1851878480
4.820761 -2.519768 -2.254928 0.000000000000000e+00 1851878480
4.683727 -2.725024 -2.243911 0.000000000000000e+00 1851878480
4.922586 -1.771985 -2.203609 0.000000000000000e+00 1851878480
4.942546 -2.036890 -2.262465 0.000000000000000e+00 1851878480
4.679258 -2.446691 -2.243851 0.000000000000000e+00 1851878480
4.576319 -2.664387 -2.248646 0.000000000000000e+00 1851878480
4.956879 -1.782730 -2.271491 0.000000000000000e+00 1851878480
4.836185 -1.992235 -2.266899 0.000000000000000e+00 1851878480
4.593275 -2.402613 -2.257136 0.000000000000000e+00 1851878480
4.451154 -2.593331 -2.242235 0.000000000000000e+00 1851878480
4.786809 -1.720006 -2.244648 0.000000000000000e+00 1851878480
4.687964 -1.930372 -2.249295 0.000000000000000e+00 1851878480
4.528289 -2.369494 -2.279372 0.000000000000000e+00 1851878480
4.365376 -2.545152 -2.253498 0.000000000000000e+00 1851878480
4.704851 -1.689017 -2.256800 0.000000000000000e+00 1851878480
4.607891 -1.896602 -2.262246 0.000000000000000e+00 1851878480
4.399657 -2.303043 -2.267679 0.000000000000000e+00 1851878480
4.246180 -2.477422 -2.245395 0.000000000000000e+00 1851878480
4.558525 -1.634983 -2.235989 0.000000000000000e+00 1851878480
4.474063 -1.840741 -2.246808 0.000000000000000e+00 1851878480
4.274624 -2.238433 -2.255208 0.000000000000000e+00 1851878480
4.156452 -2.426812 -2.250694 0.000000000000000e+00 1851878480
4.498869 -1.612096 -2.255833 0.000000000000000e+00 1851878480
4.368987 -1.796743 -2.243512 0.000000000000000e+00 1851878480
4.224849 -2.213202 -2.280750 0.000000000000000e+00 1851878480
4.086360 -2.387618 -2.265053 0.000000000000000e+00 1851878480
4.373599 -1.565742 -2.241134 0.000000000000000e+00 1851878480
4.284781 -1.761354 -2.249185 0.000000000000000e+00 1851878480
4.086987 -2.141799 -2.256873 0.000000000000000e+00 1851878480
3.977193 -2.325529 -2.255915 0.000000000000000e+00 1851878480
4.305641 -1.539964 -2.254057 0.000000000000000e+00 1851878480
4.195500 -1.723906 -2.250608 0.000000000000000e+00 1851878480
4.019375 -2.107178 -2.269687 0.000000000000000e+00 1851878480
3.851237 -2.253542 -2.234673 0.000000000000000e+00 1851878480
4.223908 -1.509295 -2.258492 0.000000000000000e+00 1851878480
4.081896 -1.676492 -2.237045 0.000000000000000e+00 1851878480
3.883079 -2.036514 -2.241609 0.000000000000000e+00 1851878480
3.792550 -2.220851 -2.250519 0.000000000000000e+00 1851878480
4.110205 -1.467260 -2.244034 0.000000000000000e+00 1851878480
4.021565 -1.650985 -2.251064 0.000000000000000e+00 1851878480
3.798880 -1.993137 -2.241272 0.000000000000000e+00 1851878480
3.691776 -2.163465 -2.239759 0.000000000000000e+00 1851878480
4.143704 -1.477788 -2.309440 0.000000000000000e+00 1634890835
3.938957 -1.616352 -2.251347 0.000000000000000e+00 1851878480
3.763759 -1.975490 -2.268826 0.000000000000000e+00 1851878480
3.635407 -2.132045 -2.254323 0.000000000000000e+00 1851878480
4.007105 -1.427678 -2.279271 0.000000000000000e+00 1634890835
3.848086 -1.578352 -2.245268 0.000000000000000e+00 1851878480
3.669196 -1.926626 -2.259338 0.000000000000000e+00 1851878480
3.508630 -2.059269 -2.223242 0.000000000000000e+00 1851878480
3.944851 -1.404112 -2.289514 0.000000000000000e+00 1634890835
3.780944 -1.550110 -2.251569 0.000000000000000e+00 1851878480
3.580357 -1.880732 -2.251457 0.000000000000000e+00 1851878480
3.481515 -2.044933 -2.253708 0.000000000000000e+00 1851878480
3.860826 -1.372838 -2.285837 0.000000000000000e+00 1634890835
3.700786 -1.516552 -2.248765 0.000000000000000e+00 1851878480
3.536880 -1.858650 -2.270834 0.000000000000000e+00 1851878480
3.365154 -1.978129 -2.224918 0.000000000000000e+00 1851878480
3.795510 -1.348259 -2.291906 0.000000000000000e+00 1634890835
3.597592 -1.473583 -2.230157 0.000000000000000e+00 1851878480
3.430289 -1.803379 -2.248174 0.000000000000000e+00 1851878480
3.337567 -1.963460 -2.253323 0.000000000000000e+00 1851878480
3.738230 -1.326563 -2.301800 0.000000000000000e+00 1634890835
3.526364 -1.443734 -2.229650 0.000000000000000e+00 1851878480
3.377472 -1.776349 -2.259101 0.000000000000000e+00 1851878480
3.223233 -1.897711 -2.221668 0.000000000000000e+00 1851878480
3.645793 -1.292436 -2.288689 0.000000000000000e+00 1634890835
3.530457 -1.444725 -2.276376 0.000000000000000e+00 1634890835
3.304207 -1.738544 -2.255128 0.000000000000000e+00 1851878480
3.169288 -1.867451 -2.229755 0.000000000000000e+00 1851878480
3.569677 -1.264141 -2.284221 0.000000000000000e+00 1634890835
3.489266 -1.427189 -2.293883 0.000000000000000e+00 1634890835
3.246693 -1.709007 -2.260604 0.000000000000000e+00 1851878480
3.117906 -1.838670 -2.238644 0.000000000000000e+00 1851878480
3.527721 -1.247974 -2.300612 0.000000000000000e+00 1634890835
3.426339 -1.400773 -2.296237 0.000000000000000e+00 1634890835
3.180365 -1.674809 -2.258724 0.000000000000000e+00 1851878480
3.043403 -1.796212 -2.229620 0.000000000000000e+00 1851878480
3.442048 -1.216379 -2.287364 0.000000000000000e+00 1634890835
3.323292 -1.357983 -2.270036 0.000000000000000e+00 1634890835
3.141997 -1.655321 -2.275740 0.000000000000000e+00 1851878480
2.989209 -1.765695 -2.234108 0.000000000000000e+00 1851878480
3.370238 -1.189728 -2.281816 0.000000000000000e+00 1634890835
3.273604 -1.337021 -2.278769 0.000000000000000e+00 1634890835
3.107963 -1.638108 -2.295381 0.000000000000000e+00 1851878480
2.970527 -1.756137 -2.264585 0.000000000000000e+00 1851878480
3.328037 -1.173556 -2.295335 0.000000000000000e+00 1634890835
3.221744 -1.315183 -2.285133 0.000000000000000e+00 1634890835
2.978897 -1.570777 -2.243014 0.000000000000000e+00 1851878480
2.907547 -1.720367 -2.260603 0.000000000000000e+00 1851878480
3.252448 -1.145646 -2.284786 0.000000000000000e+00 1634890835
3.209261 -1.309427 -2.319052 0.000000000000000e+00 1634890835
2.963169 -1.563185 -2.274412 0.000000000000000e+00 1851878480
2.870295 -1.699789 -2.275648 0.000000000000000e+00 1851878480
3.157858 -1.111095 -2.259162 0.000000000000000e+00 1634890835
3.131810 -1.277174 -2.305305 0.000000000000000e+00 1634890835
2.920149 -1.541188 -2.284525 0.000000000000000e+00 1851878480
2.771943 -1.642978 -2.240711 0.000000000000000e+00 1851878480
3.164781 -1.112281 -2.305491 0.000000000000000e+00 1634890835
3.029704 -1.234898 -2.271467 0.000000000000000e+00 1634890835
2.848441 -1.504035 -2.271026 0.000000000000000e+00 1851878480
2.726171 -1.617274 -2.246587 0.000000000000000e+00 1851878480
3.090312 -1.084876 -2.292112 0.000000000000000e+00 1634890835
2.991834 -1.218824 -2.284365 0.000000000000000e+00 1634890835
2.771037 -1.463843 -2.251283 0.000000000000000e+00 1851878480
0.863832 -0.512918 -0.725633 0.000000000000000e+00 1886740808
3.030715 -1.062730 -2.288463 0.000000000000000e+00 1634890835
2.977288 -1.212256 -2.314847 0.000000000000000e+00 1634890835
2.741680 -1.449017 -2.269496 0.000000000000000e+00 1634890835
0.813620 -0.483541 -0.696594 0.000000000000000e+00 1886740808
2.990145 -1.047284 -2.298318 0.000000000000000e+00 1634890835
2.926171 -1.190806 -2.316482 0.000000000000000e+00 1634890835
0.855151 -0.452175 -0.721166 0.000000000000000e+00 1886740808
0.838244 -0.498633 -0.731398 0.000000000000000e+00 1886740808
2.972555 -1.039895 -2.325541 0.000000000000000e+00 1634890835
2.842311 -1.156049 -2.290794 0.000000000000000e+00 1634890835
0.845190 -0.447124 -0.726081 0.000000000000000e+00 1886740808
0.795247 -0.473496 -0.707082 0.000000000000000e+00 1886740808
2.922480 -1.021155 -2.326920 0.000000000000000e+00 1634890835
2.749204 -1.117566 -2.255624 0.000000000000000e+00 1634890835
0.806181 -0.426696 -0.705444 0.000000000000000e+00 1886740808
0.798919 -0.476130 -0.723796 0.000000000000000e+00 1886740808
2.807477 -0.979784 -2.274805 0.000000000000000e+00 1634890835
2.753205 -1.118568 -2.299356 0.000000000000000e+00 1634890835
0.825898 -0.437349 -0.736071 0.000000000000000e+00 1886740808
0.789424 -0.470921 -0.728675 0.000000000000000e+00 1886740808
2.790920 -0.972807 -2.301115 0.000000000000000e+00 1634890835
0.824051 -0.334605 -0.700479 0.000000000000000e+00 1886740808
0.839222 -0.444629 -0.761728 0.000000000000000e+00 1886740808
0.791339 -0.472521 -0.744157 0.000000000000000e+00 1886740808
0.836581 -0.291237 -0.701825 0.000000000000000e+00 1886740808
0.816013 -0.331152 -0.705959 0.000000000000000e+00 1886740808
0.797108 -0.422531 -0.736783 0.000000000000000e+00 1886740808
0.758420 -0.453310 -0.726541 0.000000000000000e+00 1886740808
0.839264 -0.291802 -0.716340 0.000000000000000e+00 1886740808
0.801550 -0.325093 -0.705708 0.000000000000000e+00 1886740808
0.782165 -0.414825 -0.736194 0.000000000000000e+00 1886740808
0.759689 -0.454521 -0.741323 0.000000000000000e+00 1886740808
0.855725 -0.297144 -0.743065 0.000000000000000e+00 1886740808
0.808828 -0.327851 -0.724661 0.000000000000000e+00 1886740808
0.760010 -0.403286 -0.728382 0.000000000000000e+00 1886740808
0.750317 -0.449368 -0.745786 0.000000000000000e+00 1886740808
0.808534 -0.280392 -0.714228 0.000000000000000e+00 1886740808
0.816174 -0.330632 -0.744083 0.000000000000000e+00 1886740808
0.789035 -0.418911 -0.769946 0.000000000000000e+00 1886740808
0.765980 -0.459220 -0.775466 0.000000000000000e+00 1886740808
0.772758 -0.267632 -0.694394 0.000000000000000e+00 1886740808
0.796737 -0.322562 -0.739079 0.000000000000000e+00 1886740808
0.743900 -0.395163 -0.739065 0.000000000000000e+00 1886740808
0.746682 -0.448118 -0.769909 0.000000000000000e+00 1886740808
0.830478 -0.287237 -0.759088 0.000000000000000e+00 1886740808
0.777572 -0.314609 -0.733896 0.000000000000000e+00 1886740808
0.777542 -0.413260 -0.786462 0.000000000000000e+00 1886740808
0.766179 -0.460306 -0.804591 0.000000000000000e+00 1886740808
0.780119 -0.269452 -0.725283 0.000000000000000e+00 1886740808
0.742968 -0.300420 -0.713451 0.000000000000000e+00 1886740808
0.785530 -0.417738 -0.808887 0.000000000000000e+00 1886740808
0.735372 -0.442273 -0.786467 0.000000000000000e+00 1886740808
0.737930 -0.254527 -0.697796 0.000000000000000e+00 1886740808
0.768238 -0.310440 -0.750541 0.000000000000000e+00 1886740808
0.771819 -0.410680 -0.809094 0.000000000000000e+00 1886740808
2.125352 -1.279643 -2.314843 0.000000000000000e+00 1634890835
0.740815 -0.255163 -0.712484 0.000000000000000e+00 1886740808
0.751130 -0.303331 -0.746561 0.000000000000000e+00 1886740808
0.800445 -0.426157 -0.854209 0.000000000000000e+00 1886740808
2.074903 -1.250657 -2.301431 0.000000000000000e+00 1634890835
0.764126 -0.262817 -0.747430 0.000000000000000e+00 1886740808
0.798159 -0.322111 -0.807050 0.000000000000000e+00 1886740808
2.116248 -1.127350 -2.299009 0.000000000000000e+00 1634890835
2.013526 -1.215034 -2.274372 0.000000000000000e+00 1634890835
0.739494 -0.253975 -0.735648 0.000000000000000e+00 1886740808
0.796812 -0.321352 -0.819632 0.000000000000000e+00 1886740808
2.089560 -1.113797 -2.310815 0.000000000000000e+00 1634890835
0.809551 -0.489073 -0.931213 0.000000000000000e+00 1886740808
0.740085 -0.253803 -0.748754 0.000000000000000e+00 1886740808
0.753478 -0.303670 -0.788460 0.000000000000000e+00 1886740808
2.086993 -1.113102 -2.349442 0.000000000000000e+00 1634890835
0.784572 -0.474538 -0.919049 0.000000000000000e+00 1886740808
0.759365 -0.260023 -0.781311 0.000000000000000e+00 1886740808
0.755884 -0.304429 -0.804647 0.000000000000000e+00 1886740808
2.005970 -1.070547 -2.298801 0.000000000000000e+00 1634890835
0.789421 -0.478039 -0.941709 0.000000000000000e+00 1886740808
0.725998 -0.248217 -0.759665 0.000000000000000e+00 1886740808
2.104505 -0.846985 -2.278979 0.000000000000000e+00 1634890835
0.815132 -0.435293 -0.950913 0.000000000000000e+00 1886740808
0.784850 -0.475847 -0.953460 0.000000000000000e+00 1886740808
0.748793 -0.255612 -0.796818 0.000000000000000e+00 1886740808
2.081801 -0.837249 -2.293346 0.000000000000000e+00 1634890835
0.819967 -0.438155 -0.973753 0.000000000000000e+00 1886740808
0.784739 -0.476367 -0.970856 0.000000000000000e+00 1886740808
0.745777 -0.254178 -0.807082 0.000000000000000e+00 1886740808
2.075700 -0.834187 -2.326148 0.000000000000000e+00 1634890835
0.804693 -0.430273 -0.972814 0.000000000000000e+00 1886740808
1.803050 -1.095896 -2.271757 0.000000000000000e+00 1634890835
2.077754 -0.707004 -2.286742 0.000000000000000e+00 1634890835
2.006150 -0.805638 -2.287091 0.000000000000000e+00 1634890835
0.831860 -0.445095 -1.023780 0.000000000000000e+00 1886740808
1.768331 -1.076171 -2.269103 0.000000000000000e+00 1634890835
2.053561 -0.697621 -2.298526 0.000000000000000e+00 1634890835
1.990636 -0.798803 -2.308690 0.000000000000000e+00 1634890835
0.798646 -0.427611 -1.000644 0.000000000000000e+00 1886740808
0.781780 -0.476397 -1.021708 0.000000000000000e+00 1886740808
1.990896 -0.675197 -2.266294 0.000000000000000e+00 1634890835
1.901901 -0.762607 -2.244011 0.000000000000000e+00 1634890835
0.799821 -0.428535 -1.020238 0.000000000000000e+00 1886740808
1.714499 -1.046163 -2.282177 0.000000000000000e+00 1634890835
2.024651 -0.685469 -2.343973 0.000000000000000e+00 1634890835
0.805615 -0.322775 -0.967029 0.000000000000000e+00 1886740808
1.764453 -0.946039 -2.291494 0.000000000000000e+00 1634890835
1.714499 -1.047583 -2.324552 0.000000000000000e+00 1634890835
1.961860 -0.663051 -2.310024 0.000000000000000e+00 1634890835
0.807772 -0.323380 -0.986480 0.000000000000000e+00 1886740808
0.787000 -0.422264 -1.040645 0.000000000000000e+00 1886740808
1.669022 -1.021209 -2.305031 0.000000000000000e+00 1634890835
1.909588 -0.644235 -2.286901 0.000000000000000e+00 1634890835
0.815357 -0.326149 -1.013098 0.000000000000000e+00 1886740808
1.754469 -0.942045 -2.362191 0.000000000000000e+00 1634890835
1.628060 -0.997555 -2.290465 0.000000000000000e+00 1634890835
0.791446 -0.266523 -0.964060 0.000000000000000e+00 1886740808
0.764901 -0.305711 -0.967010 0.000000000000000e+00 1886740808
1.669961 -0.897339 -2.289508 0.000000000000000e+00 1634890835
1.600492 -0.982079 -2.293898 0.000000000000000e+00 1634890835
0.804202 -0.270316 -0.996415 0.000000000000000e+00 1886740808
0.807701 -0.322543 -1.039009 0.000000000000000e+00 1886740808
1.656503 -0.890785 -2.312712 0.000000000000000e+00 1634890835
1.572901 -0.966574 -2.296788 0.000000000000000e+00 1634890835
0.809462 -0.271567 -1.020196 0.000000000000000e+00 1886740808
0.764359 -0.304969 -1.000534 0.000000000000000e+00 1886740808
1.604595 -0.863543 -2.281487 0.000000000000000e+00 1634890835
1.551004 -0.954553 -2.307625 0.000000000000000e+00 1634890835
0.754802 -0.252738 -0.967732 0.000000000000000e+00 1886740808
1.720128 -0.685698 -2.291323 0.000000000000000e+00 1634890835
1.605496 -0.864714 -2.324974 0.000000000000000e+00 1634890835
1.541260 -0.950018 -2.336675 0.000000000000000e+00 1634890835
0.777084 -0.259683 -1.013559 0.000000000000000e+00 1886740808
1.662330 -0.662056 -2.253519 0.000000000000000e+00 1634890835
1.539750 -0.829978 -2.271175 0.000000000000000e+00 1634890835
1.480355 -0.913915 -2.287172 0.000000000000000e+00 1634890835
0.764438 -0.254939 -1.014400 0.000000000000000e+00 1886740808
0.799548 -0.318141 -1.103157 0.000000000000000e+00 1886740808
1.540509 -0.831077 -2.314699 0.000000000000000e+00 1634890835
1.471802 -0.910099 -2.317587 0.000000000000000e+00 1634890835
1.714601 -0.570629 -2.314968 0.000000000000000e+00 1634890835
1.618113 -0.643235 -2.272392 0.000000000000000e+00 1634890835
1.512213 -0.816506 -2.314808 0.000000000000000e+00 1634890835
1.420362 -0.879739 -2.279743 0.000000000000000e+00 1634890835
0.764782 -0.253983 -1.050671 0.000000000000000e+00 1886740808
1.641968 -0.652083 -2.347231 0.000000000000000e+00 1634890835
1.490215 -0.805331 -2.324163 0.000000000000000e+00 1634890835
1.428967 -0.886566 -2.338080 0.000000000000000e+00 1634890835
1.618425 -0.536307 -2.262570 0.000000000000000e+00 1634890835
1.574856 -0.624807 -2.291852 0.000000000000000e+00 1634890835
1.445205 -0.781702 -2.296729 0.000000000000000e+00 1634890835
1.355010 -0.842135 -2.260387 0.000000000000000e+00 1634890835
1.619052 -0.535320 -2.303498 0.000000000000000e+00 1634890835
1.567811 -0.621378 -2.322923 0.000000000000000e+00 1634890835
1.416778 -0.767026 -2.294539 0.000000000000000e+00 1634890835
1.366867 -0.851011 -2.325018 0.000000000000000e+00 1634890835
1.564909 -0.516236 -2.266066 0.000000000000000e+00 1634890835
1.523502 -0.603185 -2.298386 0.000000000000000e+00 1634890835
1.380113 -0.747876 -2.278114 0.000000000000000e+00 1634890835
1.313689 -0.819389 -2.278832 0.000000000000000e+00 1634890835
1.552387 -0.510903 -2.288135 0.000000000000000e+00 1634890835
1.508927 -0.596773 -2.318105 0.000000000000000e+00 1634890835
1.365849 -0.740857 -2.298198 0.000000000000000e+00 1634890835
1.306413 -0.816371 -2.311446 0.000000000000000e+00 1634890835
1.533732 -0.503550 -2.301303 0.000000000000000e+00 1634890835
1.475822 -0.583038 -2.309046 0.000000000000000e+00 1634890835
1.384189 -0.751544 -2.374458 0.000000000000000e+00 1634890835
1.266230 -0.792775 -2.285424 0.000000000000000e+00 1634890835
1.511030 -0.494869 -2.308273 0.000000000000000e+00 1634890835
1.423656 -0.561795 -2.268766 0.000000000000000e+00 1634890835
1.338976 -0.727731 -2.342019 0.000000000000000e+00 1634890835
1.227600 -0.770100 -2.260649 0.000000000000000e+00 1634890835
1.471166 -0.480593 -2.288317 0.000000000000000e+00 1634890835
1.431916 -0.564400 -2.324575 0.000000000000000e+00 1634890835
1.325717 -0.721273 -2.364748 0.000000000000000e+00 1634890835
1.233760 -0.775529 -2.318491 0.000000000000000e+00 1634890835
1.428855 -0.465554 -2.263267 0.000000000000000e+00 1634890835
1.389643 -0.547086 -2.298419 0.000000000000000e+00 1634890835
1.248751 -0.680123 -2.271943 0.000000000000000e+00 1634890835
1.197378 -0.754219 -2.296588 0.000000000000000e+00 1634890835
1.402776 -0.455831 -2.263003 0.000000000000000e+00 1634890835
1.345225 -0.528951 -2.267161 0.000000000000000e+00 1634890835
1.228302 -0.669718 -2.279763 0.000000000000000e+00 1634890835
1.194503 -0.754014 -2.338841 0.000000000000000e+00 1634890835
1.377790 -0.446479 -2.264064 0.000000000000000e+00 1634890835
1.341434 -0.526797 -2.304005 0.000000000000000e+00 1634890835
1.237970 -0.675752 -2.344432 0.000000000000000e+00 1634890835
1.181791 -0.747629 -2.362678 0.000000000000000e+00 1634890835
1.380615 -0.446124 -2.311261 0.000000000000000e+00 1634890835
1.285998 -0.504372 -2.251383 0.000000000000000e+00 1634890835
1.191071 -0.650905 -2.301927 0.000000000000000e+00 1634890835
1.150552 -0.729513 -2.349168 0.000000000000000e+00 1634890835
1.334589 -0.429990 -2.276466 0.000000000000000e+00 1634890835
1.255629 -0.491805 -2.240980 0.000000000000000e+00 1634890835
1.179202 -0.645191 -2.326255 0.000000000000000e+00 1634890835
1.122013 -0.713073 -2.340172 0.000000000000000e+00 1634890835
1.331605 -0.427736 -2.314702 0.000000000000000e+00 1634890835
1.253138 -0.490155 -2.280442 0.000000000000000e+00 1634890835
1.170039 -0.640965 -2.356554 0.000000000000000e+00 1634890835
1.077000 -0.686110 -2.295151 0.000000000000000e+00 1634890835
1.314648 -0.420978 -2.329208 0.000000000000000e+00 1634890835
1.232835 -0.481531 -2.287959 0.000000000000000e+00 1634890835
1.112912 -0.610444 -2.288987 0.000000000000000e+00 1634890835
1.043282 -0.666275 -2.272227 0.000000000000000e+00 1634890835
1.288360 -0.411236 -2.326972 0.000000000000000e+00 1634890835
1.193109 -0.465334 -2.258558 0.000000000000000e+00 1634890835
1.115945 -0.612909 -2.344409 0.000000000000000e+00 1634890835
1.025309 -0.656470 -2.282835 0.000000000000000e+00 1634890835
1.249688 -0.397573 -2.301400 0.000000000000000e+00 1634890835
1.173989 -0.457188 -2.267311 0.000000000000000e+00 1634890835
1.084604 -0.596501 -2.327977 0.000000000000000e+00 1634890835
1.018153 -0.653610 -2.318053 0.000000000000000e+00 1634890835
1.191246 -0.377684 -2.237239 0.000000000000000e+00 1634890835
1.170030 -0.454937 -2.305859 0.000000000000000e+00 1634890835
1.078606 -0.594031 -2.365923 0.000000000000000e+00 1634890835
1.008649 -0.649275 -2.348914 0.000000000000000e+00 1634890835
1.193036 -0.376913 -2.285461 0.000000000000000e+00 1634890835
1.133086 -0.439864 -2.279214 0.000000000000000e+00 1634890835
1.033236 -0.569864 -2.316791 0.000000000000000e+00 1634890835
0.960592 -0.620086 -2.288851 0.000000000000000e+00 1634890835
1.154433 -0.363383 -2.256274 0.000000000000000e+00 1634890835
1.113083 -0.431382 -2.285804 0.000000000000000e+00 1634890835
1.008108 -0.556836 -2.311375 0.000000000000000e+00 1634890835
0.925770 -0.599351 -2.257736 0.000000000000000e+00 1634890835
1.160702 -0.363971 -2.314966 0.000000000000000e+00 1634890835
1.090119 -0.421754 -2.286028 0.000000000000000e+00 1634890835
1.009616 -0.558530 -2.367701 0.000000000000000e+00 1634890835
0.929533 -0.603607 -2.320997 0.000000000000000e+00 1634890835
1.148929 -0.358865 -2.338945 0.000000000000000e+00 1634890835
1.074258 -0.414877 -2.301045 0.000000000000000e+00 1634890835
0.946134 -0.524249 -2.270230 0.000000000000000e+00 1634890835
0.894960 -0.582978 -2.288808 0.000000000000000e+00 1634890835
1.097424 -0.341381 -2.280931 0.000000000000000e+00 1634890835
1.054417 -0.406462 -2.307579 0.000000000000000e+00 1634890835
0.926507 -0.514226 -2.275408 0.000000000000000e+00 1634890835
0.867049 -0.566634 -2.272010 0.000000000000000e+00 1634890835
1.063091 -0.329303 -2.256481 0.000000000000000e+00 1634890835
1.022948 -0.393574 -2.287966 0.000000000000000e+00 1634890835
0.937330 -0.521130 -2.356950 0.000000000000000e+00 1634890835
0.865993 -0.567854 -2.326022 0.000000000000000e+00 1634890835
1.065941 -0.328735 -2.311197 0.000000000000000e+00 1634890835
0.998291 -0.383324 -2.282632 0.000000000000000e+00 1634890835
0.921743 -0.513379 -2.373975 0.000000000000000e+00 1634890835
0.823539 -0.541912 -2.268295 0.000000000000000e+00 1634890835
1.046766 -0.321347 -2.319102 0.000000000000000e+00 1634890835
0.993309 -0.380622 -2.322644 0.000000000000000e+00 1634890835
0.883771 -0.493145 -2.332303 0.000000000000000e+00 1634890835
0.462365 -0.305359 -1.306498 0.000000000000000e+00 1936876886
1.001954 -0.306127 -2.268899 0.000000000000000e+00 1634890835
0.948644 -0.362726 -2.269165 0.000000000000000e+00 1634890835
0.888273 -0.496617 -2.402987 0.000000000000000e+00 1634890835
0.420935 -0.279055 -1.220817 0.000000000000000e+00 1936876886
0.988431 -0.300499 -2.288483 0.000000000000000e+00 1634890835
0.941152 -0.359056 -2.303767 0.000000000000000e+00 1634890835
0.838367 -0.469659 -2.325879 0.000000000000000e+00 1634890835
0.439087 -0.292241 -1.307710 0.000000000000000e+00 1936876886
0.975788 -0.295122 -2.310653 0.000000000000000e+00 1634890835
0.933088 -0.355147 -2.338170 0.000000000000000e+00 1634890835
0.463435 -0.260164 -1.319137 0.000000000000000e+00 1936876886
0.350381 -0.234165 -1.072149 0.000000000000000e+00 1953264973
0.940931 -0.283044 -2.279642 0.000000000000000e+00 1634890835
0.889078 -0.337573 -2.281581 0.000000000000000e+00 1634890835
0.437231 -0.245991 -1.277529 0.000000000000000e+00 1936876886
0.308095 -0.206793 -0.969150 0.000000000000000e+00 1953264973
0.498115 -0.148994 -1.235168 0.000000000000000e+00 1936876886
0.869587 -0.329334 -2.286273 0.000000000000000e+00 1634890835
0.358374 -0.202087 -1.075418 0.000000000000000e+00 1953264973
0.283127 -0.190892 -0.916082 0.000000000000000e+00 1953264973
0.481144 -0.143068 -1.221594 0.000000000000000e+00 1936876886
0.863979 -0.326339 -2.328212 0.000000000000000e+00 1634890835
0.332330 -0.187849 -1.024774 0.000000000000000e+00 1953264973
0.251662 -0.170479 -0.838080 0.000000000000000e+00 1953264973
0.472540 -0.139641 -1.228913 0.000000000000000e+00 1936876886
0.848736 -0.319690 -2.345268 0.000000000000000e+00 1634890835
0.324601 -0.183940 -1.029139 0.000000000000000e+00 1953264973
0.240775 -0.163912 -0.825811 0.000000000000000e+00 1953264973
