# .PCD v0.7 - Point Cloud Data file format
VERSION 0.7
FIELDS x y z rgb label
SIZE 4 4 4 4 4
TYPE F F F F U
COUNT 1 1 1 1 1
WIDTH 535
HEIGHT 1
VIEWPOINT 0 0 0 1 0 0 0
POINTS 535
DATA ascii
36.762821 -18.776081 10.256893 0.000000000000000e+00 1954047316
35.976658 -20.052237 9.818935 0.000000000000000e+00 1954047316
35.402699 -13.162171 -2.249282 0.000000000000000e+00 1851878480
29.388128 -10.917763 -2.134131 0.000000000000000e+00 1851878480
29.126133 -12.179072 -2.048266 0.000000000000000e+00 1851878480
27.459112 -14.174543 -1.758936 0.000000000000000e+00 1851878480
26.513609 -15.062378 -1.590484 0.000000000000000e+00 1851878480
26.681156 -9.904585 -2.180161 0.000000000000000e+00 1851878480
26.292933 -10.990504 -2.095411 0.000000000000000e+00 1851878480
24.985209 -12.901495 -1.850142 0.000000000000000e+00 1851878480
24.325895 -13.827683 -1.710813 0.000000000000000e+00 1851878480
24.102009 -8.940353 -2.188804 0.000000000000000e+00 1851878480
24.293053 -10.150984 -2.163939 0.000000000000000e+00 1851878480
23.225758 -11.996686 -1.952259 0.000000000000000e+00 1851878480
22.724482 -12.925034 -1.833536 0.000000000000000e+00 1851878480
22.069365 -8.180133 -2.205335 0.000000000000000e+00 1851878480
22.193520 -9.270431 -2.185395 0.000000000000000e+00 1851878480
21.778996 -11.252899 -2.048899 0.000000000000000e+00 1851878480
21.521914 -12.248289 -1.959754 0.000000000000000e+00 1851878480
20.453531 -7.575438 -2.230512 0.000000000000000e+00 1851878480
20.530788 -8.572865 -2.214792 0.000000000000000e+00 1851878480
20.640919 -10.668177 -2.149012 0.000000000000000e+00 1851878480
20.379690 -11.605125 -2.067513 0.000000000000000e+00 1851878480
18.912479 -6.999322 -2.235297 0.000000000000000e+00 1851878480
19.063372 -7.957322 -2.236101 0.000000000000000e+00 1851878480
19.375343 -10.017194 -2.212076 0.000000000000000e+00 1851878480
19.128735 -10.899238 -2.139760 0.000000000000000e+00 1851878480
17.597425 -6.507643 -2.240955 0.000000000000000e+00 1851878480
17.611181 -7.348559 -2.231977 0.000000000000000e+00 1851878480
17.899809 -9.257218 -2.223960 0.000000000000000e+00 1851878480
18.025759 -10.276895 -2.204445 0.000000000000000e+00 1851878480
16.382742 -6.053798 -2.236506 0.000000000000000e+00 1851878480
16.445614 -6.859781 -2.239765 0.000000000000000e+00 1851878480
16.585728 -8.580301 -2.228153 0.000000000000000e+00 1851878480
16.738461 -9.548670 -2.222047 0.000000000000000e+00 1851878480
15.384196 -5.680447 -2.241537 0.000000000000000e+00 1851878480
15.449567 -6.442018 -2.250495 0.000000000000000e+00 1851878480
15.487305 -8.014562 -2.237310 0.000000000000000e+00 1851878480
15.601867 -8.905607 -2.234698 0.000000000000000e+00 1851878480
14.470541 -5.338964 -2.241644 0.000000000000000e+00 1851878480
14.461966 -6.028072 -2.243958 0.000000000000000e+00 1851878480
14.426415 -7.467905 -2.230393 0.000000000000000e+00 1851878480
14.487500 -8.274477 -2.227329 0.000000000000000e+00 1851878480
13.673119 -5.040858 -2.244283 0.000000000000000e+00 1851878480
13.625197 -5.677269 -2.243805 0.000000000000000e+00 1851878480
13.617498 -7.051389 -2.243824 0.000000000000000e+00 1851878480
13.597285 -7.770700 -2.233748 0.000000000000000e+00 1851878480
12.918331 -4.758902 -2.239882 0.000000000000000e+00 1851878480
12.865293 -5.358715 -2.241418 0.000000000000000e+00 1851878480
12.798693 -6.629488 -2.239429 0.000000000000000e+00 1851878480
12.785201 -7.311004 -2.235457 0.000000000000000e+00 1851878480
12.256592 -4.511617 -2.238801 0.000000000000000e+00 1851878480
12.204128 -5.081508 -2.242985 0.000000000000000e+00 1851878480
12.124268 -6.282140 -2.245431 0.000000000000000e+00 1851878480
12.098579 -6.922556 -2.243657 0.000000000000000e+00 1851878480
11.699801 -4.303308 -2.245878 0.000000000000000e+00 1851878480
11.590670 -4.824341 -2.241432 0.000000000000000e+00 1851878480
11.499487 -5.960302 -2.247696 0.000000000000000e+00 1851878480
11.467674 -6.565534 -2.248612 0.000000000000000e+00 1851878480
11.161765 -4.102200 -2.246670 0.000000000000000e+00 1851878480
11.055772 -4.600039 -2.244368 0.000000000000000e+00 1851878480
10.919007 -5.661232 -2.246618 0.000000000000000e+00 1851878480
10.850019 -6.215687 -2.243280 0.000000000000000e+00 1851878480
10.664661 -3.916428 -2.246344 0.000000000000000e+00 1851878480
10.571455 -4.396936 -2.248080 0.000000000000000e+00 1851878480
10.369879 -5.378239 -2.240726 0.000000000000000e+00 1851878480
10.298447 -5.903305 -2.239525 0.000000000000000e+00 1851878480
10.211180 -3.746944 -2.246620 0.000000000000000e+00 1851878480
10.118529 -4.207023 -2.249743 0.000000000000000e+00 1851878480
9.946581 -5.160361 -2.252349 0.000000000000000e+00 1851878480
9.833759 -5.640388 -2.244176 0.000000000000000e+00 1851878480
9.794003 -3.591022 -2.247014 0.000000000000000e+00 1851878480
9.631849 -4.003216 -2.235119 0.000000000000000e+00 1851878480
9.531305 -4.946503 -2.257461 0.000000000000000e+00 1851878480
9.386946 -5.387415 -2.243499 0.000000000000000e+00 1851878480
9.335769 -3.420295 -2.230051 0.000000000000000e+00 1851878480
9.304518 -3.865756 -2.249886 0.000000000000000e+00 1851878480
9.087963 -4.717944 -2.247362 0.000000000000000e+00 1851878480
8.994847 -5.165566 -2.247240 0.000000000000000e+00 1851878480
8.991774 -3.291642 -2.233104 0.000000000000000e+00 1851878480
8.901240 -3.696846 -2.239488 0.000000000000000e+00 1851878480
8.703737 -4.519940 -2.243606 0.000000000000000e+00 1851878480
8.623090 -4.955136 -2.248182 0.000000000000000e+00 1851878480
8.658051 -3.166947 -2.232594 0.000000000000000e+00 1851878480
8.550230 -3.549758 -2.235183 0.000000000000000e+00 1851878480
8.313939 -4.318920 -2.230665 0.000000000000000e+00 1851878480
8.237151 -4.736307 -2.237578 0.000000000000000e+00 1851878480
8.396111 -3.068670 -2.245237 0.000000000000000e+00 1851878480
8.321390 -3.453472 -2.257449 0.000000000000000e+00 1851878480
8.078122 -4.197794 -2.252823 0.000000000000000e+00 1851878480
7.943753 -4.570462 -2.245085 0.000000000000000e+00 1851878480
8.068751 -2.946645 -2.235072 0.000000000000000e+00 1851878480
8.041892 -3.336239 -2.261293 0.000000000000000e+00 1851878480
7.791012 -4.049923 -2.255522 0.000000000000000e+00 1851878480
7.634149 -4.395084 -2.241791 0.000000000000000e+00 1851878480
7.804645 -2.847883 -2.237070 0.000000000000000e+00 1851878480
7.755986 -3.216428 -2.258066 0.000000000000000e+00 1851878480
7.486307 -3.892818 -2.247213 0.000000000000000e+00 1851878480
7.351040 -4.234762 -2.240135 0.000000000000000e+00 1851878480
7.574230 -2.761558 -2.244280 0.000000000000000e+00 1851878480
7.459729 -3.092408 -2.246369 0.000000000000000e+00 1851878480
4.155918 -2.161760 -1.292083 1.880790849211783e-38 1684957512
4.076287 -2.349744 -1.287608 1.880790849211783e-38 1684957512
4.160301 -1.515601 -1.273135 1.880790849211783e-38 1684957512
4.178338 -1.731465 -1.300189 1.880790849211783e-38 1684957512
3.977259 -2.069516 -1.279409 1.880790849211783e-38 1684957512
3.929249 -2.266425 -1.285165 1.880790849211783e-38 1684957512
4.114622 -1.497731 -1.299320 1.880790849211783e-38 1684957512
3.993813 -1.654373 -1.283067 1.880790849211783e-38 1684957512
3.890980 -2.025301 -1.293818 1.880790849211783e-38 1684957512
3.831998 -2.211745 -1.296506 1.880790849211783e-38 1684957512
4.008543 -1.457912 -1.305138 1.880790849211783e-38 1684957512
3.872807 -1.603636 -1.283463 1.880790849211783e-38 1684957512
3.797800 -1.977464 -1.304207 1.880790849211783e-38 1684957512
3.687639 -2.129795 -1.289419 1.880790849211783e-38 1684957512
3.955414 -1.437393 -1.326828 1.880790849211783e-38 1684957512
3.806419 -1.575544 -1.300258 1.880790849211783e-38 1684957512
3.624437 -1.887838 -1.284376 1.880790849211783e-38 1684957512
3.546063 -2.049352 -1.280299 1.880790849211783e-38 1684957512
4.015286 -1.457932 -1.386694 1.880790849211783e-38 1684957512
3.650285 -1.510335 -1.284327 1.880790849211783e-38 1684957512
3.514608 -1.831255 -1.284178 1.880790849211783e-38 1684957512
3.471867 -2.007780 -1.293285 1.880790849211783e-38 1684957512
3.991519 -1.448086 -1.418244 1.880790849211783e-38 1684957512
3.538030 -1.463323 -1.281283 1.880790849211783e-38 1684957512
3.414353 -1.779627 -1.285385 1.880790849211783e-38 1684957512
3.335223 -1.930022 -1.280829 1.880790849211783e-38 1684957512
4.029283 -1.460551 -1.472016 1.880790849211783e-38 1684957512
3.507491 -1.450125 -1.306567 1.880790849211783e-38 1684957512
3.323253 -1.732740 -1.288143 1.880790849211783e-38 1684957512
3.256663 -1.885802 -1.288436 1.880790849211783e-38 1684957512
4.001675 -1.449311 -1.502232 1.880790849211783e-38 1684957512
3.540579 -1.463233 -1.355791 1.880790849211783e-38 1684957512
3.179629 -1.658430 -1.268145 1.880790849211783e-38 1684957512
3.174009 -1.839157 -1.292790 1.880790849211783e-38 1684957512
3.965243 -1.434889 -1.528723 1.880790849211783e-38 1684957512
3.498079 -1.445099 -1.376191 1.880790849211783e-38 1684957512
3.151959 -1.644571 -1.292700 1.880790849211783e-38 1684957512
3.025295 -1.754156 -1.267774 1.880790849211783e-38 1684957512
3.985266 -1.440893 -1.577054 1.880790849211783e-38 1684957512
3.509656 -1.449306 -1.417768 1.880790849211783e-38 1684957512
3.076894 -1.605968 -1.296886 1.880790849211783e-38 1684957512
3.015378 -1.749580 -1.299300 1.880790849211783e-38 1684957512
3.997308 -1.443995 -1.622802 1.880790849211783e-38 1684957512
3.542464 -1.462269 -1.468626 1.880790849211783e-38 1684957512
3.010525 -1.571883 -1.303362 1.880790849211783e-38 1684957512
2.955628 -1.716073 -1.308776 1.880790849211783e-38 1684957512
4.013601 -1.448617 -1.670828 1.880790849211783e-38 1684957512
3.502883 -1.445352 -1.489644 1.880790849211783e-38 1684957512
2.964472 -1.548388 -1.317583 1.880790849211783e-38 1684957512
2.833140 -1.646074 -1.288543 1.880790849211783e-38 1684957512
4.005625 -1.444468 -1.709103 1.880790849211783e-38 1684957512
3.517570 -1.450824 -1.533724 1.880790849211783e-38 1684957512
2.822368 -1.474693 -1.287178 1.880790849211783e-38 1684957512
2.763330 -1.606616 -1.290207 1.880790849211783e-38 1684957512
4.015907 -1.446895 -1.755468 1.880790849211783e-38 1684957512
3.550677 -1.463883 -1.586611 1.880790849211783e-38 1684957512
2.833492 -1.481040 -1.325376 1.880790849211783e-38 1684957512
2.708822 -1.576011 -1.297760 1.880790849211783e-38 1684957512
4.018966 -1.446709 -1.799101 1.880790849211783e-38 1684957512
3.550447 -1.463187 -1.625228 1.880790849211783e-38 1684957512
2.799490 -1.463798 -1.342443 1.880790849211783e-38 1684957512
2.669899 -1.554447 -1.311897 1.880790849211783e-38 1684957512
3.999105 -1.438269 -1.832591 1.880790849211783e-38 1684957512
3.548697 -1.461862 -1.663405 1.880790849211783e-38 1684957512
2.787293 -1.457955 -1.369676 1.880790849211783e-38 1684957512
2.515823 -1.465769 -1.267327 1.880790849211783e-38 1684957512
3.955797 -1.421405 -1.854967 1.880790849211783e-38 1684957512
3.534454 -1.455389 -1.695839 1.880790849211783e-38 1684957512
2.823107 -1.477233 -1.421047 1.880790849211783e-38 1684957512
2.464555 -1.436914 -1.272255 1.880790849211783e-38 1684957512
3.997116 -1.434944 -1.917317 1.880790849211783e-38 1684957512
3.555066 -1.463261 -1.745361 1.880790849211783e-38 1684957512
2.799409 -1.465378 -1.442876 1.880790849211783e-38 1684957512
2.506297 -1.462292 -1.325339 1.880790849211783e-38 1684957512
4.039642 -1.448878 -1.981473 1.880790849211783e-38 1684957512
3.549222 -1.460238 -1.782367 1.880790849211783e-38 1684957512
2.789026 -1.460490 -1.471436 1.880790849211783e-38 1684957512
2.499582 -1.459422 -1.353509 1.880790849211783e-38 1684957512
4.052177 -1.452031 -2.031852 1.880790849211783e-38 1684957512
3.553547 -1.461394 -1.824777 1.880790849211783e-38 1684957512
2.781925 -1.457322 -1.501799 1.880790849211783e-38 1684957512
2.500779 -1.461179 -1.386171 1.880790849211783e-38 1684957512
4.048988 -1.449532 -2.074796 1.880790849211783e-38 1684957512
3.505328 -1.440943 -1.840031 1.880790849211783e-38 1684957512
2.796714 -1.465627 -1.544372 1.880790849211783e-38 1684957512
2.476699 -1.448166 -1.404815 1.880790849211783e-38 1684957512
4.060506 -1.452289 -2.125726 1.880790849211783e-38 1684957512
3.578096 -1.470218 -1.919411 1.880790849211783e-38 1684957512
2.779398 -1.457114 -1.569489 1.880790849211783e-38 1684957512
2.458299 -1.438468 -1.426423 1.880790849211783e-38 1684957512
4.088500 -1.460910 -2.186090 1.880790849211783e-38 1684957512
3.566127 -1.464658 -1.954383 1.880790849211783e-38 1684957512
2.756854 -1.445856 -1.591466 1.880790849211783e-38 1684957512
2.439158 -1.428329 -1.447410 1.880790849211783e-38 1684957512
4.066006 -1.451482 -2.219903 1.880790849211783e-38 1684957512
3.528000 -1.448360 -1.974791 1.880790849211783e-38 1684957512
2.792831 -1.465299 -1.647721 1.880790849211783e-38 1684957512
2.468644 -1.446682 -1.497699 1.880790849211783e-38 1684957512
4.029696 -1.437129 -2.245900 0.000000000000000e+00 1851878480
3.548832 -1.456264 -2.028368 1.880790849211783e-38 1684957512
2.760809 -1.449070 -1.664239 1.880790849211783e-38 1684957512
2.446024 -1.434512 -1.516784 1.880790849211783e-38 1684957512
4.034349 -1.437385 -2.294768 0.000000000000000e+00 1634890835
3.577071 -1.467191 -2.087137 1.880790849211783e-38 1684957512
2.826789 -1.484294 -1.740619 1.880790849211783e-38 1684957512
2.470247 -1.449826 -1.565270 1.880790849211783e-38 1684957512
3.972888 -1.414092 -2.305787 0.000000000000000e+00 1634890835
3.566255 -1.462092 -2.123721 1.880790849211783e-38 1684957512
2.717915 -1.427699 -1.709122 1.880790849211783e-38 1684957512
2.453769 -1.441268 -1.588412 1.880790849211783e-38 1684957512
3.822910 -1.359356 -2.263388 0.000000000000000e+00 1634890835
3.530718 -1.446859 -2.145423 1.880790849211783e-38 1684957512
2.793218 -1.467852 -1.793370 1.880790849211783e-38 1684957512
2.461048 -1.446671 -1.627156 1.880790849211783e-38 1684957512
3.754737 -1.333775 -2.267285 0.000000000000000e+00 1634890835
3.536715 -1.448648 -2.192419 1.880790849211783e-38 1684957512
2.762292 -1.452198 -1.810377 1.880790849211783e-38 1684957512
2.481457 -1.459818 -1.675330 1.880790849211783e-38 1684957512
3.724290 -1.321617 -2.293217 0.000000000000000e+00 1634890835
3.501091 -1.433386 -2.213671 1.880790849211783e-38 1684957512
2.784084 -1.464262 -1.862200 1.880790849211783e-38 1684957512
2.482999 -1.461891 -1.711449 1.880790849211783e-38 1684957512
3.689477 -1.307922 -2.316113 0.000000000000000e+00 1634890835
3.481323 -1.424618 -2.244695 0.000000000000000e+00 1851878480
2.765585 -1.455142 -1.887518 1.880790849211783e-38 1684957512
2.473585 -1.457520 -1.740293 1.880790849211783e-38 1684957512
3.573475 -1.265486 -2.286652 0.000000000000000e+00 1634890835
3.496598 -1.430188 -2.298704 0.000000000000000e+00 1634890835
2.747432 -1.446204 -1.912979 1.880790849211783e-38 1684957512
2.454028 -1.447173 -1.761982 1.880790849211783e-38 1684957512
3.444667 -1.218592 -2.246449 0.000000000000000e+00 1634890835
3.379540 -1.381640 -2.264873 0.000000000000000e+00 1634890835
2.720842 -1.432820 -1.932367 1.880790849211783e-38 1684957512
2.459577 -1.451639 -1.801904 1.880790849211783e-38 1684957512
3.416487 -1.207346 -2.270379 0.000000000000000e+00 1634890835
3.360448 -1.373166 -2.295415 0.000000000000000e+00 1634890835
2.801096 -1.475721 -2.028826 1.880790849211783e-38 1684957512
2.451806 -1.448256 -1.832457 1.880790849211783e-38 1684957512
3.333114 -1.176622 -2.256682 0.000000000000000e+00 1634890835
3.318044 -1.355171 -2.309704 0.000000000000000e+00 1634890835
2.764475 -1.457067 -2.041699 1.880790849211783e-38 1684957512
2.436731 -1.440563 -1.857645 1.880790849211783e-38 1684957512
3.313239 -1.168338 -2.285130 0.000000000000000e+00 1634890835
3.213449 -1.311797 -2.279249 0.000000000000000e+00 1634890835
2.749835 -1.449993 -2.070538 1.880790849211783e-38 1684957512
2.420916 -1.432433 -1.882250 1.880790849211783e-38 1684957512
3.302689 -1.163343 -2.320080 0.000000000000000e+00 1634890835
3.169699 -1.293286 -2.290465 0.000000000000000e+00 1634890835
2.718633 -1.434183 -2.086716 1.880790849211783e-38 1684957512
2.480806 -1.469134 -1.966851 1.880790849211783e-38 1684957512
3.202246 -1.126713 -2.290918 0.000000000000000e+00 1634890835
3.107757 -1.267365 -2.287600 0.000000000000000e+00 1634890835
2.746831 -1.449715 -2.148933 1.880790849211783e-38 1684957512
2.488977 -1.475259 -2.011975 1.880790849211783e-38 1684957512
3.091937 -1.086679 -2.252425 0.000000000000000e+00 1634890835
3.015732 -1.229203 -2.260991 0.000000000000000e+00 1634890835
2.728039 -1.440460 -2.175031 1.880790849211783e-38 1684957512
2.481409 -1.472072 -2.044883 1.880790849211783e-38 1684957512
3.110534 -1.091975 -2.307111 0.000000000000000e+00 1634890835
3.016593 -1.228910 -2.303269 0.000000000000000e+00 1634890835
2.801933 -1.480164 -2.276384 1.880790849211783e-38 1684957512
0.876606 -0.520503 -0.736363 0.000000000000000e+00 1886740808
3.040091 -1.066018 -2.295542 0.000000000000000e+00 1634890835
2.947201 -1.200006 -2.291454 0.000000000000000e+00 1634890835
2.694145 -1.423895 -2.230149 0.000000000000000e+00 1851878480
0.841133 -0.499892 -0.720150 0.000000000000000e+00 1886740808
2.995186 -1.049050 -2.302194 0.000000000000000e+00 1634890835
2.873116 -1.169216 -2.274482 0.000000000000000e+00 1634890835
0.845374 -0.447006 -0.712922 0.000000000000000e+00 1886740808
0.815608 -0.485168 -0.711647 0.000000000000000e+00 1886740808
2.920426 -1.021659 -2.284759 0.000000000000000e+00 1634890835
2.885091 -1.173449 -2.325273 0.000000000000000e+00 1634890835
0.854467 -0.452032 -0.734051 0.000000000000000e+00 1886740808
0.797023 -0.474553 -0.708661 0.000000000000000e+00 1886740808
2.859110 -0.999013 -2.276464 0.000000000000000e+00 1634890835
2.787605 -1.133176 -2.287130 0.000000000000000e+00 1634890835
0.862123 -0.456305 -0.754396 0.000000000000000e+00 1886740808
0.780942 -0.465417 -0.707509 0.000000000000000e+00 1886740808
2.807911 -0.979935 -2.275157 0.000000000000000e+00 1634890835
2.754369 -1.119041 -2.300328 0.000000000000000e+00 1634890835
0.797207 -0.422156 -0.710500 0.000000000000000e+00 1886740808
0.765223 -0.456485 -0.706336 0.000000000000000e+00 1886740808
2.755800 -0.960566 -2.272159 0.000000000000000e+00 1634890835
0.865278 -0.351345 -0.735524 0.000000000000000e+00 1886740808
0.808492 -0.428347 -0.733836 0.000000000000000e+00 1886740808
0.770153 -0.459871 -0.724234 0.000000000000000e+00 1886740808
0.855659 -0.297879 -0.717830 0.000000000000000e+00 1886740808
0.830769 -0.337140 -0.718725 0.000000000000000e+00 1886740808
0.787428 -0.417400 -0.727835 0.000000000000000e+00 1886740808
0.725606 -0.433697 -0.695106 0.000000000000000e+00 1886740808
0.785245 -0.273021 -0.670233 0.000000000000000e+00 1886740808
0.848326 -0.344064 -0.746890 0.000000000000000e+00 1886740808
0.774727 -0.410880 -0.729193 0.000000000000000e+00 1886740808
0.791242 -0.473399 -0.772113 0.000000000000000e+00 1886740808
0.809413 -0.281063 -0.702850 0.000000000000000e+00 1886740808
0.788789 -0.319729 -0.706707 0.000000000000000e+00 1886740808
0.788085 -0.418184 -0.755289 0.000000000000000e+00 1886740808
0.754793 -0.452049 -0.750235 0.000000000000000e+00 1886740808
0.804903 -0.279133 -0.711021 0.000000000000000e+00 1886740808
0.789610 -0.319871 -0.719866 0.000000000000000e+00 1886740808
0.782272 -0.415321 -0.763347 0.000000000000000e+00 1886740808
0.763040 -0.457458 -0.772490 0.000000000000000e+00 1886740808
0.741321 -0.256744 -0.666144 0.000000000000000e+00 1886740808
0.803689 -0.325376 -0.745529 0.000000000000000e+00 1886740808
0.785944 -0.417496 -0.780835 0.000000000000000e+00 1886740808
0.768088 -0.460964 -0.791980 0.000000000000000e+00 1886740808
0.780878 -0.270081 -0.713751 0.000000000000000e+00 1886740808
0.762663 -0.308576 -0.719824 0.000000000000000e+00 1886740808
0.827515 -0.439820 -0.837008 0.000000000000000e+00 1886740808
0.740137 -0.444660 -0.777243 0.000000000000000e+00 1886740808
0.723561 -0.249917 -0.672701 0.000000000000000e+00 1886740808
0.724472 -0.292941 -0.695690 0.000000000000000e+00 1886740808
0.799839 -0.425348 -0.823622 0.000000000000000e+00 1886740808
0.768312 -0.462083 -0.821695 0.000000000000000e+00 1886740808
0.736944 -0.254187 -0.696863 0.000000000000000e+00 1886740808
0.745392 -0.301208 -0.728221 0.000000000000000e+00 1886740808
0.772394 -0.410986 -0.809697 0.000000000000000e+00 1886740808
2.110871 -1.270924 -2.299071 0.000000000000000e+00 1634890835
0.778519 -0.268150 -0.748746 0.000000000000000e+00 1886740808
0.762177 -0.307792 -0.757541 0.000000000000000e+00 1886740808
0.782882 -0.416807 -0.835466 0.000000000000000e+00 1886740808
2.052550 -1.237184 -2.276638 0.000000000000000e+00 1634890835
0.770492 -0.265006 -0.753657 0.000000000000000e+00 1886740808
0.792578 -0.319858 -0.801406 0.000000000000000e+00 1886740808
2.114150 -1.126232 -2.296730 0.000000000000000e+00 1634890835
2.038297 -1.229981 -2.302351 0.000000000000000e+00 1634890835
0.761315 -0.261469 -0.757356 0.000000000000000e+00 1886740808
0.776323 -0.313089 -0.798556 0.000000000000000e+00 1886740808
2.123216 -1.131737 -2.348035 0.000000000000000e+00 1634890835
0.825044 -0.498433 -0.949034 0.000000000000000e+00 1886740808
0.774034 -0.265445 -0.783100 0.000000000000000e+00 1886740808
0.782942 -0.315545 -0.819291 0.000000000000000e+00 1886740808
2.051531 -1.094188 -2.309521 0.000000000000000e+00 1634890835
0.791706 -0.478853 -0.927404 0.000000000000000e+00 1886740808
0.756952 -0.259196 -0.778829 0.000000000000000e+00 1886740808
0.729661 -0.293868 -0.776733 0.000000000000000e+00 1886740808
2.020140 -1.078109 -2.315039 0.000000000000000e+00 1634890835
0.788144 -0.477265 -0.940185 0.000000000000000e+00 1886740808
0.759024 -0.259509 -0.794222 0.000000000000000e+00 1886740808
2.113840 -0.850742 -2.289088 0.000000000000000e+00 1634890835
0.832440 -0.444536 -0.971104 0.000000000000000e+00 1886740808
0.784428 -0.475591 -0.952947 0.000000000000000e+00 1886740808
0.781538 -0.266790 -0.831663 0.000000000000000e+00 1886740808
2.090374 -0.840697 -2.302790 0.000000000000000e+00 1634890835
0.839580 -0.448635 -0.997045 0.000000000000000e+00 1886740808
0.785609 -0.476895 -0.971933 0.000000000000000e+00 1886740808
0.786404 -0.268025 -0.851048 0.000000000000000e+00 1886740808
2.068124 -0.831142 -2.317658 0.000000000000000e+00 1634890835
0.787321 -0.420984 -0.951813 0.000000000000000e+00 1886740808
1.808718 -1.099341 -2.278898 0.000000000000000e+00 1634890835
2.099870 -0.714529 -2.311082 0.000000000000000e+00 1634890835
2.009718 -0.807071 -2.291158 0.000000000000000e+00 1634890835
0.782409 -0.418636 -0.962921 0.000000000000000e+00 1886740808
1.776198 -1.080958 -2.279198 0.000000000000000e+00 1634890835
2.030894 -0.689921 -2.273155 0.000000000000000e+00 1634890835
1.998532 -0.801971 -2.317848 0.000000000000000e+00 1634890835
0.798522 -0.427545 -1.000488 0.000000000000000e+00 1886740808
0.766236 -0.466925 -1.001395 0.000000000000000e+00 1886740808
1.975364 -0.669930 -2.248613 0.000000000000000e+00 1634890835
1.914752 -0.767760 -2.259174 0.000000000000000e+00 1634890835
0.793431 -0.425111 -1.012087 0.000000000000000e+00 1886740808
1.706670 -1.041385 -2.271755 0.000000000000000e+00 1634890835
1.942765 -0.657746 -2.249172 0.000000000000000e+00 1634890835
0.826435 -0.331117 -0.992020 0.000000000000000e+00 1886740808
1.786436 -0.957825 -2.320043 0.000000000000000e+00 1634890835
1.708302 -1.043797 -2.316149 0.000000000000000e+00 1634890835
1.942632 -0.656553 -2.287384 0.000000000000000e+00 1634890835
0.823340 -0.329612 -1.005494 0.000000000000000e+00 1886740808
0.771175 -0.413773 -1.019720 0.000000000000000e+00 1886740808
1.670965 -1.022398 -2.307714 0.000000000000000e+00 1634890835
1.894054 -0.638995 -2.268298 0.000000000000000e+00 1634890835
0.770777 -0.308317 -0.957707 0.000000000000000e+00 1886740808
1.713060 -0.919811 -2.306439 0.000000000000000e+00 1634890835
1.644603 -1.007691 -2.313740 0.000000000000000e+00 1634890835
0.813194 -0.273847 -0.990551 0.000000000000000e+00 1886740808
0.807804 -0.322858 -1.021250 0.000000000000000e+00 1886740808
1.667542 -0.896039 -2.286191 0.000000000000000e+00 1634890835
1.573959 -0.965798 -2.255870 0.000000000000000e+00 1634890835
0.820352 -0.275744 -1.016425 0.000000000000000e+00 1886740808
0.770891 -0.307843 -0.991658 0.000000000000000e+00 1886740808
1.669649 -0.897854 -2.331065 0.000000000000000e+00 1634890835
1.580445 -0.971210 -2.307803 0.000000000000000e+00 1634890835
0.799717 -0.268298 -1.007914 0.000000000000000e+00 1886740808
0.806421 -0.321751 -1.055593 0.000000000000000e+00 1886740808
1.605629 -0.864099 -2.282958 0.000000000000000e+00 1634890835
1.532331 -0.943061 -2.279842 0.000000000000000e+00 1634890835
0.777464 -0.260326 -0.996787 0.000000000000000e+00 1886740808
1.744495 -0.695412 -2.323781 0.000000000000000e+00 1634890835
1.589594 -0.856149 -2.301947 0.000000000000000e+00 1634890835
1.534710 -0.945981 -2.326745 0.000000000000000e+00 1634890835
0.772565 -0.258173 -1.007665 0.000000000000000e+00 1886740808
1.718128 -0.684279 -2.329161 0.000000000000000e+00 1634890835
1.576637 -0.849861 -2.325584 0.000000000000000e+00 1634890835
1.498232 -0.924951 -2.314791 0.000000000000000e+00 1634890835
0.778730 -0.259705 -1.033365 0.000000000000000e+00 1886740808
0.771853 -0.307121 -1.064946 0.000000000000000e+00 1886740808
1.546919 -0.834535 -2.324332 0.000000000000000e+00 1634890835
1.471272 -0.909770 -2.316751 0.000000000000000e+00 1634890835
1.720231 -0.572503 -2.322570 0.000000000000000e+00 1634890835
1.648250 -0.655215 -2.314715 0.000000000000000e+00 1634890835
1.495922 -0.807709 -2.289870 0.000000000000000e+00 1634890835
1.431812 -0.886832 -2.298122 0.000000000000000e+00 1634890835
0.793188 -0.263417 -1.089695 0.000000000000000e+00 1886740808
1.604816 -0.637329 -2.294121 0.000000000000000e+00 1634890835
1.476108 -0.797707 -2.302161 0.000000000000000e+00 1634890835
1.402669 -0.870250 -2.295052 0.000000000000000e+00 1634890835
1.650437 -0.546915 -2.307324 0.000000000000000e+00 1634890835
1.583510 -0.628240 -2.304446 0.000000000000000e+00 1634890835
1.459212 -0.789279 -2.318990 0.000000000000000e+00 1634890835
1.378176 -0.856533 -2.299031 0.000000000000000e+00 1634890835
1.607563 -0.531521 -2.287151 0.000000000000000e+00 1634890835
1.551815 -0.615038 -2.299222 0.000000000000000e+00 1634890835
1.430359 -0.774379 -2.316534 0.000000000000000e+00 1634890835
1.372436 -0.854478 -2.334490 0.000000000000000e+00 1634890835
1.607871 -0.530408 -2.328277 0.000000000000000e+00 1634890835
1.548734 -0.613175 -2.336452 0.000000000000000e+00 1634890835
1.388789 -0.752577 -2.292435 0.000000000000000e+00 1634890835
1.325126 -0.826523 -2.298673 0.000000000000000e+00 1634890835
1.562462 -0.514219 -2.302984 0.000000000000000e+00 1634890835
1.505297 -0.595338 -2.312527 0.000000000000000e+00 1634890835
1.362430 -0.739003 -2.292445 0.000000000000000e+00 1634890835
1.306997 -0.816736 -2.312479 0.000000000000000e+00 1634890835
1.521584 -0.499561 -2.283075 0.000000000000000e+00 1634890835
1.478367 -0.584044 -2.313027 0.000000000000000e+00 1634890835
1.338301 -0.726629 -2.295741 0.000000000000000e+00 1634890835
1.245905 -0.780050 -2.248739 0.000000000000000e+00 1634890835
1.503199 -0.492305 -2.296310 0.000000000000000e+00 1634890835
1.469815 -0.580010 -2.342326 0.000000000000000e+00 1634890835
1.334033 -0.725044 -2.333373 0.000000000000000e+00 1634890835
1.221898 -0.766523 -2.250149 0.000000000000000e+00 1634890835
1.468976 -0.479877 -2.284912 0.000000000000000e+00 1634890835
1.444939 -0.569534 -2.345717 0.000000000000000e+00 1634890835
1.281888 -0.697427 -2.286566 0.000000000000000e+00 1634890835
1.197431 -0.752692 -2.250220 0.000000000000000e+00 1634890835
1.461802 -0.476289 -2.315453 0.000000000000000e+00 1634890835
1.405251 -0.553231 -2.324234 0.000000000000000e+00 1634890835
1.251744 -0.681753 -2.277387 0.000000000000000e+00 1634890835
1.208392 -0.761157 -2.317712 0.000000000000000e+00 1634890835
1.407432 -0.457344 -2.270514 0.000000000000000e+00 1634890835
1.370710 -0.538972 -2.310112 0.000000000000000e+00 1634890835
1.235968 -0.673898 -2.293992 0.000000000000000e+00 1634890835
1.179032 -0.744248 -2.308549 0.000000000000000e+00 1634890835
1.417315 -0.459287 -2.329013 0.000000000000000e+00 1634890835
1.343993 -0.527801 -2.308399 0.000000000000000e+00 1634890835
1.228724 -0.670705 -2.326921 0.000000000000000e+00 1634890835
1.178132 -0.745314 -2.355363 0.000000000000000e+00 1634890835
1.330747 -0.430010 -2.227779 0.000000000000000e+00 1634890835
1.308102 -0.513041 -2.290080 0.000000000000000e+00 1634890835
1.199302 -0.655404 -2.317835 0.000000000000000e+00 1634890835
1.119896 -0.710075 -2.286575 0.000000000000000e+00 1634890835
1.365427 -0.439925 -2.329067 0.000000000000000e+00 1634890835
1.290045 -0.505285 -2.302404 0.000000000000000e+00 1634890835
1.177559 -0.644292 -2.323013 0.000000000000000e+00 1634890835
1.085131 -0.689633 -2.263247 0.000000000000000e+00 1634890835
1.299212 -0.417331 -2.258394 0.000000000000000e+00 1634890835
1.263618 -0.494254 -2.299513 0.000000000000000e+00 1634890835
1.171726 -0.641889 -2.359951 0.000000000000000e+00 1634890835
1.093027 -0.696321 -2.329307 0.000000000000000e+00 1634890835
1.297198 -0.415390 -2.298290 0.000000000000000e+00 1634890835
1.240621 -0.484572 -2.302410 0.000000000000000e+00 1634890835
1.143942 -0.627464 -2.352807 0.000000000000000e+00 1634890835
1.055304 -0.673953 -2.298411 0.000000000000000e+00 1634890835
1.271438 -0.405835 -2.296411 0.000000000000000e+00 1634890835
1.234398 -0.481438 -2.336717 0.000000000000000e+00 1634890835
1.097259 -0.602646 -2.305153 0.000000000000000e+00 1634890835
1.022912 -0.654936 -2.277497 0.000000000000000e+00 1634890835
1.255371 -0.399381 -2.311866 0.000000000000000e+00 1634890835
1.209674 -0.471085 -2.336230 0.000000000000000e+00 1634890835
1.067756 -0.587236 -2.291816 0.000000000000000e+00 1634890835
1.009878 -0.648298 -2.299212 0.000000000000000e+00 1634890835
1.207379 -0.382799 -2.267537 0.000000000000000e+00 1634890835
1.173648 -0.456345 -2.312991 0.000000000000000e+00 1634890835
1.075448 -0.592291 -2.358994 0.000000000000000e+00 1634890835
0.996302 -0.641327 -2.320162 0.000000000000000e+00 1634890835
1.182688 -0.373644 -2.265639 0.000000000000000e+00 1634890835
1.125324 -0.436851 -2.263601 0.000000000000000e+00 1634890835
1.037426 -0.572175 -2.326187 0.000000000000000e+00 1634890835
0.974886 -0.629313 -2.322910 0.000000000000000e+00 1634890835
1.164626 -0.366591 -2.276197 0.000000000000000e+00 1634890835
1.136150 -0.440321 -2.333173 0.000000000000000e+00 1634890835
1.015971 -0.561179 -2.329403 0.000000000000000e+00 1634890835
0.946384 -0.612697 -2.308011 0.000000000000000e+00 1634890835
1.154485 -0.362022 -2.302565 0.000000000000000e+00 1634890835
1.106037 -0.427912 -2.319409 0.000000000000000e+00 1634890835
0.994286 -0.550049 -2.331751 0.000000000000000e+00 1634890835
0.921973 -0.598697 -2.302120 0.000000000000000e+00 1634890835
1.115947 -0.348563 -2.271802 0.000000000000000e+00 1634890835
1.092295 -0.421842 -2.339679 0.000000000000000e+00 1634890835
0.960955 -0.532461 -2.305793 0.000000000000000e+00 1634890835
0.892249 -0.581212 -2.281875 0.000000000000000e+00 1634890835
1.114681 -0.346749 -2.316798 0.000000000000000e+00 1634890835
1.069674 -0.412343 -2.340971 0.000000000000000e+00 1634890835
0.948101 -0.526211 -2.328441 0.000000000000000e+00 1634890835
0.862491 -0.563655 -2.260064 0.000000000000000e+00 1634890835
1.079404 -0.334356 -2.291106 0.000000000000000e+00 1634890835
1.034272 -0.397931 -2.313294 0.000000000000000e+00 1634890835
0.918593 -0.510712 -2.309834 0.000000000000000e+00 1634890835
0.864505 -0.566879 -2.322026 0.000000000000000e+00 1634890835
1.070694 -0.330201 -2.321503 0.000000000000000e+00 1634890835
1.041020 -0.399731 -2.380334 0.000000000000000e+00 1634890835
0.903847 -0.503412 -2.327883 0.000000000000000e+00 1634890835
0.824941 -0.542835 -2.272158 0.000000000000000e+00 1634890835
1.044116 -0.320533 -2.313231 0.000000000000000e+00 1634890835
0.994814 -0.381199 -2.326163 0.000000000000000e+00 1634890835
0.881086 -0.491646 -2.325217 0.000000000000000e+00 1634890835
0.485819 -0.320849 -1.372770 0.000000000000000e+00 1936876886
1.002876 -0.306408 -2.270986 0.000000000000000e+00 1634890835
0.951672 -0.363883 -2.276407 0.000000000000000e+00 1634890835
0.834538 -0.466574 -2.257620 0.000000000000000e+00 1634890835
0.439818 -0.291573 -1.275581 0.000000000000000e+00 1936876886
0.994832 -0.302445 -2.303303 0.000000000000000e+00 1634890835
0.931138 -0.355235 -2.279253 0.000000000000000e+00 1634890835
0.860205 -0.481893 -2.386465 0.000000000000000e+00 1634890835
0.409353 -0.272452 -1.219157 0.000000000000000e+00 1936876886
0.967634 -0.292656 -2.291347 0.000000000000000e+00 1634890835
0.903868 -0.344026 -2.264950 0.000000000000000e+00 1634890835
0.443778 -0.249129 -1.263185 0.000000000000000e+00 1936876886
0.354863 -0.237161 -1.085863 0.000000000000000e+00 1953264973
0.956119 -0.287613 -2.316440 0.000000000000000e+00 1634890835
0.909034 -0.345150 -2.332794 0.000000000000000e+00 1634890835
0.442741 -0.249091 -1.293629 0.000000000000000e+00 1936876886
0.303406 -0.203646 -0.954401 0.000000000000000e+00 1953264973
0.504113 -0.150788 -1.250043 0.000000000000000e+00 1936876886
0.884909 -0.335136 -2.326556 0.000000000000000e+00 1634890835
0.376995 -0.212587 -1.131299 0.000000000000000e+00 1953264973
0.294021 -0.198237 -0.951328 0.000000000000000e+00 1953264973
0.478103 -0.142164 -1.213873 0.000000000000000e+00 1936876886
0.858984 -0.324452 -2.314752 0.000000000000000e+00 1634890835
0.348475 -0.196975 -1.074556 0.000000000000000e+00 1953264973
0.261672 -0.177260 -0.871415 0.000000000000000e+00 1953264973
0.492909 -0.145660 -1.281886 0.000000000000000e+00 1936876886
0.836313 -0.315011 -2.310941 0.000000000000000e+00 1634890835
0.323350 -0.183232 -1.025174 0.000000000000000e+00 1953264973
0.247491 -0.168484 -0.848847 0.000000000000000e+00 1953264973
