# .PCD v0.7 - Point Cloud Data file format
VERSION 0.7
FIELDS x y z rgb label
SIZE 4 4 4 4 4
TYPE F F F F U
COUNT 1 1 1 1 1
WIDTH 541
HEIGHT 1
VIEWPOINT 0 0 0 1 0 0 0
POINTS 541
DATA ascii
44.764648 -18.924093 9.966065 0.000000000000000e+00 1954047316
34.957706 -13.006578 -1.903674 0.000000000000000e+00 1851878480
33.073845 -13.839477 -1.706889 0.000000000000000e+00 1851878480
30.746958 -15.861933 -1.356076 0.000000000000000e+00 1851878480
29.912491 -16.973249 -1.176852 0.000000000000000e+00 1851878480
31.299870 -11.636805 -1.988612 0.000000000000000e+00 1851878480
30.501936 -12.758809 -1.859467 0.000000000000000e+00 1851878480
29.085911 -15.009650 -1.572830 0.000000000000000e+00 1851878480
28.236246 -16.031548 -1.402198 0.000000000000000e+00 1851878480
29.075775 -10.801723 -2.111450 0.000000000000000e+00 1851878480
28.669020 -11.987930 -2.016120 0.000000000000000e+00 1851878480
27.466953 -14.178592 -1.759439 0.000000000000000e+00 1851878480
26.229662 -14.901068 -1.573451 0.000000000000000e+00 1851878480
27.041706 -10.038427 -2.209621 0.000000000000000e+00 1851878480
26.656462 -11.142460 -2.124382 0.000000000000000e+00 1851878480
25.796448 -13.320391 -1.910214 0.000000000000000e+00 1851878480
24.594254 -13.980227 -1.729687 0.000000000000000e+00 1851878480
24.507219 -9.090661 -2.225603 0.000000000000000e+00 1851878480
24.588326 -10.274364 -2.190242 0.000000000000000e+00 1851878480
23.782362 -12.284186 -1.999045 0.000000000000000e+00 1851878480
23.062717 -13.117413 -1.860827 0.000000000000000e+00 1851878480
22.235313 -8.241643 -2.221918 0.000000000000000e+00 1851878480
22.429789 -9.369121 -2.208660 0.000000000000000e+00 1851878480
21.792332 -11.259789 -2.050154 0.000000000000000e+00 1851878480
21.399244 -12.178477 -1.948583 0.000000000000000e+00 1851878480
20.421850 -7.563704 -2.227057 0.000000000000000e+00 1851878480
20.516575 -8.566931 -2.213260 0.000000000000000e+00 1851878480
20.298508 -10.491202 -2.113363 0.000000000000000e+00 1851878480
19.844818 -11.300545 -2.013250 0.000000000000000e+00 1851878480
18.959429 -7.016697 -2.240847 0.000000000000000e+00 1851878480
19.006363 -7.933527 -2.229415 0.000000000000000e+00 1851878480
19.217224 -9.935446 -2.194024 0.000000000000000e+00 1851878480
18.753876 -10.685647 -2.097828 0.000000000000000e+00 1851878480
17.611391 -6.512807 -2.242733 0.000000000000000e+00 1851878480
17.668283 -7.372385 -2.239214 0.000000000000000e+00 1851878480
17.653894 -9.130039 -2.193406 0.000000000000000e+00 1851878480
17.779041 -10.136236 -2.174273 0.000000000000000e+00 1851878480
16.418255 -6.066921 -2.241354 0.000000000000000e+00 1851878480
16.492960 -6.879530 -2.246214 0.000000000000000e+00 1851878480
16.473677 -8.522335 -2.213100 0.000000000000000e+00 1851878480
16.498371 -9.411709 -2.190175 0.000000000000000e+00 1851878480
15.369111 -5.674877 -2.239340 0.000000000000000e+00 1851878480
15.403413 -6.422773 -2.243772 0.000000000000000e+00 1851878480
15.464460 -8.002740 -2.234010 0.000000000000000e+00 1851878480
15.429588 -8.807270 -2.210022 0.000000000000000e+00 1851878480
14.487227 -5.345121 -2.244229 0.000000000000000e+00 1851878480
14.449888 -6.023037 -2.242084 0.000000000000000e+00 1851878480
14.525887 -7.519397 -2.245772 0.000000000000000e+00 1851878480
14.441416 -8.248157 -2.220244 0.000000000000000e+00 1851878480
13.705729 -5.052881 -2.249636 0.000000000000000e+00 1851878480
13.607306 -5.669813 -2.240859 0.000000000000000e+00 1851878480
13.617709 -7.051498 -2.243858 0.000000000000000e+00 1851878480
13.591508 -7.767397 -2.232799 0.000000000000000e+00 1851878480
12.922710 -4.760515 -2.240641 0.000000000000000e+00 1851878480
12.882565 -5.365909 -2.244427 0.000000000000000e+00 1851878480
12.782711 -6.621211 -2.236633 0.000000000000000e+00 1851878480
12.821745 -7.331900 -2.241846 0.000000000000000e+00 1851878480
12.247253 -4.508180 -2.237095 0.000000000000000e+00 1851878480
12.240775 -5.096767 -2.249720 0.000000000000000e+00 1851878480
12.125070 -6.282556 -2.245580 0.000000000000000e+00 1851878480
12.076271 -6.909792 -2.239520 0.000000000000000e+00 1851878480
11.661053 -4.289055 -2.238440 0.000000000000000e+00 1851878480
11.624199 -4.838297 -2.247916 0.000000000000000e+00 1851878480
11.522206 -5.972079 -2.252137 0.000000000000000e+00 1851878480
11.429652 -6.543766 -2.241157 0.000000000000000e+00 1851878480
11.180645 -4.109138 -2.250469 0.000000000000000e+00 1851878480
11.081492 -4.610742 -2.249589 0.000000000000000e+00 1851878480
10.916819 -5.660098 -2.246168 0.000000000000000e+00 1851878480
10.813341 -6.194676 -2.235697 0.000000000000000e+00 1851878480
10.682315 -3.922911 -2.250063 0.000000000000000e+00 1851878480
10.598198 -4.408059 -2.253767 0.000000000000000e+00 1851878480
10.400870 -5.394313 -2.247422 0.000000000000000e+00 1851878480
10.379083 -5.949527 -2.257060 0.000000000000000e+00 1851878480
10.182004 -3.736238 -2.240200 0.000000000000000e+00 1851878480
10.035945 -4.172686 -2.231381 0.000000000000000e+00 1851878480
9.918571 -5.145829 -2.246006 0.000000000000000e+00 1851878480
9.814651 -5.629427 -2.239815 0.000000000000000e+00 1851878480
9.764668 -3.580267 -2.240284 0.000000000000000e+00 1851878480
9.719177 -4.039512 -2.255383 0.000000000000000e+00 1851878480
9.500158 -4.930338 -2.250084 0.000000000000000e+00 1851878480
9.397887 -5.393695 -2.246114 0.000000000000000e+00 1851878480
9.404621 -3.445520 -2.246498 0.000000000000000e+00 1851878480
9.235750 -3.837185 -2.233258 0.000000000000000e+00 1851878480
9.105166 -4.726875 -2.251616 0.000000000000000e+00 1851878480
8.987767 -5.161500 -2.245472 0.000000000000000e+00 1851878480
9.047944 -3.312205 -2.247054 0.000000000000000e+00 1851878480
8.895787 -3.694582 -2.238116 0.000000000000000e+00 1851878480
8.706753 -4.521506 -2.244383 0.000000000000000e+00 1851878480
8.617975 -4.952196 -2.246848 0.000000000000000e+00 1851878480
8.699646 -3.182162 -2.243320 0.000000000000000e+00 1851878480
8.616416 -3.577236 -2.252485 0.000000000000000e+00 1851878480
8.364998 -4.345444 -2.244364 0.000000000000000e+00 1851878480
8.238553 -4.737113 -2.237959 0.000000000000000e+00 1851878480
8.415809 -3.075870 -2.250505 0.000000000000000e+00 1851878480
8.267241 -3.431000 -2.242759 0.000000000000000e+00 1851878480
8.012280 -4.163579 -2.234462 0.000000000000000e+00 1851878480
7.904390 -4.547814 -2.233960 0.000000000000000e+00 1851878480
8.051462 -2.940332 -2.230283 0.000000000000000e+00 1851878480
8.006678 -3.321630 -2.251390 0.000000000000000e+00 1851878480
7.802529 -4.055910 -2.258856 0.000000000000000e+00 1851878480
7.650657 -4.404588 -2.246638 0.000000000000000e+00 1851878480
7.868552 -2.871202 -2.255387 0.000000000000000e+00 1851878480
7.691628 -3.189739 -2.239329 0.000000000000000e+00 1851878480
7.467780 -3.883184 -2.241652 0.000000000000000e+00 1851878480
7.395225 -4.260216 -2.253600 0.000000000000000e+00 1851878480
7.568386 -2.759428 -2.242549 0.000000000000000e+00 1851878480
7.503914 -3.110724 -2.259674 0.000000000000000e+00 1851878480
7.233525 -3.762621 -2.248916 0.000000000000000e+00 1851878480
7.098604 -4.091935 -2.242290 0.000000000000000e+00 1851878480
7.294880 -2.657532 -2.232380 0.000000000000000e+00 1851878480
7.189992 -2.979467 -2.237337 0.000000000000000e+00 1851878480
7.035774 -3.660976 -2.263276 0.000000000000000e+00 1851878480
6.891858 -3.975283 -2.254165 0.000000000000000e+00 1851878480
7.054052 -2.567690 -2.227537 0.000000000000000e+00 1851878480
6.966393 -2.885716 -2.238049 0.000000000000000e+00 1851878480
6.774728 -3.526326 -2.252714 0.000000000000000e+00 1851878480
6.647147 -3.836587 -2.248974 0.000000000000000e+00 1851878480
6.882890 -2.503315 -2.240994 0.000000000000000e+00 1851878480
6.808147 -2.819090 -2.256245 0.000000000000000e+00 1851878480
6.576288 -3.424186 -2.258370 0.000000000000000e+00 1851878480
6.373713 -3.681136 -2.228630 0.000000000000000e+00 1851878480
6.732068 -2.446426 -2.258245 0.000000000000000e+00 1851878480
6.561869 -2.716072 -2.241509 0.000000000000000e+00 1851878480
6.329182 -3.296642 -2.242845 0.000000000000000e+00 1851878480
6.251035 -3.612618 -2.256924 0.000000000000000e+00 1851878480
6.491035 -2.356866 -2.241704 0.000000000000000e+00 1851878480
6.361553 -2.632143 -2.238267 0.000000000000000e+00 1851878480
6.122710 -3.190182 -2.237134 0.000000000000000e+00 1851878480
6.052820 -3.500345 -2.254702 0.000000000000000e+00 1851878480
6.366517 -2.309713 -2.262114 0.000000000000000e+00 1851878480
6.223277 -2.573936 -2.253735 0.000000000000000e+00 1851878480
5.974553 -3.114053 -2.249212 0.000000000000000e+00 1851878480
5.858386 -3.390121 -2.249801 0.000000000000000e+00 1851878480
6.160778 -2.233184 -2.250713 0.000000000000000e+00 1851878480
6.113466 -2.527530 -2.277312 0.000000000000000e+00 1851878480
5.817285 -3.033125 -2.254868 0.000000000000000e+00 1851878480
5.677858 -3.287818 -2.246334 0.000000000000000e+00 1851878480
6.007091 -2.175624 -2.255067 0.000000000000000e+00 1851878480
5.859095 -2.421417 -2.243619 0.000000000000000e+00 1851878480
5.642056 -2.942781 -2.250246 0.000000000000000e+00 1851878480
5.519874 -3.198452 -2.248273 0.000000000000000e+00 1851878480
5.793093 -2.096327 -2.233416 0.000000000000000e+00 1851878480
5.671104 -2.342803 -2.231088 0.000000000000000e+00 1851878480
5.480575 -2.859553 -2.247725 0.000000000000000e+00 1851878480
5.367617 -3.112304 -2.249342 0.000000000000000e+00 1851878480
5.602833 -2.025732 -2.217159 0.000000000000000e+00 1851878480
5.528030 -2.282790 -2.233114 0.000000000000000e+00 1851878480
5.371707 -2.803734 -2.264131 0.000000000000000e+00 1851878480
5.227488 -3.033087 -2.252478 0.000000000000000e+00 1851878480
5.517490 -1.993148 -2.239957 0.000000000000000e+00 1851878480
5.438422 -2.244889 -2.254647 0.000000000000000e+00 1851878480
5.178441 -2.703814 -2.241928 0.000000000000000e+00 1851878480
5.073169 -2.945542 -2.246439 0.000000000000000e+00 1851878480
5.369046 -1.937834 -2.235088 0.000000000000000e+00 1851878480
5.304477 -2.188722 -2.255794 0.000000000000000e+00 1851878480
5.069436 -2.647842 -2.253151 0.000000000000000e+00 1851878480
4.929918 -2.864317 -2.242181 0.000000000000000e+00 1851878480
5.256996 -1.895725 -2.243032 0.000000000000000e+00 1851878480
5.146869 -2.122830 -2.244128 0.000000000000000e+00 1851878480
4.999673 -2.612339 -2.280167 0.000000000000000e+00 1851878480
4.820320 -2.802560 -2.250621 0.000000000000000e+00 1851878480
5.155508 -1.857483 -2.253620 0.000000000000000e+00 1851878480
5.060152 -2.086213 -2.261117 0.000000000000000e+00 1851878480
4.837051 -2.528282 -2.262547 0.000000000000000e+00 1851878480
4.708981 -2.739716 -2.256010 0.000000000000000e+00 1851878480
5.041532 -1.814802 -2.256855 0.000000000000000e+00 1851878480
4.921425 -2.028186 -2.252797 0.000000000000000e+00 1851878480
4.703023 -2.459117 -2.255247 0.000000000000000e+00 1851878480
4.578857 -2.665865 -2.249893 0.000000000000000e+00 1851878480
4.896959 -1.761180 -2.244033 0.000000000000000e+00 1851878480
4.817290 -1.984451 -2.258042 0.000000000000000e+00 1851878480
4.590337 -2.401076 -2.255692 0.000000000000000e+00 1851878480
4.408722 -2.568609 -2.220860 0.000000000000000e+00 1851878480
4.770442 -1.714125 -2.236973 0.000000000000000e+00 1851878480
4.651849 -1.915501 -2.231967 0.000000000000000e+00 1851878480
4.503228 -2.356381 -2.266757 0.000000000000000e+00 1851878480
4.343232 -2.532242 -2.242067 0.000000000000000e+00 1851878480
4.690766 -1.683961 -2.250044 0.000000000000000e+00 1851878480
4.597482 -1.892318 -2.257136 0.000000000000000e+00 1851878480
4.396503 -2.301392 -2.266053 0.000000000000000e+00 1851878480
4.215573 -2.459563 -2.229209 0.000000000000000e+00 1851878480
4.556291 -1.634182 -2.234893 0.000000000000000e+00 1851878480
4.454195 -1.832566 -2.236830 0.000000000000000e+00 1851878480
4.281679 -2.242127 -2.258930 0.000000000000000e+00 1851878480
4.162288 -2.430220 -2.253854 0.000000000000000e+00 1851878480
4.479030 -1.604987 -2.245886 0.000000000000000e+00 1851878480
4.379377 -1.801016 -2.248848 0.000000000000000e+00 1851878480
4.165906 -2.182325 -2.248930 0.000000000000000e+00 1851878480
4.059225 -2.371763 -2.250012 0.000000000000000e+00 1851878480
4.417313 -1.581392 -2.263534 0.000000000000000e+00 1851878480
4.268310 -1.754583 -2.240538 0.000000000000000e+00 1851878480
4.090714 -2.143753 -2.258932 0.000000000000000e+00 1851878480
3.955261 -2.312705 -2.243474 0.000000000000000e+00 1851878480
4.304435 -1.539533 -2.253426 0.000000000000000e+00 1851878480
4.177837 -1.716648 -2.241132 0.000000000000000e+00 1851878480
4.004880 -2.099579 -2.261502 0.000000000000000e+00 1851878480
3.878774 -2.269655 -2.250651 0.000000000000000e+00 1851878480
4.194798 -1.498893 -2.242927 0.000000000000000e+00 1851878480
4.124808 -1.694116 -2.260563 0.000000000000000e+00 1851878480
3.886155 -2.038127 -2.243385 0.000000000000000e+00 1851878480
3.743068 -2.191875 -2.221156 0.000000000000000e+00 1851878480
4.104750 -1.465313 -2.241056 0.000000000000000e+00 1851878480
3.999197 -1.641802 -2.238543 0.000000000000000e+00 1851878480
3.819764 -2.004094 -2.253594 0.000000000000000e+00 1851878480
3.683208 -2.158443 -2.234560 0.000000000000000e+00 1851878480
4.025947 -1.435792 -2.243810 0.000000000000000e+00 1851878480
3.929853 -1.612616 -2.246143 0.000000000000000e+00 1851878480
3.747374 -1.966890 -2.258949 0.000000000000000e+00 1851878480
3.590834 -2.105905 -2.226684 0.000000000000000e+00 1851878480
3.979642 -1.417893 -2.263649 0.000000000000000e+00 1634890835
3.882466 -1.592454 -2.265328 0.000000000000000e+00 1851878480
3.692390 -1.938804 -2.273620 0.000000000000000e+00 1851878480
3.541074 -2.078310 -2.243799 0.000000000000000e+00 1851878480
3.923441 -1.396492 -2.277088 0.000000000000000e+00 1634890835
3.780497 -1.549927 -2.251303 0.000000000000000e+00 1851878480
3.643293 -1.913792 -2.291033 0.000000000000000e+00 1851878480
3.496836 -2.053933 -2.263626 0.000000000000000e+00 1851878480
3.857577 -1.371683 -2.283913 0.000000000000000e+00 1634890835
3.696714 -1.514883 -2.246290 0.000000000000000e+00 1851878480
3.499259 -1.838880 -2.246680 0.000000000000000e+00 1851878480
3.408264 -2.003470 -2.253421 0.000000000000000e+00 1851878480
3.819332 -1.356721 -2.306291 0.000000000000000e+00 1634890835
3.604598 -1.476453 -2.234500 0.000000000000000e+00 1851878480
3.445971 -1.811623 -2.258452 0.000000000000000e+00 1851878480
3.320710 -1.953543 -2.241942 0.000000000000000e+00 1851878480
3.745356 -1.329092 -2.306188 0.000000000000000e+00 1634890835
3.571079 -1.462041 -2.257923 0.000000000000000e+00 1851878480
3.368835 -1.771807 -2.253325 0.000000000000000e+00 1851878480
3.293432 -1.939042 -2.270054 0.000000000000000e+00 1851878480
3.637569 -1.289520 -2.283526 0.000000000000000e+00 1634890835
3.487771 -1.427257 -2.248852 0.000000000000000e+00 1851878480
3.358606 -1.767167 -2.292255 0.000000000000000e+00 1851878480
3.213056 -1.893240 -2.260548 0.000000000000000e+00 1851878480
3.592081 -1.272075 -2.298558 0.000000000000000e+00 1634890835
3.475750 -1.421661 -2.284998 0.000000000000000e+00 1634890835
3.250454 -1.710986 -2.263223 0.000000000000000e+00 1851878480
3.123804 -1.842149 -2.242879 0.000000000000000e+00 1851878480
3.524740 -1.246919 -2.298668 0.000000000000000e+00 1634890835
3.406146 -1.392518 -2.282704 0.000000000000000e+00 1634890835
3.201436 -1.685905 -2.273689 0.000000000000000e+00 1851878480
3.111550 -1.836432 -2.279545 0.000000000000000e+00 1851878480
3.454911 -1.220924 -2.295913 0.000000000000000e+00 1634890835
3.328610 -1.360156 -2.273668 0.000000000000000e+00 1634890835
3.138835 -1.653655 -2.273449 0.000000000000000e+00 1851878480
2.988967 -1.765552 -2.233927 0.000000000000000e+00 1851878480
3.385023 -1.194947 -2.291827 0.000000000000000e+00 1634890835
3.311574 -1.352529 -2.305201 0.000000000000000e+00 1634890835
3.043725 -1.604251 -2.247939 0.000000000000000e+00 1851878480
2.940914 -1.738630 -2.242010 0.000000000000000e+00 1851878480
3.294858 -1.161856 -2.272452 0.000000000000000e+00 1634890835
3.249860 -1.326661 -2.305075 0.000000000000000e+00 1634890835
2.960865 -1.561269 -2.229437 0.000000000000000e+00 1851878480
2.902236 -1.717225 -2.256474 0.000000000000000e+00 1851878480
3.292089 -1.159609 -2.312633 0.000000000000000e+00 1634890835
3.157805 -1.288432 -2.281869 0.000000000000000e+00 1634890835
2.948802 -1.555606 -2.263384 0.000000000000000e+00 1851878480
2.851621 -1.688730 -2.260843 0.000000000000000e+00 1851878480
3.166850 -1.114259 -2.265595 0.000000000000000e+00 1634890835
3.128563 -1.275850 -2.302915 0.000000000000000e+00 1634890835
2.908525 -1.535053 -2.275432 0.000000000000000e+00 1851878480
2.758376 -1.634937 -2.229744 0.000000000000000e+00 1851878480
3.126857 -1.098952 -2.277864 0.000000000000000e+00 1634890835
3.043756 -1.240625 -2.282002 0.000000000000000e+00 1634890835
2.816300 -1.487064 -2.245401 0.000000000000000e+00 1851878480
2.709784 -1.607553 -2.233083 0.000000000000000e+00 1851878480
3.087190 -1.083779 -2.289796 0.000000000000000e+00 1634890835
3.013420 -1.227617 -2.300846 0.000000000000000e+00 1634890835
2.783896 -1.470636 -2.261730 0.000000000000000e+00 1851878480
0.850816 -0.505190 -0.714700 0.000000000000000e+00 1886740808
3.035879 -1.064541 -2.292362 0.000000000000000e+00 1634890835
2.911748 -1.185570 -2.263889 0.000000000000000e+00 1634890835
2.735763 -1.445890 -2.264599 0.000000000000000e+00 1851878480
0.855588 -0.508483 -0.732526 0.000000000000000e+00 1886740808
2.929743 -1.026128 -2.251892 0.000000000000000e+00 1634890835
2.890210 -1.176172 -2.288014 0.000000000000000e+00 1634890835
0.858204 -0.453790 -0.723741 0.000000000000000e+00 1886740808
0.825404 -0.490995 -0.720195 0.000000000000000e+00 1886740808
2.920119 -1.021551 -2.284518 0.000000000000000e+00 1634890835
2.850355 -1.159321 -2.297277 0.000000000000000e+00 1634890835
0.857978 -0.453889 -0.737067 0.000000000000000e+00 1886740808
0.793010 -0.472164 -0.705093 0.000000000000000e+00 1886740808
2.906766 -1.015664 -2.314409 0.000000000000000e+00 1634890835
2.790312 -1.134276 -2.289351 0.000000000000000e+00 1634890835
0.868532 -0.459698 -0.760004 0.000000000000000e+00 1886740808
0.781512 -0.465756 -0.708025 0.000000000000000e+00 1886740808
2.845308 -0.992986 -2.305458 0.000000000000000e+00 1634890835
2.746531 -1.115857 -2.293782 0.000000000000000e+00 1634890835
0.835285 -0.442320 -0.744436 0.000000000000000e+00 1886740808
0.815270 -0.486340 -0.752532 0.000000000000000e+00 1886740808
2.782445 -0.969854 -2.294127 0.000000000000000e+00 1634890835
0.844088 -0.342741 -0.717511 0.000000000000000e+00 1886740808
0.828855 -0.439136 -0.752318 0.000000000000000e+00 1886740808
0.789623 -0.471497 -0.742543 0.000000000000000e+00 1886740808
0.840789 -0.292702 -0.705355 0.000000000000000e+00 1886740808
0.818322 -0.332089 -0.707956 0.000000000000000e+00 1886740808
0.769739 -0.408023 -0.711485 0.000000000000000e+00 1886740808
0.744819 -0.445181 -0.713512 0.000000000000000e+00 1886740808
0.804494 -0.279713 -0.686663 0.000000000000000e+00 1886740808
0.855737 -0.347070 -0.753415 0.000000000000000e+00 1886740808
0.813376 -0.431377 -0.765570 0.000000000000000e+00 1886740808
0.766543 -0.458622 -0.748011 0.000000000000000e+00 1886740808
0.831311 -0.288667 -0.721865 0.000000000000000e+00 1886740808
0.816669 -0.331030 -0.731686 0.000000000000000e+00 1886740808
0.750090 -0.398022 -0.718874 0.000000000000000e+00 1886740808
0.784263 -0.469698 -0.779526 0.000000000000000e+00 1886740808
0.832036 -0.288542 -0.734989 0.000000000000000e+00 1886740808
0.809015 -0.327732 -0.737557 0.000000000000000e+00 1886740808
0.796722 -0.422993 -0.777447 0.000000000000000e+00 1886740808
0.796251 -0.477368 -0.806112 0.000000000000000e+00 1886740808
0.829319 -0.287221 -0.745218 0.000000000000000e+00 1886740808
0.776833 -0.314503 -0.720616 0.000000000000000e+00 1886740808
0.761630 -0.404581 -0.756679 0.000000000000000e+00 1886740808
0.750136 -0.450191 -0.773470 0.000000000000000e+00 1886740808
0.748600 -0.258917 -0.684248 0.000000000000000e+00 1886740808
0.775357 -0.313713 -0.731805 0.000000000000000e+00 1886740808
0.788077 -0.418859 -0.797117 0.000000000000000e+00 1886740808
0.762111 -0.457862 -0.800319 0.000000000000000e+00 1886740808
0.786890 -0.271791 -0.731579 0.000000000000000e+00 1886740808
0.794137 -0.321110 -0.762587 0.000000000000000e+00 1886740808
0.748827 -0.398220 -0.771093 0.000000000000000e+00 1886740808
0.790680 -0.475536 -0.845618 0.000000000000000e+00 1886740808
0.763385 -0.263307 -0.721866 0.000000000000000e+00 1886740808
0.741165 -0.299500 -0.724091 0.000000000000000e+00 1886740808
0.810256 -0.431132 -0.849388 0.000000000000000e+00 1886740808
2.111332 -1.271202 -2.299573 0.000000000000000e+00 1634890835
0.729578 -0.251293 -0.701677 0.000000000000000e+00 1886740808
0.748565 -0.302295 -0.744011 0.000000000000000e+00 1886740808
0.763984 -0.406745 -0.815299 0.000000000000000e+00 1886740808
2.061481 -1.242567 -2.286544 0.000000000000000e+00 1634890835
0.777009 -0.267247 -0.760031 0.000000000000000e+00 1886740808
0.752850 -0.303826 -0.761236 0.000000000000000e+00 1886740808
2.120003 -1.129350 -2.303088 0.000000000000000e+00 1634890835
2.042591 -1.232572 -2.307201 0.000000000000000e+00 1634890835
0.733517 -0.251922 -0.729702 0.000000000000000e+00 1886740808
0.755284 -0.304604 -0.776914 0.000000000000000e+00 1886740808
2.123737 -1.132014 -2.348611 0.000000000000000e+00 1634890835
0.794533 -0.480001 -0.913938 0.000000000000000e+00 1886740808
0.775664 -0.266004 -0.784750 0.000000000000000e+00 1886740808
0.785799 -0.316696 -0.822281 0.000000000000000e+00 1886740808
2.091651 -1.115586 -2.354686 0.000000000000000e+00 1634890835
0.776412 -0.469602 -0.909489 0.000000000000000e+00 1886740808
0.769313 -0.263429 -0.791547 0.000000000000000e+00 1886740808
0.747044 -0.300869 -0.795237 0.000000000000000e+00 1886740808
2.015326 -1.075540 -2.309522 0.000000000000000e+00 1634890835
0.811103 -0.491168 -0.967573 0.000000000000000e+00 1886740808
0.724779 -0.247800 -0.758389 0.000000000000000e+00 1886740808
2.163576 -0.870758 -2.342947 0.000000000000000e+00 1634890835
0.821231 -0.438550 -0.958027 0.000000000000000e+00 1886740808
0.816296 -0.494912 -0.991660 0.000000000000000e+00 1886740808
0.741724 -0.253199 -0.789296 0.000000000000000e+00 1886740808
2.069470 -0.832290 -2.279762 0.000000000000000e+00 1634890835
0.834320 -0.445825 -0.990799 0.000000000000000e+00 1886740808
0.786032 -0.477152 -0.972456 0.000000000000000e+00 1886740808
0.741783 -0.252817 -0.802760 0.000000000000000e+00 1886740808
2.050048 -0.823878 -2.297402 0.000000000000000e+00 1634890835
0.806292 -0.431128 -0.974747 0.000000000000000e+00 1886740808
1.835165 -1.115416 -2.312221 0.000000000000000e+00 1634890835
2.120687 -0.721613 -2.333992 0.000000000000000e+00 1634890835
2.025283 -0.813321 -2.308903 0.000000000000000e+00 1634890835
0.808460 -0.432574 -0.994982 0.000000000000000e+00 1886740808
1.727922 -1.051579 -2.217252 0.000000000000000e+00 1634890835
2.031070 -0.689981 -2.273352 0.000000000000000e+00 1634890835
1.970576 -0.790753 -2.285426 0.000000000000000e+00 1634890835
0.791165 -0.423605 -0.991270 0.000000000000000e+00 1886740808
0.758673 -0.462316 -0.991510 0.000000000000000e+00 1886740808
2.051697 -0.695817 -2.335505 0.000000000000000e+00 1634890835
1.948861 -0.781437 -2.299418 0.000000000000000e+00 1634890835
0.794463 -0.425664 -1.013403 0.000000000000000e+00 1886740808
1.695138 -1.034349 -2.256405 0.000000000000000e+00 1634890835
1.951024 -0.660542 -2.258734 0.000000000000000e+00 1634890835
0.820007 -0.328542 -0.984305 0.000000000000000e+00 1886740808
1.769654 -0.948827 -2.298248 0.000000000000000e+00 1634890835
1.722386 -1.052402 -2.335245 0.000000000000000e+00 1634890835
1.945819 -0.657630 -2.291135 0.000000000000000e+00 1634890835
0.811815 -0.324998 -0.991418 0.000000000000000e+00 1886740808
0.768582 -0.412382 -1.016292 0.000000000000000e+00 1886740808
1.677596 -1.026455 -2.316872 0.000000000000000e+00 1634890835
1.895635 -0.639528 -2.270192 0.000000000000000e+00 1634890835
0.825754 -0.330309 -1.026017 0.000000000000000e+00 1886740808
1.741574 -0.935121 -2.344829 0.000000000000000e+00 1634890835
1.636739 -1.002873 -2.302676 0.000000000000000e+00 1634890835
0.822695 -0.277047 -1.002124 0.000000000000000e+00 1886740808
0.810628 -0.323987 -1.024821 0.000000000000000e+00 1886740808
1.708068 -0.917815 -2.341752 0.000000000000000e+00 1634890835
1.614922 -0.990933 -2.314579 0.000000000000000e+00 1634890835
0.797435 -0.268041 -0.988031 0.000000000000000e+00 1886740808
0.776628 -0.310134 -0.999037 0.000000000000000e+00 1886740808
1.659841 -0.892579 -2.317371 0.000000000000000e+00 1634890835
1.566316 -0.962527 -2.287171 0.000000000000000e+00 1634890835
0.775254 -0.260091 -0.977083 0.000000000000000e+00 1886740808
0.788742 -0.314698 -1.032451 0.000000000000000e+00 1886740808
1.609853 -0.866372 -2.288963 0.000000000000000e+00 1634890835
1.548334 -0.952910 -2.303652 0.000000000000000e+00 1634890835
0.778344 -0.260621 -0.997916 0.000000000000000e+00 1886740808
1.733070 -0.690857 -2.308562 0.000000000000000e+00 1634890835
1.618922 -0.871945 -2.344417 0.000000000000000e+00 1634890835
1.525311 -0.940187 -2.312495 0.000000000000000e+00 1634890835
0.786687 -0.262893 -1.026084 0.000000000000000e+00 1886740808
1.687839 -0.672216 -2.288100 0.000000000000000e+00 1634890835
1.560690 -0.841265 -2.302063 0.000000000000000e+00 1634890835
1.482871 -0.915468 -2.291059 0.000000000000000e+00 1634890835
0.793123 -0.264505 -1.052465 0.000000000000000e+00 1886740808
0.753604 -0.299859 -1.039766 0.000000000000000e+00 1886740808
1.527394 -0.824002 -2.294994 0.000000000000000e+00 1634890835
1.444831 -0.893421 -2.275116 0.000000000000000e+00 1634890835
1.659037 -0.552137 -2.239949 0.000000000000000e+00 1634890835
1.625331 -0.646104 -2.282528 0.000000000000000e+00 1634890835
1.522438 -0.822026 -2.330459 0.000000000000000e+00 1634890835
1.421193 -0.880255 -2.281079 0.000000000000000e+00 1634890835
0.759945 -0.252377 -1.044025 0.000000000000000e+00 1886740808
1.589273 -0.631156 -2.271902 0.000000000000000e+00 1634890835
1.488240 -0.804264 -2.321083 0.000000000000000e+00 1634890835
1.393756 -0.864720 -2.280467 0.000000000000000e+00 1634890835
1.653922 -0.548070 -2.312195 0.000000000000000e+00 1634890835
1.579212 -0.626535 -2.298191 0.000000000000000e+00 1634890835
1.448227 -0.783337 -2.301531 0.000000000000000e+00 1634890835
1.384132 -0.860234 -2.308967 0.000000000000000e+00 1634890835
1.589494 -0.525547 -2.261445 0.000000000000000e+00 1634890835
1.568063 -0.621478 -2.323296 0.000000000000000e+00 1634890835
1.428961 -0.773622 -2.314270 0.000000000000000e+00 1634890835
1.368653 -0.852123 -2.328056 0.000000000000000e+00 1634890835
1.590979 -0.524836 -2.303817 0.000000000000000e+00 1634890835
1.515367 -0.599964 -2.286113 0.000000000000000e+00 1634890835
1.414482 -0.766500 -2.334845 0.000000000000000e+00 1634890835
1.289225 -0.804131 -2.236397 0.000000000000000e+00 1634890835
1.561655 -0.513953 -2.301795 0.000000000000000e+00 1634890835
1.497157 -0.592118 -2.300023 0.000000000000000e+00 1634890835
1.393784 -0.756009 -2.345202 0.000000000000000e+00 1634890835
1.294336 -0.808824 -2.290078 0.000000000000000e+00 1634890835
1.517375 -0.498179 -2.276759 0.000000000000000e+00 1634890835
1.501676 -0.593252 -2.349497 0.000000000000000e+00 1634890835
1.337832 -0.726375 -2.294938 0.000000000000000e+00 1634890835
1.272318 -0.796587 -2.296412 0.000000000000000e+00 1634890835
1.468867 -0.481061 -2.243864 0.000000000000000e+00 1634890835
1.435470 -0.566457 -2.287593 0.000000000000000e+00 1634890835
1.324169 -0.719683 -2.316120 0.000000000000000e+00 1634890835
1.244855 -0.780925 -2.292426 0.000000000000000e+00 1634890835
1.447664 -0.472915 -2.251762 0.000000000000000e+00 1634890835
1.407957 -0.554957 -2.285680 0.000000000000000e+00 1634890835
1.288997 -0.701295 -2.299248 0.000000000000000e+00 1634890835
1.239968 -0.779430 -2.330155 0.000000000000000e+00 1634890835
1.432836 -0.466851 -2.269572 0.000000000000000e+00 1634890835
1.402437 -0.552123 -2.319581 0.000000000000000e+00 1634890835
1.278790 -0.696483 -2.326595 0.000000000000000e+00 1634890835
1.209401 -0.761792 -2.319647 0.000000000000000e+00 1634890835
1.407508 -0.457369 -2.270637 0.000000000000000e+00 1634890835
1.368304 -0.538025 -2.306056 0.000000000000000e+00 1634890835
1.265273 -0.689876 -2.348382 0.000000000000000e+00 1634890835
1.162825 -0.734018 -2.276816 0.000000000000000e+00 1634890835
1.420178 -0.460215 -2.333717 0.000000000000000e+00 1634890835
1.332341 -0.523226 -2.288387 0.000000000000000e+00 1634890835
1.227283 -0.669919 -2.324193 0.000000000000000e+00 1634890835
1.139410 -0.720818 -2.277949 0.000000000000000e+00 1634890835
1.371897 -0.443307 -2.296667 0.000000000000000e+00 1634890835
1.319629 -0.517562 -2.310261 0.000000000000000e+00 1634890835
1.222911 -0.668306 -2.363464 0.000000000000000e+00 1634890835
1.131873 -0.717669 -2.311030 0.000000000000000e+00 1634890835
1.348130 -0.434352 -2.299563 0.000000000000000e+00 1634890835
1.308298 -0.512434 -2.334980 0.000000000000000e+00 1634890835
1.195443 -0.654077 -2.358295 0.000000000000000e+00 1634890835
1.124197 -0.714461 -2.344725 0.000000000000000e+00 1634890835
1.305078 -0.419215 -2.268590 0.000000000000000e+00 1634890835
1.252657 -0.489966 -2.279566 0.000000000000000e+00 1634890835
1.158793 -0.634804 -2.333903 0.000000000000000e+00 1634890835
1.100777 -0.701257 -2.345820 0.000000000000000e+00 1634890835
1.299405 -0.416096 -2.302200 0.000000000000000e+00 1634890835
1.227283 -0.479363 -2.277657 0.000000000000000e+00 1634890835
1.130085 -0.619863 -2.324308 0.000000000000000e+00 1634890835
1.055553 -0.674112 -2.298954 0.000000000000000e+00 1634890835
1.271602 -0.405888 -2.296706 0.000000000000000e+00 1634890835
1.203361 -0.469333 -2.277965 0.000000000000000e+00 1634890835
1.118634 -0.614385 -2.350059 0.000000000000000e+00 1634890835
1.036060 -0.663354 -2.306772 0.000000000000000e+00 1634890835
1.264089 -0.402155 -2.327921 0.000000000000000e+00 1634890835
1.214540 -0.472980 -2.345626 0.000000000000000e+00 1634890835
1.082814 -0.595517 -2.324135 0.000000000000000e+00 1634890835
1.006378 -0.646050 -2.291242 0.000000000000000e+00 1634890835
1.222440 -0.387574 -2.295824 0.000000000000000e+00 1634890835
1.166098 -0.453409 -2.298110 0.000000000000000e+00 1634890835
1.056554 -0.581886 -2.317552 0.000000000000000e+00 1634890835
0.976127 -0.628340 -2.273178 0.000000000000000e+00 1634890835
1.199434 -0.378935 -2.297719 0.000000000000000e+00 1634890835
1.161549 -0.450914 -2.336468 0.000000000000000e+00 1634890835
1.023072 -0.564258 -2.293999 0.000000000000000e+00 1634890835
0.953787 -0.615693 -2.272635 0.000000000000000e+00 1634890835
1.170185 -0.368341 -2.287062 0.000000000000000e+00 1634890835
1.126602 -0.436621 -2.313566 0.000000000000000e+00 1634890835
1.011755 -0.558850 -2.319736 0.000000000000000e+00 1634890835
0.953519 -0.617316 -2.325411 0.000000000000000e+00 1634890835
1.144576 -0.358915 -2.282803 0.000000000000000e+00 1634890835
1.102428 -0.426516 -2.311839 0.000000000000000e+00 1634890835
1.012283 -0.560006 -2.373957 0.000000000000000e+00 1634890835
0.915397 -0.594427 -2.285700 0.000000000000000e+00 1634890835
1.127783 -0.352260 -2.295896 0.000000000000000e+00 1634890835
1.088763 -0.420478 -2.332114 0.000000000000000e+00 1634890835
0.978950 -0.542432 -2.348973 0.000000000000000e+00 1634890835
0.892231 -0.581201 -2.281830 0.000000000000000e+00 1634890835
1.117973 -0.347773 -2.323640 0.000000000000000e+00 1634890835
1.046897 -0.403563 -2.291122 0.000000000000000e+00 1634890835
0.949345 -0.526901 -2.331496 0.000000000000000e+00 1634890835
0.893713 -0.584059 -2.341879 0.000000000000000e+00 1634890835
1.080928 -0.334828 -2.294342 0.000000000000000e+00 1634890835
1.038413 -0.399525 -2.322556 0.000000000000000e+00 1634890835
0.912992 -0.507598 -2.295749 0.000000000000000e+00 1634890835
0.850400 -0.557630 -2.284142 0.000000000000000e+00 1634890835
1.052209 -0.324500 -2.281422 0.000000000000000e+00 1634890835
1.013603 -0.389204 -2.317646 0.000000000000000e+00 1634890835
0.896598 -0.499374 -2.309213 0.000000000000000e+00 1634890835
0.819017 -0.538936 -2.255840 0.000000000000000e+00 1634890835
1.043396 -0.320312 -2.311635 0.000000000000000e+00 1634890835
0.977505 -0.374566 -2.285691 0.000000000000000e+00 1634890835
0.890326 -0.496803 -2.349603 0.000000000000000e+00 1634890835
0.462920 -0.305726 -1.308066 0.000000000000000e+00 1936876886
1.026280 -0.313559 -2.323984 0.000000000000000e+00 1634890835
0.977109 -0.373610 -2.337253 0.000000000000000e+00 1634890835
0.841398 -0.470410 -2.276179 0.000000000000000e+00 1634890835
0.442123 -0.293101 -1.282267 0.000000000000000e+00 1936876886
0.979159 -0.297681 -2.267017 0.000000000000000e+00 1634890835
0.955528 -0.364540 -2.338956 0.000000000000000e+00 1634890835
0.849320 -0.475795 -2.356267 0.000000000000000e+00 1634890835
0.438219 -0.291663 -1.305125 0.000000000000000e+00 1936876886
0.989250 -0.299193 -2.342532 0.000000000000000e+00 1634890835
0.924512 -0.351883 -2.316681 0.000000000000000e+00 1634890835
0.451134 -0.253259 -1.284123 0.000000000000000e+00 1936876886
0.338869 -0.226472 -1.036922 0.000000000000000e+00 1953264973
0.943282 -0.283752 -2.285339 0.000000000000000e+00 1634890835
0.898792 -0.341261 -2.306509 0.000000000000000e+00 1634890835
0.442788 -0.249118 -1.293767 0.000000000000000e+00 1936876886
0.316780 -0.212623 -0.996472 0.000000000000000e+00 1953264973
0.522343 -0.156241 -1.295246 0.000000000000000e+00 1936876886
0.878823 -0.332831 -2.310555 0.000000000000000e+00 1634890835
0.347215 -0.195794 -1.041933 0.000000000000000e+00 1953264973
0.270751 -0.182548 -0.876038 0.000000000000000e+00 1953264973
0.490012 -0.145705 -1.244110 0.000000000000000e+00 1936876886
0.842918 -0.318384 -2.271457 0.000000000000000e+00 1634890835
0.343264 -0.194030 -1.058490 0.000000000000000e+00 1953264973
0.258070 -0.174820 -0.859420 0.000000000000000e+00 1953264973
0.471521 -0.139340 -1.226264 0.000000000000000e+00 1936876886
0.854276 -0.321777 -2.360577 0.000000000000000e+00 1634890835
0.301313 -0.170744 -0.955305 0.000000000000000e+00 1953264973
0.242964 -0.165402 -0.833318 0.000000000000000e+00 1953264973
