# .PCD v0.7 - Point Cloud Data file format
VERSION 0.7
FIELDS x y z rgb label
SIZE 4 4 4 4 4
TYPE F F F F U
COUNT 1 1 1 1 1
WIDTH 541
HEIGHT 1
VIEWPOINT 0 0 0 1 0 0 0
POINTS 541
DATA ascii
44.355396 -16.885181 9.819795 0.000000000000000e+00 1954047316
38.118412 -14.182570 -2.075794 0.000000000000000e+00 1851878480
34.415226 -14.400766 -1.776115 0.000000000000000e+00 1851878480
30.816216 -15.897662 -1.359132 0.000000000000000e+00 1851878480
30.108366 -17.084394 -1.184557 0.000000000000000e+00 1851878480
31.377001 -11.665481 -1.993513 0.000000000000000e+00 1851878480
30.580957 -12.791863 -1.864284 0.000000000000000e+00 1851878480
28.732605 -14.827328 -1.553725 0.000000000000000e+00 1851878480
27.996687 -15.895535 -1.390302 0.000000000000000e+00 1851878480
28.923237 -10.745054 -2.100372 0.000000000000000e+00 1851878480
28.161238 -11.775602 -1.980411 0.000000000000000e+00 1851878480
27.326244 -14.105956 -1.750425 0.000000000000000e+00 1851878480
26.498159 -15.053601 -1.589557 0.000000000000000e+00 1851878480
26.844931 -9.965382 -2.193544 0.000000000000000e+00 1851878480
26.518684 -11.084868 -2.113402 0.000000000000000e+00 1851878480
25.776608 -13.310145 -1.908744 0.000000000000000e+00 1851878480
24.813128 -14.104643 -1.745079 0.000000000000000e+00 1851878480
24.523148 -9.096569 -2.227050 0.000000000000000e+00 1851878480
24.713087 -10.326497 -2.201355 0.000000000000000e+00 1851878480
23.935740 -12.363409 -2.011938 0.000000000000000e+00 1851878480
23.452513 -13.339117 -1.892277 0.000000000000000e+00 1851878480
22.238726 -8.242908 -2.222259 0.000000000000000e+00 1851878480
22.605925 -9.442696 -2.226004 0.000000000000000e+00 1851878480
22.145515 -11.442275 -2.083381 0.000000000000000e+00 1851878480
21.763807 -12.385953 -1.981780 0.000000000000000e+00 1851878480
20.432575 -7.567676 -2.228226 0.000000000000000e+00 1851878480
20.613190 -8.607272 -2.223682 0.000000000000000e+00 1851878480
20.478065 -10.584007 -2.132057 0.000000000000000e+00 1851878480
20.064177 -11.425457 -2.035503 0.000000000000000e+00 1851878480
19.009155 -7.035100 -2.246723 0.000000000000000e+00 1851878480
18.999290 -7.930574 -2.228585 0.000000000000000e+00 1851878480
19.175596 -9.913924 -2.189271 0.000000000000000e+00 1851878480
18.681915 -10.644646 -2.089778 0.000000000000000e+00 1851878480
17.551151 -6.490530 -2.235061 0.000000000000000e+00 1851878480
17.670254 -7.373207 -2.239463 0.000000000000000e+00 1851878480
17.766115 -9.188076 -2.207348 0.000000000000000e+00 1851878480
17.708767 -10.096172 -2.165679 0.000000000000000e+00 1851878480
16.433096 -6.072405 -2.243381 0.000000000000000e+00 1851878480
16.433352 -6.854666 -2.238096 0.000000000000000e+00 1851878480
16.527630 -8.550245 -2.220347 0.000000000000000e+00 1851878480
16.515724 -9.421608 -2.192478 0.000000000000000e+00 1851878480
8.794683 -3.247341 -1.281420 1.880790849211783e-38 1684957512
15.415798 -6.427938 -2.245576 0.000000000000000e+00 1851878480
15.435204 -7.987600 -2.229784 0.000000000000000e+00 1851878480
15.457444 -8.823170 -2.214012 0.000000000000000e+00 1851878480
8.464594 -3.123046 -1.311257 1.880790849211783e-38 1684957512
14.464242 -6.029021 -2.244311 0.000000000000000e+00 1851878480
14.532044 -7.522584 -2.246724 0.000000000000000e+00 1851878480
14.465605 -8.261971 -2.223963 0.000000000000000e+00 1851878480
8.487120 -3.128940 -1.393062 1.880790849211783e-38 1684957512
13.639581 -5.683262 -2.246174 0.000000000000000e+00 1851878480
13.622811 -7.054140 -2.244699 0.000000000000000e+00 1851878480
13.601654 -7.773195 -2.234466 0.000000000000000e+00 1851878480
8.416084 -3.100348 -1.459247 1.880790849211783e-38 1684957512
12.876198 -5.363256 -2.243318 0.000000000000000e+00 1851878480
12.752181 -6.605396 -2.231291 0.000000000000000e+00 1851878480
12.871563 -7.360388 -2.250557 0.000000000000000e+00 1851878480
8.428673 -3.102571 -1.539589 1.880790849211783e-38 1684957512
12.172819 -5.068471 -2.237230 0.000000000000000e+00 1851878480
12.137737 -6.289119 -2.247926 0.000000000000000e+00 1851878480
12.096970 -6.921636 -2.243358 0.000000000000000e+00 1851878480
8.458160 -3.110999 -1.623617 1.880790849211783e-38 1684957512
11.667243 -4.856213 -2.256240 0.000000000000000e+00 1851878480
11.485299 -5.952949 -2.244924 0.000000000000000e+00 1851878480
11.437652 -6.548346 -2.242726 0.000000000000000e+00 1851878480
8.432254 -3.099043 -1.697266 1.880790849211783e-38 1684957512
11.091399 -4.614863 -2.251601 0.000000000000000e+00 1851878480
10.888692 -5.645514 -2.240381 0.000000000000000e+00 1851878480
10.857956 -6.220234 -2.244921 0.000000000000000e+00 1851878480
8.470511 -3.110661 -1.784181 1.880790849211783e-38 1684957512
10.527073 -4.378476 -2.238642 0.000000000000000e+00 1851878480
10.419888 -5.404176 -2.251532 0.000000000000000e+00 1851878480
10.317922 -5.914468 -2.243760 0.000000000000000e+00 1851878480
8.429599 -3.093201 -1.854644 1.880790849211783e-38 1684957512
10.122324 -4.208601 -2.250587 0.000000000000000e+00 1851878480
9.918283 -5.145680 -2.245941 0.000000000000000e+00 1851878480
9.826094 -5.635990 -2.242426 0.000000000000000e+00 1851878480
8.448684 -3.097754 -1.938361 1.880790849211783e-38 1684957512
9.666245 -4.017513 -2.243101 0.000000000000000e+00 1851878480
9.422577 -4.890076 -2.231709 0.000000000000000e+00 1851878480
9.402430 -5.396302 -2.247199 0.000000000000000e+00 1851878480
8.403419 -3.078715 -2.007339 1.880790849211783e-38 1684957512
9.276048 -3.853928 -2.243002 0.000000000000000e+00 1851878480
9.079031 -4.713307 -2.245153 0.000000000000000e+00 1851878480
8.981525 -5.157915 -2.243912 0.000000000000000e+00 1851878480
8.450715 -3.093576 -2.098733 1.880790849211783e-38 1684957512
8.947927 -3.716236 -2.251234 0.000000000000000e+00 1851878480
8.740065 -4.538805 -2.252970 0.000000000000000e+00 1851878480
8.595179 -4.939097 -2.240905 0.000000000000000e+00 1851878480
8.511253 -3.113251 -2.194740 1.880790849211783e-38 1684957512
8.522603 -3.538288 -2.227961 0.000000000000000e+00 1851878480
8.368683 -4.347359 -2.245353 0.000000000000000e+00 1851878480
8.252922 -4.745376 -2.241862 0.000000000000000e+00 1851878480
8.362239 -3.056290 -2.236180 0.000000000000000e+00 1851878480
8.243432 -3.421119 -2.236300 0.000000000000000e+00 1851878480
8.092679 -4.205358 -2.256883 0.000000000000000e+00 1851878480
7.909980 -4.551030 -2.235540 0.000000000000000e+00 1851878480
8.129832 -2.968952 -2.251992 0.000000000000000e+00 1851878480
7.978759 -3.310048 -2.243540 0.000000000000000e+00 1851878480
7.779283 -4.043826 -2.252126 0.000000000000000e+00 1851878480
7.585819 -4.367260 -2.227598 0.000000000000000e+00 1851878480
7.821500 -2.854033 -2.241901 0.000000000000000e+00 1851878480
7.730442 -3.205834 -2.250629 0.000000000000000e+00 1851878480
7.489689 -3.894577 -2.248229 0.000000000000000e+00 1851878480
7.340881 -4.228909 -2.237039 0.000000000000000e+00 1851878480
7.542033 -2.749819 -2.234740 0.000000000000000e+00 1851878480
7.487111 -3.103759 -2.254614 0.000000000000000e+00 1851878480
7.260641 -3.776726 -2.257346 0.000000000000000e+00 1851878480
7.089401 -4.086630 -2.239384 0.000000000000000e+00 1851878480
7.344908 -2.675757 -2.247689 0.000000000000000e+00 1851878480
7.200905 -2.983989 -2.240733 0.000000000000000e+00 1851878480
6.978246 -3.631042 -2.244771 0.000000000000000e+00 1851878480
6.897905 -3.978771 -2.256143 0.000000000000000e+00 1851878480
7.089675 -2.580657 -2.238786 0.000000000000000e+00 1851878480
6.972598 -2.888286 -2.240042 0.000000000000000e+00 1851878480
6.725221 -3.500556 -2.236251 0.000000000000000e+00 1851878480
6.650453 -3.838495 -2.250093 0.000000000000000e+00 1851878480
6.900850 -2.509847 -2.246841 0.000000000000000e+00 1851878480
6.733568 -2.788208 -2.231529 0.000000000000000e+00 1851878480
6.536057 -3.403239 -2.244555 0.000000000000000e+00 1851878480
6.400332 -3.696510 -2.237938 0.000000000000000e+00 1851878480
6.696117 -2.433362 -2.246186 0.000000000000000e+00 1851878480
6.572986 -2.720674 -2.245307 0.000000000000000e+00 1851878480
6.353888 -3.309510 -2.251600 0.000000000000000e+00 1851878480
6.271243 -3.624297 -2.264220 0.000000000000000e+00 1851878480
6.471442 -2.349751 -2.234937 0.000000000000000e+00 1851878480
6.436458 -2.663136 -2.264622 0.000000000000000e+00 1851878480
6.214547 -3.238034 -2.270689 0.000000000000000e+00 1851878480
6.044171 -3.495343 -2.251480 0.000000000000000e+00 1851878480
6.295086 -2.283799 -2.236734 0.000000000000000e+00 1851878480
6.199888 -2.564262 -2.245265 0.000000000000000e+00 1851878480
5.933559 -3.092687 -2.233779 0.000000000000000e+00 1851878480
5.840572 -3.379813 -2.242960 0.000000000000000e+00 1851878480
6.198657 -2.246915 -2.264552 0.000000000000000e+00 1851878480
6.048488 -2.500666 -2.253107 0.000000000000000e+00 1851878480
5.769542 -3.008232 -2.236362 0.000000000000000e+00 1851878480
5.718423 -3.311308 -2.262383 0.000000000000000e+00 1851878480
5.992101 -2.170196 -2.249439 0.000000000000000e+00 1851878480
5.887506 -2.433159 -2.254498 0.000000000000000e+00 1851878480
5.665445 -2.954981 -2.259574 0.000000000000000e+00 1851878480
5.467814 -3.168286 -2.227069 0.000000000000000e+00 1851878480
5.831549 -2.110243 -2.248242 0.000000000000000e+00 1851878480
5.734831 -2.369129 -2.256159 0.000000000000000e+00 1851878480
5.516237 -2.878160 -2.262351 0.000000000000000e+00 1851878480
5.389127 -3.124776 -2.258356 0.000000000000000e+00 1851878480
5.647460 -2.041867 -2.234819 0.000000000000000e+00 1851878480
5.565840 -2.298404 -2.248389 0.000000000000000e+00 1851878480
5.338151 -2.786220 -2.249987 0.000000000000000e+00 1851878480
5.188885 -3.010689 -2.235845 0.000000000000000e+00 1851878480
5.545537 -2.003279 -2.251343 0.000000000000000e+00 1851878480
5.408431 -2.232509 -2.242214 0.000000000000000e+00 1851878480
5.225651 -2.728464 -2.262367 0.000000000000000e+00 1851878480
5.080198 -2.949623 -2.249552 0.000000000000000e+00 1851878480
5.448814 -1.966624 -2.268295 0.000000000000000e+00 1851878480
5.301742 -2.187593 -2.254631 0.000000000000000e+00 1851878480
5.068937 -2.647582 -2.252930 0.000000000000000e+00 1851878480
4.907535 -2.851312 -2.232001 0.000000000000000e+00 1851878480
5.227906 -1.885235 -2.230620 0.000000000000000e+00 1851878480
5.177319 -2.135389 -2.257405 0.000000000000000e+00 1851878480
4.927822 -2.574797 -2.247398 0.000000000000000e+00 1851878480
4.805799 -2.794118 -2.243842 0.000000000000000e+00 1851878480
5.128135 -1.847621 -2.241654 0.000000000000000e+00 1851878480
5.035713 -2.076138 -2.250196 0.000000000000000e+00 1851878480
4.801653 -2.509780 -2.245990 0.000000000000000e+00 1851878480
4.669330 -2.716647 -2.237014 0.000000000000000e+00 1851878480
5.010045 -1.803468 -2.242760 0.000000000000000e+00 1851878480
4.905532 -2.021636 -2.245522 0.000000000000000e+00 1851878480
4.680448 -2.447313 -2.244422 0.000000000000000e+00 1851878480
4.586179 -2.670128 -2.253491 0.000000000000000e+00 1851878480
4.954848 -1.782000 -2.270561 0.000000000000000e+00 1851878480
4.813371 -1.982836 -2.256205 0.000000000000000e+00 1851878480
4.602467 -2.407421 -2.261653 0.000000000000000e+00 1851878480
4.461690 -2.599470 -2.247543 0.000000000000000e+00 1851878480
4.802285 -1.725567 -2.251905 0.000000000000000e+00 1851878480
4.705309 -1.937514 -2.257617 0.000000000000000e+00 1851878480
4.544919 -2.378196 -2.287743 0.000000000000000e+00 1851878480
4.336817 -2.528502 -2.238755 0.000000000000000e+00 1851878480
4.644175 -1.667235 -2.227695 0.000000000000000e+00 1851878480
4.592910 -1.890436 -2.254891 0.000000000000000e+00 1851878480
4.368329 -2.286644 -2.251532 0.000000000000000e+00 1851878480
4.273263 -2.493223 -2.259717 0.000000000000000e+00 1851878480
4.587103 -1.645233 -2.250007 0.000000000000000e+00 1851878480
4.546284 -1.870454 -2.283077 0.000000000000000e+00 1851878480
4.240712 -2.220675 -2.237316 0.000000000000000e+00 1851878480
4.156219 -2.426677 -2.250568 0.000000000000000e+00 1851878480
4.453653 -1.595893 -2.233161 0.000000000000000e+00 1851878480
4.395566 -1.807673 -2.257161 0.000000000000000e+00 1851878480
4.171056 -2.185023 -2.251710 0.000000000000000e+00 1851878480
4.073859 -2.380313 -2.258124 0.000000000000000e+00 1851878480
4.366805 -1.563310 -2.237652 0.000000000000000e+00 1851878480
4.291435 -1.764090 -2.252677 0.000000000000000e+00 1851878480
4.076416 -2.136260 -2.251036 0.000000000000000e+00 1851878480
3.966108 -2.319047 -2.249627 0.000000000000000e+00 1851878480
4.316936 -1.544004 -2.259970 0.000000000000000e+00 1851878480
4.177629 -1.716563 -2.241021 0.000000000000000e+00 1851878480
3.991248 -2.092432 -2.253804 0.000000000000000e+00 1851878480
3.889850 -2.276136 -2.257078 0.000000000000000e+00 1851878480
4.188312 -1.496575 -2.239459 0.000000000000000e+00 1851878480
4.045725 -1.661636 -2.217222 0.000000000000000e+00 1851878480
3.910880 -2.051095 -2.257658 0.000000000000000e+00 1851878480
3.803416 -2.227214 -2.256968 0.000000000000000e+00 1851878480
4.090163 -1.460105 -2.233092 0.000000000000000e+00 1851878480
4.054218 -1.664390 -2.269341 0.000000000000000e+00 1851878480
3.800505 -1.993989 -2.242231 0.000000000000000e+00 1851878480
3.661505 -2.145725 -2.221394 0.000000000000000e+00 1851878480
4.001587 -1.427104 -2.230233 0.000000000000000e+00 1851878480
3.911743 -1.605185 -2.235793 0.000000000000000e+00 1851878480
3.742275 -1.964213 -2.255875 0.000000000000000e+00 1851878480
3.635026 -2.131822 -2.254087 0.000000000000000e+00 1851878480
4.003497 -1.426393 -2.277219 0.000000000000000e+00 1634890835
3.843030 -1.576279 -2.242318 0.000000000000000e+00 1851878480
3.731689 -1.959440 -2.297819 0.000000000000000e+00 1851878480
3.522730 -2.067544 -2.232176 0.000000000000000e+00 1851878480
3.951442 -1.406458 -2.293340 0.000000000000000e+00 1634890835
3.718752 -1.524613 -2.214533 0.000000000000000e+00 1851878480
3.598243 -1.890127 -2.262704 0.000000000000000e+00 1851878480
3.500507 -2.056089 -2.266003 0.000000000000000e+00 1851878480
3.893825 -1.384572 -2.305374 0.000000000000000e+00 1634890835
3.725190 -1.526552 -2.263593 0.000000000000000e+00 1851878480
3.497706 -1.838065 -2.245684 0.000000000000000e+00 1851878480
3.377775 -1.985548 -2.233263 0.000000000000000e+00 1851878480
3.802803 -1.350849 -2.296309 0.000000000000000e+00 1634890835
3.618316 -1.482072 -2.243004 0.000000000000000e+00 1851878480
3.428128 -1.802243 -2.246758 0.000000000000000e+00 1851878480
3.362015 -1.977842 -2.269829 0.000000000000000e+00 1851878480
3.728154 -1.322988 -2.295596 0.000000000000000e+00 1634890835
3.596172 -1.472314 -2.273789 0.000000000000000e+00 1851878480
3.412509 -1.794776 -2.282537 0.000000000000000e+00 1851878480
3.271689 -1.926241 -2.255067 0.000000000000000e+00 1851878480
3.656705 -1.296304 -2.295539 0.000000000000000e+00 1634890835
3.521108 -1.440899 -2.270347 0.000000000000000e+00 1851878480
3.363961 -1.769985 -2.295911 0.000000000000000e+00 1851878480
3.199290 -1.885129 -2.250863 0.000000000000000e+00 1851878480
3.599986 -1.274875 -2.303617 0.000000000000000e+00 1634890835
3.521746 -1.440474 -2.315236 0.000000000000000e+00 1634890835
3.233608 -1.702119 -2.251493 0.000000000000000e+00 1851878480
3.095455 -1.825431 -2.222524 0.000000000000000e+00 1851878480
3.517241 -1.244266 -2.293778 0.000000000000000e+00 1634890835
3.445404 -1.408567 -2.309013 0.000000000000000e+00 1634890835
3.195408 -1.682731 -2.269408 0.000000000000000e+00 1851878480
3.070098 -1.811967 -2.249177 0.000000000000000e+00 1851878480
3.460766 -1.222993 -2.299803 0.000000000000000e+00 1634890835
3.339001 -1.364402 -2.280765 0.000000000000000e+00 1634890835
3.127956 -1.647924 -2.265570 0.000000000000000e+00 1851878480
3.008704 -1.777211 -2.248678 0.000000000000000e+00 1851878480
3.387317 -1.195757 -2.293380 0.000000000000000e+00 1634890835
3.270900 -1.335917 -2.276888 0.000000000000000e+00 1634890835
3.055176 -1.610286 -2.256396 0.000000000000000e+00 1851878480
2.959460 -1.749594 -2.256149 0.000000000000000e+00 1851878480
3.319522 -1.170553 -2.289463 0.000000000000000e+00 1634890835
3.283275 -1.340302 -2.328775 0.000000000000000e+00 1634890835
3.031757 -1.598650 -2.282815 0.000000000000000e+00 1851878480
2.930861 -1.734162 -2.278730 0.000000000000000e+00 1851878480
3.253954 -1.146177 -2.285844 0.000000000000000e+00 1634890835
3.177970 -1.296660 -2.296442 0.000000000000000e+00 1634890835
2.955253 -1.559009 -2.268335 0.000000000000000e+00 1851878480
2.845018 -1.684820 -2.255608 0.000000000000000e+00 1851878480
3.173802 -1.116705 -2.270569 0.000000000000000e+00 1634890835
3.106145 -1.266707 -2.286413 0.000000000000000e+00 1634890835
2.855854 -1.507254 -2.234225 0.000000000000000e+00 1851878480
2.769890 -1.641761 -2.239053 0.000000000000000e+00 1851878480
3.138585 -1.103074 -2.286407 0.000000000000000e+00 1634890835
3.055355 -1.245353 -2.290698 0.000000000000000e+00 1634890835
2.839092 -1.499098 -2.263572 0.000000000000000e+00 1851878480
2.724918 -1.616531 -2.245554 0.000000000000000e+00 1851878480
3.061084 -1.074615 -2.270433 0.000000000000000e+00 1634890835
3.007480 -1.225197 -2.296310 0.000000000000000e+00 1634890835
2.782685 -1.469996 -2.260745 0.000000000000000e+00 1851878480
0.821901 -0.488021 -0.690410 0.000000000000000e+00 1886740808
3.035438 -1.064386 -2.292028 0.000000000000000e+00 1634890835
2.976933 -1.212111 -2.314571 0.000000000000000e+00 1634890835
2.746217 -1.451416 -2.273253 0.000000000000000e+00 1851878480
0.847488 -0.503669 -0.725591 0.000000000000000e+00 1886740808
3.008261 -1.053629 -2.312243 0.000000000000000e+00 1634890835
2.877919 -1.171170 -2.278285 0.000000000000000e+00 1634890835
0.875155 -0.462753 -0.738036 0.000000000000000e+00 1886740808
0.845858 -0.503162 -0.738042 0.000000000000000e+00 1886740808
2.930756 -1.025272 -2.292840 0.000000000000000e+00 1634890835
2.846749 -1.157854 -2.294371 0.000000000000000e+00 1634890835
0.821977 -0.434843 -0.706139 0.000000000000000e+00 1886740808
0.821382 -0.489057 -0.730319 0.000000000000000e+00 1886740808
2.894163 -1.011261 -2.304374 0.000000000000000e+00 1634890835
2.789998 -1.134148 -2.289093 0.000000000000000e+00 1634890835
0.851825 -0.450855 -0.745385 0.000000000000000e+00 1886740808
0.820161 -0.488789 -0.743040 0.000000000000000e+00 1886740808
2.805982 -0.979262 -2.273594 0.000000000000000e+00 1634890835
2.786720 -1.132185 -2.327346 0.000000000000000e+00 1634890835
0.857376 -0.454018 -0.764125 0.000000000000000e+00 1886740808
0.757392 -0.451813 -0.699108 0.000000000000000e+00 1886740808
2.784879 -0.970702 -2.296134 0.000000000000000e+00 1634890835
0.842959 -0.342283 -0.716551 0.000000000000000e+00 1886740808
0.850630 -0.450673 -0.772083 0.000000000000000e+00 1886740808
0.773182 -0.461680 -0.727083 0.000000000000000e+00 1886740808
0.833166 -0.290048 -0.698960 0.000000000000000e+00 1886740808
0.862085 -0.349848 -0.745817 0.000000000000000e+00 1886740808
0.810827 -0.429804 -0.749464 0.000000000000000e+00 1886740808
0.734288 -0.438886 -0.703423 0.000000000000000e+00 1886740808
0.861363 -0.299486 -0.735202 0.000000000000000e+00 1886740808
0.794518 -0.322241 -0.699516 0.000000000000000e+00 1886740808
0.769543 -0.408131 -0.724314 0.000000000000000e+00 1886740808
0.793592 -0.474805 -0.774406 0.000000000000000e+00 1886740808
0.828422 -0.287664 -0.719357 0.000000000000000e+00 1886740808
0.779006 -0.315763 -0.697942 0.000000000000000e+00 1886740808
0.787378 -0.417809 -0.754611 0.000000000000000e+00 1886740808
0.779151 -0.466637 -0.774445 0.000000000000000e+00 1886740808
0.800453 -0.277590 -0.707090 0.000000000000000e+00 1886740808
0.798135 -0.323324 -0.727638 0.000000000000000e+00 1886740808
0.784373 -0.416436 -0.765396 0.000000000000000e+00 1886740808
0.732849 -0.439358 -0.741926 0.000000000000000e+00 1886740808
0.805372 -0.278928 -0.723700 0.000000000000000e+00 1886740808
0.795368 -0.322007 -0.737810 0.000000000000000e+00 1886740808
0.770144 -0.409103 -0.765138 0.000000000000000e+00 1886740808
0.764921 -0.459064 -0.788715 0.000000000000000e+00 1886740808
0.789745 -0.273148 -0.721856 0.000000000000000e+00 1886740808
0.769653 -0.311405 -0.726422 0.000000000000000e+00 1886740808
0.760630 -0.404272 -0.769356 0.000000000000000e+00 1886740808
0.783088 -0.470464 -0.822347 0.000000000000000e+00 1886740808
0.777615 -0.268587 -0.722955 0.000000000000000e+00 1886740808
0.752460 -0.304258 -0.722566 0.000000000000000e+00 1886740808
0.733298 -0.389962 -0.755102 0.000000000000000e+00 1886740808
0.720804 -0.433511 -0.770886 0.000000000000000e+00 1886740808
0.732687 -0.252719 -0.692838 0.000000000000000e+00 1886740808
0.750287 -0.303186 -0.733003 0.000000000000000e+00 1886740808
0.756278 -0.402410 -0.792802 0.000000000000000e+00 1886740808
2.078559 -1.251470 -2.263878 0.000000000000000e+00 1634890835
0.723727 -0.249277 -0.696049 0.000000000000000e+00 1886740808
0.798600 -0.322501 -0.793742 0.000000000000000e+00 1886740808
0.764624 -0.407086 -0.815982 0.000000000000000e+00 1886740808
2.061406 -1.242521 -2.286459 0.000000000000000e+00 1634890835
0.776454 -0.267057 -0.759489 0.000000000000000e+00 1886740808
0.766213 -0.309219 -0.774748 0.000000000000000e+00 1886740808
2.122633 -1.130751 -2.305945 0.000000000000000e+00 1634890835
2.037583 -1.229550 -2.301545 0.000000000000000e+00 1634890835
0.768858 -0.264060 -0.764859 0.000000000000000e+00 1886740808
0.741720 -0.299134 -0.762962 0.000000000000000e+00 1886740808
2.119010 -1.129495 -2.343383 0.000000000000000e+00 1634890835
0.816941 -0.493538 -0.939714 0.000000000000000e+00 1886740808
0.752964 -0.258219 -0.761784 0.000000000000000e+00 1886740808
0.759604 -0.306139 -0.794870 0.000000000000000e+00 1886740808
2.083770 -1.111383 -2.345814 0.000000000000000e+00 1634890835
0.790821 -0.478317 -0.926368 0.000000000000000e+00 1886740808
0.796918 -0.272882 -0.819949 0.000000000000000e+00 1886740808
0.728800 -0.293521 -0.775816 0.000000000000000e+00 1886740808
2.007284 -1.071249 -2.300308 0.000000000000000e+00 1634890835
0.770802 -0.466764 -0.919498 0.000000000000000e+00 1886740808
0.739036 -0.252675 -0.773307 0.000000000000000e+00 1886740808
2.135768 -0.859567 -2.312834 0.000000000000000e+00 1634890835
0.847329 -0.452487 -0.988473 0.000000000000000e+00 1886740808
0.793731 -0.481231 -0.964248 0.000000000000000e+00 1886740808
0.759403 -0.259234 -0.808108 0.000000000000000e+00 1886740808
2.091290 -0.841065 -2.303800 0.000000000000000e+00 1634890835
0.790949 -0.422649 -0.939294 0.000000000000000e+00 1886740808
0.768864 -0.466730 -0.951216 0.000000000000000e+00 1886740808
0.765320 -0.260839 -0.828232 0.000000000000000e+00 1886740808
2.037712 -0.818920 -2.283577 0.000000000000000e+00 1634890835
0.822356 -0.439718 -0.994168 0.000000000000000e+00 1886740808
1.817609 -1.104745 -2.290101 0.000000000000000e+00 1634890835
2.109109 -0.717673 -2.321250 0.000000000000000e+00 1634890835
2.044873 -0.821188 -2.331236 0.000000000000000e+00 1634890835
0.810030 -0.433415 -0.996915 0.000000000000000e+00 1886740808
1.812786 -1.103225 -2.326148 0.000000000000000e+00 1634890835
2.081107 -0.706979 -2.329358 0.000000000000000e+00 1634890835
1.975329 -0.792661 -2.290938 0.000000000000000e+00 1634890835
0.812459 -0.435007 -1.017950 0.000000000000000e+00 1886740808
0.760977 -0.463720 -0.994521 0.000000000000000e+00 1886740808
2.044289 -0.693305 -2.327072 0.000000000000000e+00 1634890835
1.941676 -0.778556 -2.290941 0.000000000000000e+00 1634890835
0.786297 -0.421289 -1.002985 0.000000000000000e+00 1886740808
1.750031 -1.067844 -2.329474 0.000000000000000e+00 1634890835
1.974959 -0.668646 -2.286444 0.000000000000000e+00 1634890835
0.814147 -0.326194 -0.977271 0.000000000000000e+00 1886740808
1.785808 -0.957488 -2.319227 0.000000000000000e+00 1634890835
1.692161 -1.033935 -2.294266 0.000000000000000e+00 1634890835
1.940393 -0.655796 -2.284747 0.000000000000000e+00 1634890835
0.771677 -0.308929 -0.942400 0.000000000000000e+00 1886740808
0.797762 -0.428039 -1.054876 0.000000000000000e+00 1886740808
1.680325 -1.028125 -2.320641 0.000000000000000e+00 1634890835
1.860055 -0.627525 -2.227582 0.000000000000000e+00 1634890835
0.827096 -0.330845 -1.027684 0.000000000000000e+00 1886740808
1.715432 -0.921084 -2.309633 0.000000000000000e+00 1634890835
1.621475 -0.993520 -2.281201 0.000000000000000e+00 1634890835
0.802574 -0.270271 -0.977615 0.000000000000000e+00 1886740808
0.803468 -0.321126 -1.015769 0.000000000000000e+00 1886740808
1.705099 -0.916220 -2.337682 0.000000000000000e+00 1634890835
1.621390 -0.994902 -2.323850 0.000000000000000e+00 1634890835
0.830296 -0.279087 -1.028745 0.000000000000000e+00 1886740808
0.805963 -0.321849 -1.036774 0.000000000000000e+00 1886740808
1.683144 -0.905111 -2.349906 0.000000000000000e+00 1634890835
1.567616 -0.963326 -2.289069 0.000000000000000e+00 1634890835
0.770892 -0.258627 -0.971585 0.000000000000000e+00 1886740808
0.773815 -0.308742 -1.012912 0.000000000000000e+00 1886740808
1.623784 -0.873870 -2.308772 0.000000000000000e+00 1634890835
1.560846 -0.960610 -2.322267 0.000000000000000e+00 1634890835
0.743351 -0.248904 -0.953051 0.000000000000000e+00 1886740808
1.753514 -0.699007 -2.335796 0.000000000000000e+00 1634890835
1.611605 -0.868004 -2.333822 0.000000000000000e+00 1634890835
1.513695 -0.933027 -2.294885 0.000000000000000e+00 1634890835
0.777082 -0.259683 -1.013557 0.000000000000000e+00 1886740808
1.714595 -0.682872 -2.324371 0.000000000000000e+00 1634890835
1.556023 -0.838749 -2.295179 0.000000000000000e+00 1634890835
1.470500 -0.907831 -2.271946 0.000000000000000e+00 1634890835
0.753887 -0.251420 -1.000399 0.000000000000000e+00 1886740808
0.722430 -0.287455 -0.996756 0.000000000000000e+00 1886740808
1.507840 -0.813453 -2.265613 0.000000000000000e+00 1634890835
1.452713 -0.898295 -2.287528 0.000000000000000e+00 1634890835
1.691798 -0.563040 -2.284182 0.000000000000000e+00 1634890835
1.640267 -0.652042 -2.303505 0.000000000000000e+00 1634890835
1.538973 -0.830954 -2.355770 0.000000000000000e+00 1634890835
1.435476 -0.889101 -2.304003 0.000000000000000e+00 1634890835
0.769674 -0.255608 -1.057390 0.000000000000000e+00 1886740808
1.658241 -0.658546 -2.370493 0.000000000000000e+00 1634890835
1.475073 -0.797148 -2.300548 0.000000000000000e+00 1634890835
1.393272 -0.864420 -2.279677 0.000000000000000e+00 1634890835
1.668773 -0.552991 -2.332957 0.000000000000000e+00 1634890835
1.597771 -0.633898 -2.325199 0.000000000000000e+00 1634890835
1.476768 -0.798774 -2.346889 0.000000000000000e+00 1634890835
1.394736 -0.866825 -2.326656 0.000000000000000e+00 1634890835
1.603899 -0.530309 -2.281938 0.000000000000000e+00 1634890835
1.564024 -0.619877 -2.317312 0.000000000000000e+00 1634890835
1.433693 -0.776184 -2.321934 0.000000000000000e+00 1634890835
1.344911 -0.837341 -2.287671 0.000000000000000e+00 1634890835
1.571211 -0.518315 -2.275192 0.000000000000000e+00 1634890835
1.521931 -0.602563 -2.296016 0.000000000000000e+00 1634890835
1.387082 -0.751652 -2.289617 0.000000000000000e+00 1634890835
1.319436 -0.822974 -2.288802 0.000000000000000e+00 1634890835
1.570641 -0.516911 -2.315040 0.000000000000000e+00 1634890835
1.518476 -0.600550 -2.332774 0.000000000000000e+00 1634890835
1.373994 -0.745275 -2.311902 0.000000000000000e+00 1634890835
1.300157 -0.812461 -2.300376 0.000000000000000e+00 1634890835
1.539807 -0.505544 -2.310418 0.000000000000000e+00 1634890835
1.488626 -0.588097 -2.329080 0.000000000000000e+00 1634890835
1.338349 -0.726656 -2.295824 0.000000000000000e+00 1634890835
1.272462 -0.796677 -2.296673 0.000000000000000e+00 1634890835
1.530537 -0.501258 -2.338073 0.000000000000000e+00 1634890835
1.455384 -0.574315 -2.319329 0.000000000000000e+00 1634890835
1.320883 -0.717897 -2.310372 0.000000000000000e+00 1634890835
1.216700 -0.763262 -2.240577 0.000000000000000e+00 1634890835
1.465398 -0.478708 -2.279345 0.000000000000000e+00 1634890835
1.409348 -0.555505 -2.287938 0.000000000000000e+00 1634890835
1.309544 -0.712474 -2.335898 0.000000000000000e+00 1634890835
1.222448 -0.768418 -2.297233 0.000000000000000e+00 1634890835
1.453217 -0.473491 -2.301855 0.000000000000000e+00 1634890835
1.389705 -0.547111 -2.298522 0.000000000000000e+00 1634890835
1.263283 -0.688038 -2.298382 0.000000000000000e+00 1634890835
1.232567 -0.776384 -2.364080 0.000000000000000e+00 1634890835
1.399794 -0.454862 -2.258193 0.000000000000000e+00 1634890835
1.337559 -0.525937 -2.254242 0.000000000000000e+00 1634890835
1.260204 -0.687112 -2.338975 0.000000000000000e+00 1634890835
1.167660 -0.737070 -2.286283 0.000000000000000e+00 1634890835
1.391858 -0.451038 -2.287182 0.000000000000000e+00 1634890835
1.364221 -0.535746 -2.343143 0.000000000000000e+00 1634890835
1.250408 -0.682541 -2.367986 0.000000000000000e+00 1634890835
1.153206 -0.729546 -2.305530 0.000000000000000e+00 1634890835
1.356946 -0.438476 -2.271638 0.000000000000000e+00 1634890835
1.304361 -0.511574 -2.283530 0.000000000000000e+00 1634890835
1.198826 -0.655144 -2.316916 0.000000000000000e+00 1634890835
1.129483 -0.716154 -2.306149 0.000000000000000e+00 1634890835
1.330843 -0.428783 -2.270076 0.000000000000000e+00 1634890835
1.303682 -0.510626 -2.326742 0.000000000000000e+00 1634890835
1.181428 -0.646409 -2.330646 0.000000000000000e+00 1634890835
1.102919 -0.700938 -2.300347 0.000000000000000e+00 1634890835
1.311876 -0.421399 -2.280408 0.000000000000000e+00 1634890835
1.312459 -0.513358 -2.388393 0.000000000000000e+00 1634890835
1.136729 -0.622717 -2.289464 0.000000000000000e+00 1634890835
1.075261 -0.685003 -2.291446 0.000000000000000e+00 1634890835
1.283958 -0.411150 -2.274832 0.000000000000000e+00 1634890835
1.237365 -0.483300 -2.296367 0.000000000000000e+00 1634890835
1.119129 -0.613853 -2.301772 0.000000000000000e+00 1634890835
1.059440 -0.676595 -2.307421 0.000000000000000e+00 1634890835
1.280207 -0.408634 -2.312248 0.000000000000000e+00 1634890835
1.200436 -0.468192 -2.272427 0.000000000000000e+00 1634890835
1.101089 -0.604750 -2.313201 0.000000000000000e+00 1634890835
1.044003 -0.668439 -2.324455 0.000000000000000e+00 1634890835
1.250281 -0.397762 -2.302493 0.000000000000000e+00 1634890835
1.203918 -0.468843 -2.325114 0.000000000000000e+00 1634890835
1.057994 -0.581867 -2.270862 0.000000000000000e+00 1634890835
1.006076 -0.645857 -2.290556 0.000000000000000e+00 1634890835
1.228954 -0.389639 -2.308057 0.000000000000000e+00 1634890835
1.174276 -0.456589 -2.314229 0.000000000000000e+00 1634890835
1.061546 -0.584635 -2.328501 0.000000000000000e+00 1634890835
0.996489 -0.641447 -2.320596 0.000000000000000e+00 1634890835
1.183890 -0.374024 -2.267941 0.000000000000000e+00 1634890835
1.154895 -0.448331 -2.323084 0.000000000000000e+00 1634890835
1.024167 -0.564862 -2.296454 0.000000000000000e+00 1634890835
0.963848 -0.622187 -2.296608 0.000000000000000e+00 1634890835
1.175371 -0.369974 -2.297197 0.000000000000000e+00 1634890835
1.121785 -0.434754 -2.303674 0.000000000000000e+00 1634890835
1.015188 -0.560746 -2.327607 0.000000000000000e+00 1634890835
0.950785 -0.615546 -2.318743 0.000000000000000e+00 1634890835
1.156020 -0.362503 -2.305627 0.000000000000000e+00 1634890835
1.097249 -0.424512 -2.300978 0.000000000000000e+00 1634890835
0.999485 -0.552926 -2.343945 0.000000000000000e+00 1634890835
0.919802 -0.597288 -2.296701 0.000000000000000e+00 1634890835
1.125575 -0.351570 -2.291402 0.000000000000000e+00 1634890835
1.080871 -0.417430 -2.315209 0.000000000000000e+00 1634890835
0.973633 -0.539486 -2.336213 0.000000000000000e+00 1634890835
0.907591 -0.591207 -2.321113 0.000000000000000e+00 1634890835
1.103334 -0.343219 -2.293215 0.000000000000000e+00 1634890835
1.065317 -0.410663 -2.331434 0.000000000000000e+00 1634890835
0.957572 -0.531468 -2.351701 0.000000000000000e+00 1634890835
0.892051 -0.582973 -2.337524 0.000000000000000e+00 1634890835
1.074213 -0.332748 -2.280090 0.000000000000000e+00 1634890835
1.049932 -0.403956 -2.348320 0.000000000000000e+00 1634890835
0.909805 -0.505827 -2.287737 0.000000000000000e+00 1634890835
0.863324 -0.566105 -2.318855 0.000000000000000e+00 1634890835
1.058468 -0.326430 -2.294993 0.000000000000000e+00 1634890835
1.016884 -0.390464 -2.325147 0.000000000000000e+00 1634890835
0.896849 -0.499514 -2.309860 0.000000000000000e+00 1634890835
0.827201 -0.544322 -2.278383 0.000000000000000e+00 1634890835
1.016596 -0.312085 -2.252259 0.000000000000000e+00 1634890835
0.992483 -0.380305 -2.320713 0.000000000000000e+00 1634890835
0.893127 -0.498365 -2.356994 0.000000000000000e+00 1634890835
0.455838 -0.301049 -1.288054 0.000000000000000e+00 1936876886
1.015342 -0.310217 -2.299216 0.000000000000000e+00 1634890835
0.962808 -0.368142 -2.303046 0.000000000000000e+00 1634890835
0.851592 -0.476109 -2.303756 0.000000000000000e+00 1634890835
0.436676 -0.289490 -1.266468 0.000000000000000e+00 1936876886
0.979590 -0.297811 -2.268013 0.000000000000000e+00 1634890835
0.944545 -0.360350 -2.312070 0.000000000000000e+00 1634890835
0.828433 -0.464094 -2.298320 0.000000000000000e+00 1634890835
0.432823 -0.288072 -1.289055 0.000000000000000e+00 1936876886
0.965894 -0.292129 -2.287225 0.000000000000000e+00 1634890835
0.909820 -0.346291 -2.279865 0.000000000000000e+00 1634890835
0.444717 -0.249656 -1.265858 0.000000000000000e+00 1936876886
0.344108 -0.229973 -1.052954 0.000000000000000e+00 1953264973
0.945091 -0.284296 -2.289720 0.000000000000000e+00 1634890835
0.893252 -0.339158 -2.292293 0.000000000000000e+00 1634890835
0.452188 -0.254407 -1.321234 0.000000000000000e+00 1936876886
0.305133 -0.204805 -0.959833 0.000000000000000e+00 1953264973
0.519957 -0.155527 -1.289329 0.000000000000000e+00 1936876886
0.889663 -0.336937 -2.339055 0.000000000000000e+00 1634890835
0.377636 -0.212948 -1.133221 0.000000000000000e+00 1953264973
0.269581 -0.181759 -0.872251 0.000000000000000e+00 1953264973
0.488349 -0.145210 -1.239888 0.000000000000000e+00 1936876886
0.844459 -0.318966 -2.275612 0.000000000000000e+00 1634890835
0.338513 -0.191344 -1.043840 0.000000000000000e+00 1953264973
0.258504 -0.175113 -0.860865 0.000000000000000e+00 1953264973
0.475363 -0.140475 -1.236254 0.000000000000000e+00 1936876886
0.838739 -0.315925 -2.317646 0.000000000000000e+00 1634890835
0.314948 -0.178470 -0.998535 0.000000000000000e+00 1953264973
0.256774 -0.174803 -0.880684 0.000000000000000e+00 1953264973
