# .PCD v0.7 - Point Cloud Data file format
VERSION 0.7
FIELDS x y z rgb label
SIZE 4 4 4 4 4
TYPE F F F F U
COUNT 1 1 1 1 1
WIDTH 534
HEIGHT 1
VIEWPOINT 0 0 0 1 0 0 0
POINTS 534
DATA ascii
39.357422 -16.662586 10.311932 0.000000000000000e+00 1954047316
35.264744 -13.110883 -2.240519 0.000000000000000e+00 1851878480
29.326170 -10.894745 -2.129632 0.000000000000000e+00 1851878480
28.676458 -11.991041 -2.016643 0.000000000000000e+00 1851878480
27.092300 -13.985191 -1.735439 0.000000000000000e+00 1851878480
25.911144 -14.720118 -1.554344 0.000000000000000e+00 1851878480
26.551420 -9.856423 -2.169560 0.000000000000000e+00 1851878480
26.048653 -10.888394 -2.075943 0.000000000000000e+00 1851878480
24.973989 -12.895702 -1.849311 0.000000000000000e+00 1851878480
24.291883 -13.808351 -1.708422 0.000000000000000e+00 1851878480
24.111021 -8.943697 -2.189623 0.000000000000000e+00 1851878480
24.236015 -10.127150 -2.158859 0.000000000000000e+00 1851878480
23.325226 -12.048063 -1.960620 0.000000000000000e+00 1851878480
23.016659 -13.091215 -1.857111 0.000000000000000e+00 1851878480
22.160967 -8.214086 -2.214489 0.000000000000000e+00 1851878480
22.313076 -9.320369 -2.197167 0.000000000000000e+00 1851878480
22.095020 -11.416185 -2.078630 0.000000000000000e+00 1851878480
21.760466 -12.384051 -1.981476 0.000000000000000e+00 1851878480
20.455189 -7.576052 -2.230694 0.000000000000000e+00 1851878480
20.591015 -8.598014 -2.221290 0.000000000000000e+00 1851878480
20.718235 -10.708137 -2.157062 0.000000000000000e+00 1851878480
20.425938 -11.631461 -2.072204 0.000000000000000e+00 1851878480
18.910156 -6.998462 -2.235023 0.000000000000000e+00 1851878480
19.080637 -7.964530 -2.238127 0.000000000000000e+00 1851878480
19.426523 -10.043654 -2.217920 0.000000000000000e+00 1851878480
19.150244 -10.911492 -2.142166 0.000000000000000e+00 1851878480
17.566521 -6.496214 -2.237019 0.000000000000000e+00 1851878480
17.668036 -7.372282 -2.239182 0.000000000000000e+00 1851878480
17.905695 -9.260262 -2.224691 0.000000000000000e+00 1851878480
17.962894 -10.241055 -2.196757 0.000000000000000e+00 1851878480
16.437885 -6.074175 -2.244035 0.000000000000000e+00 1851878480
16.414242 -6.846696 -2.235493 0.000000000000000e+00 1851878480
16.608484 -8.592074 -2.231210 0.000000000000000e+00 1851878480
16.646624 -9.496281 -2.209856 0.000000000000000e+00 1851878480
15.434388 -5.698979 -2.248850 0.000000000000000e+00 1851878480
15.400624 -6.421610 -2.243366 0.000000000000000e+00 1851878480
15.441669 -7.990946 -2.230718 0.000000000000000e+00 1851878480
15.481053 -8.836646 -2.217393 0.000000000000000e+00 1851878480
14.427706 -5.323160 -2.235008 0.000000000000000e+00 1851878480
14.440213 -6.019005 -2.240583 0.000000000000000e+00 1851878480
14.474881 -7.492994 -2.237886 0.000000000000000e+00 1851878480
14.460730 -8.259187 -2.223214 0.000000000000000e+00 1851878480
13.627151 -5.023911 -2.236738 0.000000000000000e+00 1851878480
13.612274 -5.671884 -2.241677 0.000000000000000e+00 1851878480
13.587077 -7.035636 -2.238811 0.000000000000000e+00 1851878480
13.543631 -7.740036 -2.224934 0.000000000000000e+00 1851878480
12.892835 -4.749510 -2.235461 0.000000000000000e+00 1851878480
12.877774 -5.363914 -2.243593 0.000000000000000e+00 1851878480
12.865460 -6.664073 -2.251111 0.000000000000000e+00 1851878480
12.797956 -7.318297 -2.237687 0.000000000000000e+00 1851878480
12.229282 -4.501564 -2.233812 0.000000000000000e+00 1851878480
12.230274 -5.092395 -2.247790 0.000000000000000e+00 1851878480
12.051325 -6.244345 -2.231922 0.000000000000000e+00 1851878480
12.084655 -6.914589 -2.241075 0.000000000000000e+00 1851878480
11.698153 -4.302702 -2.245561 0.000000000000000e+00 1851878480
11.606361 -4.830873 -2.244466 0.000000000000000e+00 1851878480
11.479856 -5.950128 -2.243859 0.000000000000000e+00 1851878480
11.396967 -6.525053 -2.234748 0.000000000000000e+00 1851878480
11.170576 -4.105438 -2.248443 0.000000000000000e+00 1851878480
11.053958 -4.599285 -2.244000 0.000000000000000e+00 1851878480
10.890461 -5.646431 -2.240745 0.000000000000000e+00 1851878480
10.842324 -6.211279 -2.241689 0.000000000000000e+00 1851878480
10.629639 -3.903566 -2.238967 0.000000000000000e+00 1851878480
10.621774 -4.417864 -2.258781 0.000000000000000e+00 1851878480
10.422732 -5.405652 -2.252146 0.000000000000000e+00 1851878480
10.274635 -5.889656 -2.234347 0.000000000000000e+00 1851878480
10.140986 -3.721187 -2.231176 0.000000000000000e+00 1851878480
10.123278 -4.208997 -2.250799 0.000000000000000e+00 1851878480
9.947725 -5.160955 -2.252608 0.000000000000000e+00 1851878480
9.867940 -5.659992 -2.251976 0.000000000000000e+00 1851878480
9.799685 -3.593106 -2.248317 0.000000000000000e+00 1851878480
9.641101 -4.007062 -2.237266 0.000000000000000e+00 1851878480
9.521970 -4.941658 -2.255250 0.000000000000000e+00 1851878480
9.394766 -5.391904 -2.245368 0.000000000000000e+00 1851878480
9.373349 -3.434063 -2.239028 0.000000000000000e+00 1851878480
9.306376 -3.866528 -2.250336 0.000000000000000e+00 1851878480
5.196126 -2.697528 -1.284950 1.880790849211783e-38 1684957512
5.145427 -2.954918 -1.285515 1.880790849211783e-38 1684957512
5.174830 -1.894364 -1.285168 1.880790849211783e-38 1684957512
5.107407 -2.121199 -1.284987 1.880790849211783e-38 1684957512
5.048395 -2.621683 -1.301350 1.880790849211783e-38 1684957512
4.940705 -2.839106 -1.288123 1.880790849211783e-38 1684957512
4.926391 -1.801978 -1.270336 1.880790849211783e-38 1684957512
4.921225 -2.043121 -1.286496 1.880790849211783e-38 1684957512
4.803175 -2.495151 -1.288712 1.880790849211783e-38 1684957512
4.764962 -2.739822 -1.294376 1.880790849211783e-38 1684957512
4.821289 -1.762119 -1.289280 1.880790849211783e-38 1684957512
4.741752 -1.967881 -1.286355 1.880790849211783e-38 1684957512
4.637679 -2.409968 -1.293354 1.880790849211783e-38 1684957512
4.512106 -2.596053 -1.275224 1.880790849211783e-38 1684957512
4.652084 -1.698905 -1.288644 1.880790849211783e-38 1684957512
4.623321 -1.918019 -1.300027 1.880790849211783e-38 1684957512
4.430008 -2.302806 -1.282501 1.880790849211783e-38 1684957512
4.349093 -2.503833 -1.277124 1.880790849211783e-38 1684957512
4.452148 -1.624571 -1.276133 1.880790849211783e-38 1684957512
4.408756 -1.828323 -1.283558 1.880790849211783e-38 1684957512
4.263499 -2.216985 -1.279802 1.880790849211783e-38 1684957512
4.205452 -2.422663 -1.281557 1.880790849211783e-38 1684957512
4.357119 -1.588602 -1.291035 1.880790849211783e-38 1684957512
4.222142 -1.750276 -1.271425 1.880790849211783e-38 1684957512
4.149003 -2.158163 -1.289933 1.880790849211783e-38 1684957512
4.078911 -2.351256 -1.288437 1.880790849211783e-38 1684957512
4.171235 -1.519585 -1.276481 1.880790849211783e-38 1684957512
4.121868 -1.708064 -1.282617 1.880790849211783e-38 1684957512
4.002741 -2.082776 -1.287607 1.880790849211783e-38 1684957512
3.920108 -2.261152 -1.282175 1.880790849211783e-38 1684957512
4.034568 -1.468591 -1.274041 1.880790849211783e-38 1684957512
4.046057 -1.676014 -1.299851 1.880790849211783e-38 1684957512
3.879087 -2.019110 -1.289863 1.880790849211783e-38 1684957512
3.789422 -2.187171 -1.282101 1.880790849211783e-38 1684957512
3.963890 -1.441671 -1.290599 1.880790849211783e-38 1684957512
3.927378 -1.626233 -1.301548 1.880790849211783e-38 1684957512
3.762762 -1.959220 -1.292174 1.880790849211783e-38 1684957512
3.683420 -2.127358 -1.287943 1.880790849211783e-38 1684957512
3.965981 -1.441233 -1.330373 1.880790849211783e-38 1684957512
3.725200 -1.541926 -1.272514 1.880790849211783e-38 1684957512
3.675884 -1.914635 -1.302607 1.880790849211783e-38 1684957512
3.517924 -2.033090 -1.270140 1.880790849211783e-38 1684957512
3.952306 -1.435064 -1.364944 1.880790849211783e-38 1684957512
3.633952 -1.503577 -1.278580 1.880790849211783e-38 1684957512
3.498761 -1.822998 -1.278388 1.880790849211783e-38 1684957512
3.467419 -2.005208 -1.291629 1.880790849211783e-38 1684957512
3.982193 -1.444703 -1.414930 1.880790849211783e-38 1684957512
3.587324 -1.483711 -1.299135 1.880790849211783e-38 1684957512
3.409531 -1.777114 -1.283570 1.880790849211783e-38 1684957512
3.356077 -1.942089 -1.288838 1.880790849211783e-38 1684957512
4.013982 -1.455005 -1.466426 1.880790849211783e-38 1684957512
3.467264 -1.433494 -1.291582 1.880790849211783e-38 1684957512
3.338909 -1.740903 -1.294212 1.880790849211783e-38 1684957512
3.278866 -1.898659 -1.297220 1.880790849211783e-38 1684957512
3.996433 -1.447412 -1.500264 1.880790849211783e-38 1684957512
3.496152 -1.444872 -1.338779 1.880790849211783e-38 1684957512
3.273374 -1.707325 -1.305534 1.880790849211783e-38 1684957512
3.317777 -1.922462 -1.351348 1.880790849211783e-38 1684957512
3.963358 -1.434207 -1.527997 1.880790849211783e-38 1684957512
3.492550 -1.442815 -1.374016 1.880790849211783e-38 1684957512
3.282527 -1.712696 -1.346249 1.880790849211783e-38 1684957512
3.308955 -1.918631 -1.386644 1.880790849211783e-38 1684957512
4.002434 -1.447100 -1.583847 1.880790849211783e-38 1684957512
3.495554 -1.443483 -1.412071 1.880790849211783e-38 1684957512
3.313986 -1.729718 -1.396818 1.880790849211783e-38 1684957512
3.257913 -1.890303 -1.403806 1.880790849211783e-38 1684957512
4.030313 -1.455917 -1.636201 1.880790849211783e-38 1684957512
3.575760 -1.476013 -1.482429 1.880790849211783e-38 1684957512
3.330607 -1.739007 -1.441936 1.880790849211783e-38 1684957512
3.301389 -1.916826 -1.461881 1.880790849211783e-38 1684957512
4.023337 -1.452131 -1.674881 1.880790849211783e-38 1684957512
3.518476 -1.451786 -1.496275 1.880790849211783e-38 1684957512
3.306998 -1.727295 -1.469822 1.880790849211783e-38 1684957512
3.287105 -1.909832 -1.495012 1.880790849211783e-38 1684957512
3.973627 -1.432929 -1.695450 1.880790849211783e-38 1684957512
3.503438 -1.444995 -1.527562 1.880790849211783e-38 1684957512
3.309112 -1.729018 -1.509164 1.880790849211783e-38 1684957512
3.246409 -1.887480 -1.515758 1.880790849211783e-38 1684957512
3.967322 -1.429391 -1.734230 1.880790849211783e-38 1684957512
3.530744 -1.455665 -1.577704 1.880790849211783e-38 1684957512
3.283435 -1.716222 -1.535838 1.880790849211783e-38 1684957512
3.257246 -1.895087 -1.560503 1.880790849211783e-38 1684957512
4.029579 -1.450529 -1.803852 1.880790849211783e-38 1684957512
3.502947 -1.443612 -1.603485 1.880790849211783e-38 1684957512
3.302516 -1.726820 -1.583660 1.880790849211783e-38 1684957512
3.274065 -1.906200 -1.608763 1.880790849211783e-38 1684957512
4.015282 -1.444087 -1.840004 1.880790849211783e-38 1684957512
3.503334 -1.443175 -1.642142 1.880790849211783e-38 1684957512
3.309549 -1.731132 -1.626313 1.880790849211783e-38 1684957512
3.276909 -1.909193 -1.650718 1.880790849211783e-38 1684957512
4.007777 -1.440082 -1.879342 1.880790849211783e-38 1684957512
3.529702 -1.453432 -1.693558 1.880790849211783e-38 1684957512
3.264114 -1.707996 -1.643034 1.880790849211783e-38 1684957512
3.297485 -1.922538 -1.702231 1.880790849211783e-38 1684957512
4.003957 -1.437400 -1.920599 1.880790849211783e-38 1684957512
3.510128 -1.444764 -1.723299 1.880790849211783e-38 1684957512
3.259044 -1.705978 -1.679782 1.880790849211783e-38 1684957512
3.275453 -1.911054 -1.732071 1.880790849211783e-38 1684957512
4.053674 -1.453911 -1.988356 1.880790849211783e-38 1684957512
3.560970 -1.465071 -1.788266 1.880790849211783e-38 1684957512
3.305655 -1.731026 -1.743999 1.880790849211783e-38 1684957512
3.296884 -1.924940 -1.785243 1.880790849211783e-38 1684957512
4.060080 -1.454863 -2.035815 1.880790849211783e-38 1684957512
3.537919 -1.454967 -1.816752 1.880790849211783e-38 1684957512
3.340196 -1.749774 -1.803177 1.880790849211783e-38 1684957512
3.312519 -1.935470 -1.836115 1.880790849211783e-38 1684957512
4.018945 -1.438777 -2.059401 1.880790849211783e-38 1684957512
3.511777 -1.443594 -1.843416 1.880790849211783e-38 1684957512
3.303617 -1.731271 -1.824288 1.880790849211783e-38 1684957512
3.239495 -1.894185 -1.837483 1.880790849211783e-38 1684957512
4.048658 -1.448051 -2.119523 1.880790849211783e-38 1684957512
3.545849 -1.456968 -1.902113 1.880790849211783e-38 1684957512
3.317251 -1.739086 -1.873207 1.880790849211783e-38 1684957512
3.250117 -1.901798 -1.885874 1.880790849211783e-38 1684957512
4.024719 -1.438120 -2.151988 1.880790849211783e-38 1684957512
3.563673 -1.463651 -1.953038 1.880790849211783e-38 1684957512
3.254573 -1.706889 -1.878788 1.880790849211783e-38 1684957512
3.288087 -1.925447 -1.951169 1.880790849211783e-38 1684957512
4.049304 -1.445520 -2.210785 1.880790849211783e-38 1684957512
3.541930 -1.454079 -1.982589 1.880790849211783e-38 1684957512
3.285798 -1.723941 -1.938563 1.880790849211783e-38 1684957512
3.257076 -1.908720 -1.976031 1.880790849211783e-38 1684957512
4.021385 -1.434165 -2.241267 0.000000000000000e+00 1851878480
3.535098 -1.450628 -2.020518 1.880790849211783e-38 1684957512
3.280385 -1.721781 -1.977444 1.880790849211783e-38 1684957512
3.219357 -1.888046 -1.996330 1.880790849211783e-38 1684957512
4.024236 -1.433782 -2.289015 0.000000000000000e+00 1634890835
3.540534 -1.452205 -2.065819 1.880790849211783e-38 1684957512
3.284214 -1.724479 -2.022282 1.880790849211783e-38 1684957512
3.272293 -1.920559 -2.073487 1.880790849211783e-38 1684957512
3.930322 -1.398941 -2.281082 0.000000000000000e+00 1634890835
3.526408 -1.445756 -2.099992 1.880790849211783e-38 1684957512
3.290524 -1.728486 -2.069200 1.880790849211783e-38 1684957512
3.278133 -1.925473 -2.122052 1.880790849211783e-38 1684957512
3.872187 -1.376878 -2.292563 0.000000000000000e+00 1634890835
3.548529 -1.454158 -2.156246 1.880790849211783e-38 1684957512
3.310018 -1.739433 -2.125179 1.880790849211783e-38 1684957512
3.244139 -1.906994 -2.144908 1.880790849211783e-38 1684957512
3.776625 -1.341550 -2.280502 0.000000000000000e+00 1634890835
3.557959 -1.457349 -2.205588 1.880790849211783e-38 1684957512
3.301414 -1.735626 -2.163711 1.880790849211783e-38 1684957512
3.244978 -1.908991 -2.190813 1.880790849211783e-38 1684957512
3.670547 -1.302545 -2.260125 0.000000000000000e+00 1634890835
3.529203 -1.444896 -2.231446 1.880790849211783e-38 1684957512
3.304395 -1.737915 -2.210222 1.880790849211783e-38 1684957512
3.243199 -1.909467 -2.235430 0.000000000000000e+00 1851878480
3.655143 -1.295750 -2.294559 0.000000000000000e+00 1634890835
3.525233 -1.442587 -2.273007 0.000000000000000e+00 1851878480
3.346260 -1.760671 -2.283829 1.880790849211783e-38 1684957512
3.215271 -1.894546 -2.262106 0.000000000000000e+00 1851878480
3.579438 -1.267598 -2.290468 0.000000000000000e+00 1634890835
3.475249 -1.421456 -2.284669 0.000000000000000e+00 1634890835
3.253493 -1.712586 -2.265339 0.000000000000000e+00 1851878480
3.149000 -1.857007 -2.260969 0.000000000000000e+00 1851878480
3.517843 -1.244479 -2.294171 0.000000000000000e+00 1634890835
3.432915 -1.403462 -2.300644 0.000000000000000e+00 1634890835
3.153410 -1.660614 -2.239581 0.000000000000000e+00 1851878480
3.080054 -1.817844 -2.256471 0.000000000000000e+00 1851878480
3.465931 -1.224818 -2.303235 0.000000000000000e+00 1634890835
3.337447 -1.363767 -2.279704 0.000000000000000e+00 1634890835
3.164968 -1.667423 -2.292378 0.000000000000000e+00 1851878480
3.029797 -1.789670 -2.264443 0.000000000000000e+00 1851878480
3.328895 -1.175133 -2.253825 0.000000000000000e+00 1634890835
3.296533 -1.346386 -2.294731 0.000000000000000e+00 1634890835
3.080447 -1.623605 -2.275059 0.000000000000000e+00 1851878480
2.961596 -1.750857 -2.257777 0.000000000000000e+00 1851878480
3.320680 -1.170962 -2.290262 0.000000000000000e+00 1634890835
3.227873 -1.317685 -2.289479 0.000000000000000e+00 1634890835
3.041106 -1.603580 -2.289855 0.000000000000000e+00 1851878480
2.906772 -1.719909 -2.260001 0.000000000000000e+00 1851878480
3.265387 -1.150204 -2.293876 0.000000000000000e+00 1634890835
3.199279 -1.305354 -2.311839 0.000000000000000e+00 1634890835
2.941898 -1.551963 -2.258085 0.000000000000000e+00 1851878480
2.836389 -1.679710 -2.248766 0.000000000000000e+00 1851878480
3.180370 -1.119016 -2.275267 0.000000000000000e+00 1634890835
3.123559 -1.273809 -2.299231 0.000000000000000e+00 1634890835
2.859921 -1.509401 -2.237407 0.000000000000000e+00 1851878480
2.760238 -1.636040 -2.231250 0.000000000000000e+00 1851878480
3.102733 -1.090474 -2.260290 0.000000000000000e+00 1634890835
3.062448 -1.248244 -2.296016 0.000000000000000e+00 1634890835
2.822925 -1.490562 -2.250683 0.000000000000000e+00 1851878480
2.744916 -1.628395 -2.262035 0.000000000000000e+00 1851878480
3.082834 -1.082250 -2.286565 0.000000000000000e+00 1634890835
3.022705 -1.231400 -2.307935 0.000000000000000e+00 1634890835
2.771114 -1.463883 -2.251345 0.000000000000000e+00 1851878480
0.871227 -0.517309 -0.731845 0.000000000000000e+00 1886740808
3.025274 -1.060822 -2.284354 0.000000000000000e+00 1634890835
2.939981 -1.197066 -2.285840 0.000000000000000e+00 1634890835
2.710256 -1.432409 -2.243484 0.000000000000000e+00 1851878480
0.866683 -0.515077 -0.742024 0.000000000000000e+00 1886740808
3.013113 -1.055328 -2.315973 0.000000000000000e+00 1634890835
2.929163 -1.192024 -2.318851 0.000000000000000e+00 1634890835
0.845052 -0.446835 -0.712650 0.000000000000000e+00 1886740808
0.811421 -0.482677 -0.707994 0.000000000000000e+00 1886740808
2.888124 -1.010358 -2.259488 0.000000000000000e+00 1634890835
2.832397 -1.152017 -2.282804 0.000000000000000e+00 1634890835
0.875606 -0.463215 -0.752211 0.000000000000000e+00 1886740808
0.818910 -0.487585 -0.728122 0.000000000000000e+00 1886740808
2.875606 -1.004776 -2.289598 0.000000000000000e+00 1634890835
2.818694 -1.145814 -2.312638 0.000000000000000e+00 1634890835
0.867253 -0.459021 -0.758885 0.000000000000000e+00 1886740808
0.770576 -0.459239 -0.698118 0.000000000000000e+00 1886740808
2.862873 -0.999116 -2.319690 0.000000000000000e+00 1634890835
2.727267 -1.108030 -2.277693 0.000000000000000e+00 1634890835
0.807000 -0.427342 -0.719228 0.000000000000000e+00 1886740808
0.807913 -0.481951 -0.745742 0.000000000000000e+00 1886740808
2.778031 -0.968315 -2.290488 0.000000000000000e+00 1634890835
0.854841 -0.347107 -0.726652 0.000000000000000e+00 1886740808
0.812083 -0.430250 -0.737095 0.000000000000000e+00 1886740808
0.735392 -0.439115 -0.691546 0.000000000000000e+00 1886740808
0.865102 -0.301166 -0.725752 0.000000000000000e+00 1886740808
0.847974 -0.344122 -0.733609 0.000000000000000e+00 1886740808
0.838422 -0.444431 -0.774970 0.000000000000000e+00 1886740808
0.732278 -0.437684 -0.701497 0.000000000000000e+00 1886740808
0.843812 -0.293384 -0.720222 0.000000000000000e+00 1886740808
0.825691 -0.334884 -0.726962 0.000000000000000e+00 1886740808
0.800843 -0.424731 -0.753774 0.000000000000000e+00 1886740808
0.792919 -0.474403 -0.773750 0.000000000000000e+00 1886740808
0.873855 -0.303440 -0.758808 0.000000000000000e+00 1886740808
0.815033 -0.330367 -0.730220 0.000000000000000e+00 1886740808
0.781185 -0.414522 -0.748675 0.000000000000000e+00 1886740808
0.786673 -0.471142 -0.781922 0.000000000000000e+00 1886740808
0.838992 -0.290955 -0.741134 0.000000000000000e+00 1886740808
0.777296 -0.314882 -0.708639 0.000000000000000e+00 1886740808
0.751434 -0.398948 -0.733255 0.000000000000000e+00 1886740808
0.744137 -0.446125 -0.753353 0.000000000000000e+00 1886740808
0.790553 -0.273795 -0.710383 0.000000000000000e+00 1886740808
0.752787 -0.304768 -0.698310 0.000000000000000e+00 1886740808
0.784755 -0.416865 -0.779654 0.000000000000000e+00 1886740808
0.734584 -0.440857 -0.757434 0.000000000000000e+00 1886740808
0.787888 -0.272506 -0.720158 0.000000000000000e+00 1886740808
0.782856 -0.316747 -0.738883 0.000000000000000e+00 1886740808
0.779280 -0.414184 -0.788219 0.000000000000000e+00 1886740808
0.766896 -0.460736 -0.805344 0.000000000000000e+00 1886740808
0.782912 -0.270417 -0.727880 0.000000000000000e+00 1886740808
0.772519 -0.312369 -0.741827 0.000000000000000e+00 1886740808
0.760472 -0.404413 -0.783084 0.000000000000000e+00 1886740808
0.749739 -0.450913 -0.801832 0.000000000000000e+00 1886740808
0.763724 -0.263424 -0.722188 0.000000000000000e+00 1886740808
0.759669 -0.306977 -0.742168 0.000000000000000e+00 1886740808
0.774926 -0.412333 -0.812352 0.000000000000000e+00 1886740808
2.112004 -1.271606 -2.300305 0.000000000000000e+00 1634890835
0.747150 -0.257345 -0.718577 0.000000000000000e+00 1886740808
0.766806 -0.309661 -0.762141 0.000000000000000e+00 1886740808
0.768105 -0.408939 -0.819696 0.000000000000000e+00 1886740808
2.059126 -1.241147 -2.283931 0.000000000000000e+00 1634890835
0.761436 -0.261891 -0.744799 0.000000000000000e+00 1886740808
0.779564 -0.314606 -0.788247 0.000000000000000e+00 1886740808
2.125284 -1.132164 -2.308825 0.000000000000000e+00 1634890835
2.040068 -1.231050 -2.304352 0.000000000000000e+00 1634890835
0.742217 -0.254910 -0.738357 0.000000000000000e+00 1886740808
0.745034 -0.300470 -0.766371 0.000000000000000e+00 1886740808
2.103909 -1.121445 -2.326683 0.000000000000000e+00 1634890835
0.808847 -0.488648 -0.930404 0.000000000000000e+00 1886740808
0.787037 -0.269904 -0.796256 0.000000000000000e+00 1886740808
0.764513 -0.308118 -0.800007 0.000000000000000e+00 1886740808
2.024726 -1.079892 -2.279345 0.000000000000000e+00 1634890835
0.825412 -0.499240 -0.966889 0.000000000000000e+00 1886740808
0.758540 -0.259740 -0.780463 0.000000000000000e+00 1886740808
0.767399 -0.309067 -0.816905 0.000000000000000e+00 1886740808
2.010556 -1.072994 -2.304056 0.000000000000000e+00 1634890835
0.770876 -0.466808 -0.919586 0.000000000000000e+00 1886740808
0.751381 -0.256896 -0.786225 0.000000000000000e+00 1886740808
2.118438 -0.852592 -2.294067 0.000000000000000e+00 1634890835
0.833091 -0.444884 -0.971863 0.000000000000000e+00 1886740808
0.771455 -0.467726 -0.937187 0.000000000000000e+00 1886740808
0.774166 -0.264273 -0.823818 0.000000000000000e+00 1886740808
2.113111 -0.849841 -2.327838 0.000000000000000e+00 1634890835
0.791843 -0.423127 -0.940356 0.000000000000000e+00 1886740808
0.771759 -0.468488 -0.954799 0.000000000000000e+00 1886740808
0.757853 -0.258294 -0.820151 0.000000000000000e+00 1886740808
2.045513 -0.822055 -2.292319 0.000000000000000e+00 1634890835
0.771195 -0.412361 -0.932317 0.000000000000000e+00 1886740808
1.824201 -1.108752 -2.298407 0.000000000000000e+00 1634890835
2.057791 -0.700211 -2.264771 0.000000000000000e+00 1634890835
2.007622 -0.806229 -2.288768 0.000000000000000e+00 1634890835
0.797366 -0.426638 -0.981329 0.000000000000000e+00 1886740808
1.777529 -1.081769 -2.280906 0.000000000000000e+00 1634890835
2.031594 -0.690159 -2.273939 0.000000000000000e+00 1634890835
1.971692 -0.791201 -2.286720 0.000000000000000e+00 1634890835
0.802256 -0.429544 -1.005167 0.000000000000000e+00 1886740808
0.730222 -0.444979 -0.954328 0.000000000000000e+00 1886740808
2.008801 -0.681270 -2.286676 0.000000000000000e+00 1634890835
1.961901 -0.786666 -2.314805 0.000000000000000e+00 1634890835
0.793845 -0.425333 -1.012614 0.000000000000000e+00 1886740808
1.725764 -1.053036 -2.297171 0.000000000000000e+00 1634890835
1.991252 -0.674162 -2.305307 0.000000000000000e+00 1634890835
0.797212 -0.319409 -0.956942 0.000000000000000e+00 1886740808
1.791426 -0.960501 -2.326524 0.000000000000000e+00 1634890835
1.675826 -1.023954 -2.272118 0.000000000000000e+00 1634890835
1.928798 -0.651877 -2.271095 0.000000000000000e+00 1634890835
0.791006 -0.316668 -0.966006 0.000000000000000e+00 1886740808
0.801467 -0.430027 -1.059775 0.000000000000000e+00 1886740808
1.654429 -1.012281 -2.284878 0.000000000000000e+00 1634890835
1.907263 -0.643451 -2.284117 0.000000000000000e+00 1634890835
0.803690 -0.321483 -0.998602 0.000000000000000e+00 1886740808
1.711579 -0.919015 -2.304444 0.000000000000000e+00 1634890835
1.626435 -0.996559 -2.288178 0.000000000000000e+00 1634890835
0.794028 -0.267393 -0.967205 0.000000000000000e+00 1886740808
0.803287 -0.321053 -1.015540 0.000000000000000e+00 1886740808
1.686118 -0.906020 -2.311658 0.000000000000000e+00 1634890835
1.611730 -0.988975 -2.310005 0.000000000000000e+00 1634890835
0.845512 -0.284201 -1.047598 0.000000000000000e+00 1886740808
0.806433 -0.322037 -1.037379 0.000000000000000e+00 1886740808
1.669303 -0.897668 -2.330582 0.000000000000000e+00 1634890835
1.573322 -0.966833 -2.297403 0.000000000000000e+00 1634890835
0.791320 -0.265481 -0.997332 0.000000000000000e+00 1886740808
0.812350 -0.324117 -1.063353 0.000000000000000e+00 1886740808
1.624975 -0.874511 -2.310466 0.000000000000000e+00 1634890835
1.554499 -0.956704 -2.312824 0.000000000000000e+00 1634890835
0.792852 -0.265479 -1.016516 0.000000000000000e+00 1886740808
1.725899 -0.687999 -2.299010 0.000000000000000e+00 1634890835
1.585937 -0.854180 -2.296650 0.000000000000000e+00 1634890835
1.511886 -0.931912 -2.292142 0.000000000000000e+00 1634890835
0.757053 -0.252990 -0.987433 0.000000000000000e+00 1886740808
1.707667 -0.680113 -2.314980 0.000000000000000e+00 1634890835
1.568284 -0.845358 -2.313264 0.000000000000000e+00 1634890835
1.476304 -0.911413 -2.280912 0.000000000000000e+00 1634890835
0.774071 -0.258151 -1.027183 0.000000000000000e+00 1886740808
0.767178 -0.305261 -1.058496 0.000000000000000e+00 1886740808
1.535795 -0.828534 -2.307617 0.000000000000000e+00 1634890835
1.470206 -0.909111 -2.315073 0.000000000000000e+00 1634890835
1.669065 -0.555474 -2.253488 0.000000000000000e+00 1634890835
1.601192 -0.636509 -2.248629 0.000000000000000e+00 1634890835
1.523453 -0.822575 -2.332013 0.000000000000000e+00 1634890835
1.426183 -0.883345 -2.289088 0.000000000000000e+00 1634890835
0.751812 -0.249676 -1.032852 0.000000000000000e+00 1886740808
1.599361 -0.635162 -2.286323 0.000000000000000e+00 1634890835
1.486128 -0.803122 -2.317788 0.000000000000000e+00 1634890835
1.405666 -0.872109 -2.299955 0.000000000000000e+00 1634890835
1.623764 -0.538076 -2.270033 0.000000000000000e+00 1634890835
1.593315 -0.632130 -2.318714 0.000000000000000e+00 1634890835
1.475200 -0.797926 -2.344397 0.000000000000000e+00 1634890835
1.372373 -0.852926 -2.289351 0.000000000000000e+00 1634890835
1.619426 -0.535443 -2.304030 0.000000000000000e+00 1634890835
1.533293 -0.607697 -2.271780 0.000000000000000e+00 1634890835
1.430499 -0.774454 -2.316761 0.000000000000000e+00 1634890835
1.356437 -0.844517 -2.307276 0.000000000000000e+00 1634890835
1.600441 -0.527957 -2.317519 0.000000000000000e+00 1634890835
1.551887 -0.614423 -2.341208 0.000000000000000e+00 1634890835
1.394755 -0.755810 -2.302284 0.000000000000000e+00 1634890835
1.306982 -0.815206 -2.267198 0.000000000000000e+00 1634890835
1.549407 -0.509922 -2.283741 0.000000000000000e+00 1634890835
1.513444 -0.598560 -2.325043 0.000000000000000e+00 1634890835
1.391380 -0.754705 -2.341156 0.000000000000000e+00 1634890835
1.283597 -0.802113 -2.271078 0.000000000000000e+00 1634890835
1.546229 -0.507652 -2.320054 0.000000000000000e+00 1634890835
1.464113 -0.578412 -2.290726 0.000000000000000e+00 1634890835
1.354181 -0.735252 -2.322984 0.000000000000000e+00 1634890835
1.291402 -0.808535 -2.330856 0.000000000000000e+00 1634890835
1.489205 -0.487722 -2.274933 0.000000000000000e+00 1634890835
1.432689 -0.565359 -2.283161 0.000000000000000e+00 1634890835
1.310773 -0.712403 -2.292689 0.000000000000000e+00 1634890835
1.260751 -0.790897 -2.321698 0.000000000000000e+00 1634890835
1.477304 -0.482598 -2.297865 0.000000000000000e+00 1634890835
1.414132 -0.557391 -2.295704 0.000000000000000e+00 1634890835
1.305406 -0.710222 -2.328517 0.000000000000000e+00 1634890835
1.213538 -0.762817 -2.280489 0.000000000000000e+00 1634890835
1.442291 -0.469932 -2.284549 0.000000000000000e+00 1634890835
1.409587 -0.554938 -2.331406 0.000000000000000e+00 1634890835
1.274338 -0.694059 -2.318495 0.000000000000000e+00 1634890835
1.182997 -0.745160 -2.269004 0.000000000000000e+00 1634890835
1.390882 -0.451966 -2.243816 0.000000000000000e+00 1634890835
1.366618 -0.537363 -2.303216 0.000000000000000e+00 1634890835
1.249639 -0.681352 -2.319366 0.000000000000000e+00 1634890835
1.159939 -0.732196 -2.271165 0.000000000000000e+00 1634890835
1.409750 -0.456835 -2.316581 0.000000000000000e+00 1634890835
1.324422 -0.520116 -2.274784 0.000000000000000e+00 1634890835
1.236595 -0.675001 -2.341828 0.000000000000000e+00 1634890835
1.129638 -0.714636 -2.258412 0.000000000000000e+00 1634890835
1.359024 -0.439147 -2.275116 0.000000000000000e+00 1634890835
1.298636 -0.509329 -2.273508 0.000000000000000e+00 1634890835
1.200146 -0.655865 -2.319466 0.000000000000000e+00 1634890835
1.111839 -0.704966 -2.270124 0.000000000000000e+00 1634890835
1.327985 -0.427862 -2.265201 0.000000000000000e+00 1634890835
1.289010 -0.504880 -2.300557 0.000000000000000e+00 1634890835
1.172157 -0.641336 -2.312357 0.000000000000000e+00 1634890835
1.084688 -0.689351 -2.262322 0.000000000000000e+00 1634890835
1.323357 -0.425086 -2.300364 0.000000000000000e+00 1634890835
1.291345 -0.505099 -2.349970 0.000000000000000e+00 1634890835
1.152947 -0.631602 -2.322129 0.000000000000000e+00 1634890835
1.084553 -0.690922 -2.311247 0.000000000000000e+00 1634890835
1.275514 -0.408446 -2.259872 0.000000000000000e+00 1634890835
1.224027 -0.478091 -2.271614 0.000000000000000e+00 1634890835
1.118883 -0.613719 -2.301268 0.000000000000000e+00 1634890835
1.045012 -0.667380 -2.275995 0.000000000000000e+00 1634890835
1.276143 -0.407337 -2.304907 0.000000000000000e+00 1634890835
1.225006 -0.477775 -2.318939 0.000000000000000e+00 1634890835
1.106551 -0.607749 -2.324676 0.000000000000000e+00 1634890835
1.018988 -0.652423 -2.268760 0.000000000000000e+00 1634890835
1.249668 -0.397567 -2.301363 0.000000000000000e+00 1634890835
1.176172 -0.458038 -2.271527 0.000000000000000e+00 1634890835
1.080067 -0.594006 -2.318240 0.000000000000000e+00 1634890835
1.002071 -0.643286 -2.281438 0.000000000000000e+00 1634890835
1.199366 -0.380258 -2.252488 0.000000000000000e+00 1634890835
1.181336 -0.459334 -2.328142 0.000000000000000e+00 1634890835
1.044342 -0.575160 -2.290765 0.000000000000000e+00 1634890835
0.997114 -0.641849 -2.322051 0.000000000000000e+00 1634890835
1.208242 -0.381717 -2.314591 0.000000000000000e+00 1634890835
1.162208 -0.451170 -2.337794 0.000000000000000e+00 1634890835
1.020244 -0.562699 -2.287660 0.000000000000000e+00 1634890835
0.957714 -0.618228 -2.281993 0.000000000000000e+00 1634890835
1.188812 -0.374205 -2.323468 0.000000000000000e+00 1634890835
1.127888 -0.437119 -2.316206 0.000000000000000e+00 1634890835
1.023266 -0.565208 -2.346129 0.000000000000000e+00 1634890835
0.932447 -0.603674 -2.274021 0.000000000000000e+00 1634890835
1.151040 -0.360941 -2.295694 0.000000000000000e+00 1634890835
1.103412 -0.426896 -2.313902 0.000000000000000e+00 1634890835
1.012786 -0.560284 -2.375136 0.000000000000000e+00 1634890835
0.927815 -0.602491 -2.316708 0.000000000000000e+00 1634890835
1.137163 -0.355190 -2.314992 0.000000000000000e+00 1634890835
1.088932 -0.420544 -2.332475 0.000000000000000e+00 1634890835
0.971720 -0.538426 -2.331624 0.000000000000000e+00 1634890835
0.881651 -0.574309 -2.254772 0.000000000000000e+00 1634890835
1.099400 -0.341996 -2.285039 0.000000000000000e+00 1634890835
1.056718 -0.407349 -2.312615 0.000000000000000e+00 1634890835
0.935763 -0.519363 -2.298141 0.000000000000000e+00 1634890835
0.874982 -0.571818 -2.292796 0.000000000000000e+00 1634890835
1.094794 -0.339123 -2.323773 0.000000000000000e+00 1634890835
1.049405 -0.403754 -2.347142 0.000000000000000e+00 1634890835
0.924894 -0.514215 -2.325678 0.000000000000000e+00 1634890835
0.851257 -0.558192 -2.286443 0.000000000000000e+00 1634890835
1.041479 -0.321191 -2.258157 0.000000000000000e+00 1634890835
0.992095 -0.380945 -2.268466 0.000000000000000e+00 1634890835
0.890091 -0.495750 -2.292454 0.000000000000000e+00 1634890835
0.835235 -0.549608 -2.300511 0.000000000000000e+00 1634890835
1.052642 -0.323150 -2.332118 0.000000000000000e+00 1634890835
0.992848 -0.380445 -2.321568 0.000000000000000e+00 1634890835
0.874245 -0.487829 -2.307164 0.000000000000000e+00 1634890835
0.461928 -0.305071 -1.305263 0.000000000000000e+00 1936876886
1.002135 -0.306182 -2.269308 0.000000000000000e+00 1634890835
0.969240 -0.370601 -2.318430 0.000000000000000e+00 1634890835
0.861746 -0.481786 -2.331223 0.000000000000000e+00 1634890835
0.427951 -0.283706 -1.241164 0.000000000000000e+00 1936876886
0.986366 -0.299871 -2.283701 0.000000000000000e+00 1634890835
0.954942 -0.364316 -2.337521 0.000000000000000e+00 1634890835
0.842894 -0.472195 -2.338437 0.000000000000000e+00 1634890835
0.434247 -0.289020 -1.293296 0.000000000000000e+00 1936876886
0.967080 -0.292488 -2.290035 0.000000000000000e+00 1634890835
0.911514 -0.346936 -2.284108 0.000000000000000e+00 1634890835
0.453727 -0.254714 -1.291504 0.000000000000000e+00 1936876886
0.350728 -0.234397 -1.073211 0.000000000000000e+00 1953264973
0.945530 -0.284428 -2.290785 0.000000000000000e+00 1634890835
0.903907 -0.343204 -2.319637 0.000000000000000e+00 1634890835
0.441810 -0.248568 -1.290910 0.000000000000000e+00 1936876886
0.318320 -0.213656 -1.001313 0.000000000000000e+00 1953264973
0.493281 -0.147548 -1.223183 0.000000000000000e+00 1936876886
0.886290 -0.335659 -2.330187 0.000000000000000e+00 1634890835
0.377167 -0.212684 -1.131815 0.000000000000000e+00 1953264973
0.283012 -0.190814 -0.915708 0.000000000000000e+00 1953264973
0.506569 -0.150628 -1.286147 0.000000000000000e+00 1936876886
0.861719 -0.325486 -2.322124 0.000000000000000e+00 1634890835
0.334759 -0.189222 -1.032262 0.000000000000000e+00 1953264973
0.270527 -0.183258 -0.900904 0.000000000000000e+00 1953264973
0.477207 -0.141020 -1.241052 0.000000000000000e+00 1936876886
0.838189 -0.315718 -2.316123 0.000000000000000e+00 1634890835
0.321602 -0.182241 -1.019631 0.000000000000000e+00 1953264973
0.238941 -0.162663 -0.819520 0.000000000000000e+00 1953264973
