# .PCD v0.7 - Point Cloud Data file format
VERSION 0.7
FIELDS x y z rgb label
SIZE 4 4 4 4 4
TYPE F F F F U
COUNT 1 1 1 1 1
WIDTH 539
HEIGHT 1
VIEWPOINT 0 0 0 1 0 0 0
POINTS 539
DATA ascii
40.963966 -17.336370 10.327158 0.000000000000000e+00 1954047316
39.148819 -20.007690 10.103436 0.000000000000000e+00 1954047316
38.241566 -21.327810 10.026364 0.000000000000000e+00 1954047316
32.347713 -12.026376 -2.055187 0.000000000000000e+00 1851878480
31.665821 -13.245656 -1.930420 0.000000000000000e+00 1851878480
29.021336 -14.976325 -1.569338 0.000000000000000e+00 1851878480
27.755337 -15.758505 -1.378317 0.000000000000000e+00 1851878480
29.022676 -10.781998 -2.107593 0.000000000000000e+00 1851878480
28.132448 -11.763563 -1.978386 0.000000000000000e+00 1851878480
26.720400 -13.793216 -1.711617 0.000000000000000e+00 1851878480
25.913256 -14.721318 -1.554471 0.000000000000000e+00 1851878480
26.532146 -9.849269 -2.167985 0.000000000000000e+00 1851878480
26.048014 -10.888127 -2.075892 0.000000000000000e+00 1851878480
25.132215 -12.977404 -1.861027 0.000000000000000e+00 1851878480
24.645647 -14.009441 -1.733301 0.000000000000000e+00 1851878480
24.221275 -8.984593 -2.199635 0.000000000000000e+00 1851878480
24.455269 -10.218766 -2.178389 0.000000000000000e+00 1851878480
23.760660 -12.272977 -1.997221 0.000000000000000e+00 1851878480
23.529001 -13.382620 -1.898449 0.000000000000000e+00 1851878480
22.261822 -8.251468 -2.224567 0.000000000000000e+00 1851878480
22.506668 -9.401236 -2.216230 0.000000000000000e+00 1851878480
22.189316 -11.464906 -2.087501 0.000000000000000e+00 1851878480
21.930956 -12.481079 -1.997000 0.000000000000000e+00 1851878480
20.505014 -7.594506 -2.236127 0.000000000000000e+00 1851878480
20.690830 -8.639693 -2.232058 0.000000000000000e+00 1851878480
20.758972 -10.729192 -2.161304 0.000000000000000e+00 1851878480
20.459343 -11.650481 -2.075593 0.000000000000000e+00 1851878480
18.962801 -7.017945 -2.241245 0.000000000000000e+00 1851878480
19.064190 -7.957664 -2.236198 0.000000000000000e+00 1851878480
19.407944 -10.034048 -2.215799 0.000000000000000e+00 1851878480
19.105677 -10.886099 -2.137181 0.000000000000000e+00 1851878480
17.613106 -6.513442 -2.242951 0.000000000000000e+00 1851878480
17.632977 -7.357653 -2.234739 0.000000000000000e+00 1851878480
17.869263 -9.241421 -2.220164 0.000000000000000e+00 1851878480
17.857479 -10.180955 -2.183866 0.000000000000000e+00 1851878480
16.430239 -6.071349 -2.242990 0.000000000000000e+00 1851878480
16.433971 -6.854925 -2.238180 0.000000000000000e+00 1851878480
16.544031 -8.558730 -2.222551 0.000000000000000e+00 1851878480
16.626493 -9.484797 -2.207183 0.000000000000000e+00 1851878480
15.411585 -5.690560 -2.245528 0.000000000000000e+00 1851878480
15.383614 -6.414517 -2.240888 0.000000000000000e+00 1851878480
15.366059 -7.951818 -2.219795 0.000000000000000e+00 1851878480
15.442884 -8.814859 -2.211927 0.000000000000000e+00 1851878480
14.471043 -5.339149 -2.241721 0.000000000000000e+00 1851878480
14.470222 -6.031513 -2.245240 0.000000000000000e+00 1851878480
14.441750 -7.475843 -2.232764 0.000000000000000e+00 1851878480
14.440757 -8.247779 -2.220143 0.000000000000000e+00 1851878480
13.684018 -5.044877 -2.246073 0.000000000000000e+00 1851878480
13.611515 -5.671567 -2.241552 0.000000000000000e+00 1851878480
13.614465 -7.049819 -2.243324 0.000000000000000e+00 1851878480
13.578405 -7.759910 -2.230647 0.000000000000000e+00 1851878480
12.896517 -4.750866 -2.236100 0.000000000000000e+00 1851878480
12.878551 -5.364237 -2.243728 0.000000000000000e+00 1851878480
12.827446 -6.644382 -2.244460 0.000000000000000e+00 1851878480
12.812704 -7.326730 -2.240265 0.000000000000000e+00 1851878480
7.000446 -2.576845 -1.278708 1.880790849211783e-38 1684957512
6.972736 -2.903281 -1.281512 1.880790849211783e-38 1684957512
12.172791 -6.307282 -2.254418 0.000000000000000e+00 1851878480
12.091277 -6.918378 -2.242303 0.000000000000000e+00 1851878480
6.667027 -2.452201 -1.279794 1.880790849211783e-38 1684957512
6.625966 -2.757901 -1.281345 1.880790849211783e-38 1684957512
6.530794 -3.384978 -1.276513 1.880790849211783e-38 1684957512
11.449783 -6.555291 -2.245104 0.000000000000000e+00 1851878480
6.333436 -2.327680 -1.274811 1.880790849211783e-38 1684957512
6.307654 -2.624462 -1.280480 1.880790849211783e-38 1684957512
6.215829 -3.222752 -1.278925 1.880790849211783e-38 1684957512
10.811108 -6.193396 -2.235235 0.000000000000000e+00 1851878480
6.099515 -2.239950 -1.284768 1.880790849211783e-38 1684957512
6.025982 -2.506358 -1.281459 1.880790849211783e-38 1684957512
5.946373 -3.084030 -1.284893 1.880790849211783e-38 1684957512
5.848540 -3.352517 -1.271838 1.880790849211783e-38 1684957512
5.822347 -2.136483 -1.281008 1.880790849211783e-38 1684957512
5.791052 -2.407769 -1.287577 1.880790849211783e-38 1684957512
5.675632 -2.944561 -1.285216 1.880790849211783e-38 1684957512
5.625933 -3.226888 -1.283902 1.880790849211783e-38 1684957512
5.572048 -2.043020 -1.278381 1.880790849211783e-38 1684957512
5.552843 -2.307889 -1.288565 1.880790849211783e-38 1684957512
5.394490 -2.799602 -1.277669 1.880790849211783e-38 1684957512
5.371588 -3.082896 -1.283820 1.880790849211783e-38 1684957512
5.332730 -1.953723 -1.273838 1.880790849211783e-38 1684957512
5.350857 -2.223125 -1.293868 1.880790849211783e-38 1684957512
5.328377 -2.766185 -1.317654 1.880790849211783e-38 1684957512
5.356191 -3.075956 -1.338171 1.880790849211783e-38 1684957512
5.393652 -1.974468 -1.339512 1.880790849211783e-38 1684957512
5.341255 -2.218320 -1.343821 1.880790849211783e-38 1684957512
5.401990 -2.805309 -1.392498 1.880790849211783e-38 1684957512
5.326030 -3.060527 -1.388584 1.880790849211783e-38 1684957512
5.309776 -1.942213 -1.369197 1.880790849211783e-38 1684957512
5.336188 -2.215400 -1.394975 1.880790849211783e-38 1684957512
5.369354 -2.789269 -1.440620 1.880790849211783e-38 1684957512
5.340066 -3.070503 -1.450601 1.880790849211783e-38 1684957512
5.375029 -1.964504 -1.437358 1.880790849211783e-38 1684957512
5.297487 -2.198518 -1.437116 1.880790849211783e-38 1684957512
5.323781 -2.766501 -1.484694 1.880790849211783e-38 1684957512
5.301244 -3.050086 -1.498252 1.880790849211783e-38 1684957512
5.343010 -1.951226 -1.480033 1.880790849211783e-38 1684957512
5.329408 -2.210945 -1.498572 1.880790849211783e-38 1684957512
5.353190 -2.782695 -1.549765 1.880790849211783e-38 1684957512
5.311563 -3.057940 -1.559756 1.880790849211783e-38 1684957512
5.304648 -1.935644 -1.520488 1.880790849211783e-38 1684957512
5.347625 -2.217674 -1.556900 1.880790849211783e-38 1684957512
5.390371 -2.802949 -1.618063 1.880790849211783e-38 1684957512
5.390241 -3.105191 -1.642606 1.880790849211783e-38 1684957512
5.328325 -1.942703 -1.578808 1.880790849211783e-38 1684957512
5.304927 -2.199142 -1.597487 1.880790849211783e-38 1684957512
5.335274 -2.775219 -1.658746 1.880790849211783e-38 1684957512
5.310374 -3.061123 -1.677429 1.880790849211783e-38 1684957512
5.369558 -1.956135 -1.643192 1.880790849211783e-38 1684957512
5.325178 -2.206705 -1.657056 1.880790849211783e-38 1684957512
5.312730 -2.764412 -1.709005 1.880790849211783e-38 1684957512
5.293781 -3.053499 -1.731472 1.880790849211783e-38 1684957512
5.325196 -1.938383 -1.681597 1.880790849211783e-38 1684957512
5.328346 -2.207181 -1.711804 1.880790849211783e-38 1684957512
5.351889 -2.785721 -1.779595 1.880790849211783e-38 1684957512
5.295254 -3.056304 -1.791579 1.880790849211783e-38 1684957512
5.355586 -1.947832 -1.743720 1.880790849211783e-38 1684957512
5.324959 -2.204937 -1.764711 1.880790849211783e-38 1684957512
5.356578 -2.789099 -1.839508 1.880790849211783e-38 1684957512
5.328119 -3.077254 -1.863029 1.880790849211783e-38 1684957512
5.304678 -1.927714 -1.779433 1.880790849211783e-38 1684957512
5.325723 -2.204410 -1.819247 1.880790849211783e-38 1684957512
5.361558 -2.792641 -1.899952 1.880790849211783e-38 1684957512
5.326414 -3.078259 -1.923092 1.880790849211783e-38 1684957512
5.302686 -1.925381 -1.831303 1.880790849211783e-38 1684957512
5.315029 -2.199136 -1.870055 1.880790849211783e-38 1684957512
5.339355 -2.782023 -1.950909 1.880790849211783e-38 1684957512
5.320279 -3.076716 -1.981827 1.880790849211783e-38 1684957512
5.279545 -1.915370 -1.875898 1.880790849211783e-38 1684957512
5.304093 -2.193763 -1.920856 1.880790849211783e-38 1684957512
5.379639 -2.803973 -2.025248 1.880790849211783e-38 1684957512
5.351811 -3.096977 -2.055261 1.880790849211783e-38 1684957512
5.323675 -1.929748 -1.944895 1.880790849211783e-38 1684957512
5.333083 -2.204891 -1.986614 1.880790849211783e-38 1684957512
5.318582 -2.773102 -2.061563 1.880790849211783e-38 1684957512
5.326281 -3.084234 -2.107240 1.880790849211783e-38 1684957512
5.347206 -1.936630 -2.007346 1.880790849211783e-38 1684957512
5.305686 -2.192707 -2.031702 1.880790849211783e-38 1684957512
5.333928 -2.782068 -2.127354 1.880790849211783e-38 1684957512
5.329715 -3.088265 -2.170820 1.880790849211783e-38 1684957512
5.345460 -1.934343 -2.060839 1.880790849211783e-38 1684957512
5.315804 -2.196024 -2.091309 1.880790849211783e-38 1684957512
5.308711 -2.769880 -2.177239 1.880790849211783e-38 1684957512
5.411117 -3.137527 -2.267571 1.880790849211783e-38 1684957512
5.367401 -1.940610 -2.123994 1.880790849211783e-38 1684957512
5.328837 -2.200534 -2.152648 1.880790849211783e-38 1684957512
5.369287 -2.802471 -2.263111 1.880790849211783e-38 1684957512
5.225181 -3.031749 -2.251484 0.000000000000000e+00 1851878480
5.305850 -1.916695 -2.154036 1.880790849211783e-38 1684957512
5.387251 -2.223766 -2.233433 1.880790849211783e-38 1684957512
5.202684 -2.716473 -2.252424 0.000000000000000e+00 1851878480
5.122881 -2.974405 -2.268452 0.000000000000000e+00 1851878480
5.354144 -1.932455 -2.228885 1.880790849211783e-38 1684957512
5.318234 -2.194398 -2.261645 0.000000000000000e+00 1851878480
5.082261 -2.654541 -2.258852 0.000000000000000e+00 1851878480
4.974124 -2.890001 -2.262287 0.000000000000000e+00 1851878480
5.294367 -1.909201 -2.258977 0.000000000000000e+00 1851878480
5.158751 -2.127730 -2.249309 0.000000000000000e+00 1851878480
4.915490 -2.568354 -2.241774 0.000000000000000e+00 1851878480
4.848457 -2.818920 -2.263759 0.000000000000000e+00 1851878480
5.140775 -1.852175 -2.247180 0.000000000000000e+00 1851878480
5.061719 -2.086860 -2.261817 0.000000000000000e+00 1851878480
4.849836 -2.534965 -2.268528 0.000000000000000e+00 1851878480
4.725652 -2.749416 -2.263997 0.000000000000000e+00 1851878480
5.009646 -1.803324 -2.242582 0.000000000000000e+00 1851878480
4.916702 -2.026239 -2.250635 0.000000000000000e+00 1851878480
4.732081 -2.474311 -2.269181 0.000000000000000e+00 1851878480
4.606182 -2.681774 -2.263319 0.000000000000000e+00 1851878480
4.916399 -1.768172 -2.252941 0.000000000000000e+00 1851878480
4.834219 -1.991424 -2.265977 0.000000000000000e+00 1851878480
4.533300 -2.371242 -2.227664 0.000000000000000e+00 1851878480
4.467012 -2.602571 -2.250223 0.000000000000000e+00 1851878480
4.796032 -1.723320 -2.248973 0.000000000000000e+00 1851878480
4.697149 -1.934153 -2.253702 0.000000000000000e+00 1851878480
4.527852 -2.369266 -2.279152 0.000000000000000e+00 1851878480
4.341209 -2.531063 -2.241023 0.000000000000000e+00 1851878480
4.682050 -1.680832 -2.245863 0.000000000000000e+00 1851878480
4.604897 -1.895370 -2.260777 0.000000000000000e+00 1851878480
4.361247 -2.282937 -2.247881 0.000000000000000e+00 1851878480
4.310559 -2.514983 -2.279439 0.000000000000000e+00 1851878480
4.549686 -1.631813 -2.231653 0.000000000000000e+00 1851878480
4.480107 -1.843227 -2.249843 0.000000000000000e+00 1851878480
4.288430 -2.245662 -2.262491 0.000000000000000e+00 1851878480
4.147029 -2.421311 -2.245592 0.000000000000000e+00 1851878480
4.500105 -1.612538 -2.256453 0.000000000000000e+00 1851878480
4.410047 -1.813629 -2.264597 0.000000000000000e+00 1851878480
4.210310 -2.205586 -2.272901 0.000000000000000e+00 1851878480
4.058449 -2.371309 -2.249582 0.000000000000000e+00 1851878480
4.380309 -1.568145 -2.244572 0.000000000000000e+00 1851878480
4.264941 -1.753199 -2.238770 0.000000000000000e+00 1851878480
4.062852 -2.129151 -2.243546 0.000000000000000e+00 1851878480
3.953868 -2.311891 -2.242685 0.000000000000000e+00 1851878480
4.323212 -1.546249 -2.263256 0.000000000000000e+00 1851878480
4.202083 -1.726610 -2.254139 0.000000000000000e+00 1851878480
4.031548 -2.113560 -2.276561 0.000000000000000e+00 1851878480
3.850996 -2.253401 -2.234533 0.000000000000000e+00 1851878480
4.179714 -1.493503 -2.234862 0.000000000000000e+00 1851878480
4.122145 -1.693023 -2.259103 0.000000000000000e+00 1851878480
3.905604 -2.048327 -2.254612 0.000000000000000e+00 1851878480
3.771682 -2.208631 -2.238136 0.000000000000000e+00 1851878480
4.144561 -1.479524 -2.262791 0.000000000000000e+00 1851878480
4.029903 -1.654408 -2.255731 0.000000000000000e+00 1851878480
3.858890 -2.024622 -2.276677 0.000000000000000e+00 1851878480
3.730266 -2.186020 -2.263110 0.000000000000000e+00 1851878480
4.018826 -1.433252 -2.239841 0.000000000000000e+00 1851878480
3.916065 -1.606958 -2.238262 0.000000000000000e+00 1851878480
3.767900 -1.977663 -2.271322 0.000000000000000e+00 1851878480
3.621230 -2.123731 -2.245532 0.000000000000000e+00 1851878480
4.006692 -1.427531 -2.279036 0.000000000000000e+00 1634890835
3.862474 -1.584254 -2.253664 0.000000000000000e+00 1851878480
3.686169 -1.935538 -2.269789 0.000000000000000e+00 1851878480
3.563441 -2.091439 -2.257972 0.000000000000000e+00 1851878480
3.925288 -1.397149 -2.278160 0.000000000000000e+00 1634890835
3.811016 -1.562439 -2.269477 0.000000000000000e+00 1851878480
3.585039 -1.883192 -2.254401 0.000000000000000e+00 1851878480
3.461285 -2.033051 -2.240613 0.000000000000000e+00 1851878480
3.864631 -1.374191 -2.288090 0.000000000000000e+00 1634890835
3.686219 -1.510582 -2.239913 0.000000000000000e+00 1851878480
3.478070 -1.827745 -2.233076 0.000000000000000e+00 1851878480
3.388649 -1.991941 -2.240453 0.000000000000000e+00 1851878480
3.765207 -1.337494 -2.273607 0.000000000000000e+00 1634890835
3.675786 -1.505612 -2.278630 0.000000000000000e+00 1851878480
3.443682 -1.810420 -2.256952 0.000000000000000e+00 1851878480
3.310202 -1.947361 -2.234848 0.000000000000000e+00 1851878480
3.670347 -1.302474 -2.260002 0.000000000000000e+00 1634890835
3.572559 -1.462646 -2.258859 0.000000000000000e+00 1851878480
3.375182 -1.775145 -2.257570 0.000000000000000e+00 1851878480
3.266121 -1.922962 -2.251229 0.000000000000000e+00 1851878480
3.665004 -1.299246 -2.300749 0.000000000000000e+00 1634890835
3.497058 -1.431057 -2.254840 0.000000000000000e+00 1851878480
3.326646 -1.750351 -2.270443 0.000000000000000e+00 1851878480
3.217121 -1.895636 -2.263408 0.000000000000000e+00 1851878480
3.584843 -1.269512 -2.293927 0.000000000000000e+00 1634890835
3.470482 -1.419506 -2.281535 0.000000000000000e+00 1634890835
3.241475 -1.706260 -2.256971 0.000000000000000e+00 1851878480
3.184987 -1.878229 -2.286808 0.000000000000000e+00 1851878480
3.524547 -1.246851 -2.298543 0.000000000000000e+00 1634890835
3.439260 -1.406055 -2.304895 0.000000000000000e+00 1634890835
3.167505 -1.668037 -2.249591 0.000000000000000e+00 1851878480
3.082766 -1.819444 -2.258458 0.000000000000000e+00 1851878480
3.410949 -1.205389 -2.266698 0.000000000000000e+00 1634890835
3.343775 -1.366353 -2.284026 0.000000000000000e+00 1634890835
3.124707 -1.646212 -2.263217 0.000000000000000e+00 1851878480
2.985679 -1.763610 -2.231469 0.000000000000000e+00 1851878480
3.354628 -1.184217 -2.271248 0.000000000000000e+00 1634890835
3.268084 -1.334767 -2.274927 0.000000000000000e+00 1634890835
3.043609 -1.604190 -2.247853 0.000000000000000e+00 1851878480
2.964856 -1.752784 -2.260262 0.000000000000000e+00 1851878480
3.333968 -1.175647 -2.299426 0.000000000000000e+00 1634890835
3.241353 -1.323188 -2.299041 0.000000000000000e+00 1634890835
2.992342 -1.577867 -2.253138 0.000000000000000e+00 1851878480
2.945762 -1.742979 -2.290316 0.000000000000000e+00 1851878480
3.259948 -1.148288 -2.290055 0.000000000000000e+00 1634890835
3.206575 -1.308331 -2.317111 0.000000000000000e+00 1634890835
2.968845 -1.566179 -2.278769 0.000000000000000e+00 1851878480
2.848115 -1.686654 -2.258063 0.000000000000000e+00 1851878480
3.179757 -1.118800 -2.274829 0.000000000000000e+00 1634890835
3.111649 -1.268952 -2.290465 0.000000000000000e+00 1634890835
2.853735 -1.506136 -2.232568 0.000000000000000e+00 1851878480
2.794859 -1.656561 -2.259236 0.000000000000000e+00 1851878480
3.145413 -1.105474 -2.291382 0.000000000000000e+00 1634890835
3.081729 -1.256103 -2.310471 0.000000000000000e+00 1634890835
2.837197 -1.498098 -2.262061 0.000000000000000e+00 1851878480
2.706215 -1.605435 -2.230141 0.000000000000000e+00 1851878480
3.102422 -1.089127 -2.301094 0.000000000000000e+00 1634890835
2.976651 -1.212638 -2.272771 0.000000000000000e+00 1634890835
2.795745 -1.476895 -2.271357 0.000000000000000e+00 1851878480
0.830039 -0.492853 -0.697247 0.000000000000000e+00 1886740808
3.031545 -1.063021 -2.289089 0.000000000000000e+00 1634890835
2.971910 -1.210066 -2.310665 0.000000000000000e+00 1634890835
2.715506 -1.435184 -2.247830 0.000000000000000e+00 1851878480
0.887241 -0.527295 -0.759626 0.000000000000000e+00 1886740808
2.926798 -1.025097 -2.249628 0.000000000000000e+00 1634890835
2.874828 -1.169912 -2.275837 0.000000000000000e+00 1634890835
0.870919 -0.460513 -0.734464 0.000000000000000e+00 1886740808
0.828564 -0.492875 -0.722952 0.000000000000000e+00 1886740808
2.908928 -1.017636 -2.275764 0.000000000000000e+00 1634890835
2.833186 -1.152338 -2.283440 0.000000000000000e+00 1634890835
0.828199 -0.438135 -0.711485 0.000000000000000e+00 1886740808
0.800310 -0.476510 -0.711583 0.000000000000000e+00 1886740808
2.883576 -1.007561 -2.295944 0.000000000000000e+00 1634890835
2.792915 -1.135334 -2.291486 0.000000000000000e+00 1634890835
0.837170 -0.443098 -0.732560 0.000000000000000e+00 1886740808
0.793533 -0.472920 -0.718916 0.000000000000000e+00 1886740808
2.830557 -0.987838 -2.293506 0.000000000000000e+00 1634890835
2.762736 -1.122441 -2.307316 0.000000000000000e+00 1634890835
0.818198 -0.433272 -0.729208 0.000000000000000e+00 1886740808
0.768977 -0.458724 -0.709801 0.000000000000000e+00 1886740808
2.783665 -0.970279 -2.295134 0.000000000000000e+00 1634890835
0.827270 -0.335912 -0.703215 0.000000000000000e+00 1886740808
0.807518 -0.427831 -0.732952 0.000000000000000e+00 1886740808
0.726929 -0.434061 -0.683587 0.000000000000000e+00 1886740808
0.842407 -0.293265 -0.706712 0.000000000000000e+00 1886740808
0.826192 -0.335282 -0.714765 0.000000000000000e+00 1886740808
0.823983 -0.436777 -0.761624 0.000000000000000e+00 1886740808
0.783185 -0.468112 -0.750264 0.000000000000000e+00 1886740808
0.866441 -0.301251 -0.739537 0.000000000000000e+00 1886740808
0.827737 -0.335714 -0.728763 0.000000000000000e+00 1886740808
0.795548 -0.421923 -0.748791 0.000000000000000e+00 1886740808
0.738902 -0.442084 -0.721039 0.000000000000000e+00 1886740808
0.832224 -0.288984 -0.722658 0.000000000000000e+00 1886740808
0.801408 -0.324844 -0.718013 0.000000000000000e+00 1886740808
0.749481 -0.397699 -0.718291 0.000000000000000e+00 1886740808
0.739203 -0.442712 -0.734739 0.000000000000000e+00 1886740808
0.817834 -0.283617 -0.722444 0.000000000000000e+00 1886740808
0.792193 -0.320917 -0.722220 0.000000000000000e+00 1886740808
0.786014 -0.417307 -0.766998 0.000000000000000e+00 1886740808
0.789254 -0.473174 -0.799029 0.000000000000000e+00 1886740808
0.767631 -0.265856 -0.689786 0.000000000000000e+00 1886740808
0.785738 -0.318109 -0.728877 0.000000000000000e+00 1886740808
0.761947 -0.404749 -0.756993 0.000000000000000e+00 1886740808
0.727617 -0.436676 -0.750250 0.000000000000000e+00 1886740808
0.782659 -0.270698 -0.715379 0.000000000000000e+00 1886740808
0.764445 -0.309297 -0.721506 0.000000000000000e+00 1886740808
0.779613 -0.414361 -0.788557 0.000000000000000e+00 1886740808
0.767532 -0.461118 -0.806011 0.000000000000000e+00 1886740808
0.746248 -0.257753 -0.693793 0.000000000000000e+00 1886740808
0.751763 -0.303976 -0.721896 0.000000000000000e+00 1886740808
0.801556 -0.426261 -0.825390 0.000000000000000e+00 1886740808
0.746275 -0.448830 -0.798127 0.000000000000000e+00 1886740808
0.752531 -0.259563 -0.711603 0.000000000000000e+00 1886740808
0.737493 -0.298016 -0.720504 0.000000000000000e+00 1886740808
0.807539 -0.429686 -0.846540 0.000000000000000e+00 1886740808
2.140355 -1.288676 -2.331184 0.000000000000000e+00 1634890835
0.751564 -0.258865 -0.722822 0.000000000000000e+00 1886740808
0.781793 -0.315713 -0.777037 0.000000000000000e+00 1886740808
0.746846 -0.397621 -0.797010 0.000000000000000e+00 1886740808
2.090703 -1.260180 -2.318955 0.000000000000000e+00 1634890835
0.769809 -0.264771 -0.752989 0.000000000000000e+00 1886740808
0.794712 -0.320720 -0.803564 0.000000000000000e+00 1886740808
2.145153 -1.142748 -2.330410 0.000000000000000e+00 1634890835
2.050200 -1.237164 -2.315796 0.000000000000000e+00 1634890835
0.760185 -0.261081 -0.756231 0.000000000000000e+00 1886740808
0.790917 -0.318975 -0.813568 0.000000000000000e+00 1886740808
2.090973 -1.114550 -2.312378 0.000000000000000e+00 1634890835
0.807261 -0.487690 -0.928579 0.000000000000000e+00 1886740808
0.790697 -0.271159 -0.799959 0.000000000000000e+00 1886740808
0.763170 -0.307576 -0.798602 0.000000000000000e+00 1886740808
2.064381 -1.101042 -2.323986 0.000000000000000e+00 1634890835
0.824129 -0.498464 -0.965386 0.000000000000000e+00 1886740808
0.780163 -0.267144 -0.802711 0.000000000000000e+00 1886740808
0.745670 -0.300316 -0.793775 0.000000000000000e+00 1886740808
2.005852 -1.070484 -2.298666 0.000000000000000e+00 1634890835
0.785266 -0.475523 -0.936752 0.000000000000000e+00 1886740808
0.738398 -0.252457 -0.772640 0.000000000000000e+00 1886740808
2.132122 -0.858100 -2.308886 0.000000000000000e+00 1634890835
0.832997 -0.444834 -0.971754 0.000000000000000e+00 1886740808
0.765701 -0.464237 -0.930196 0.000000000000000e+00 1886740808
0.769491 -0.262678 -0.818844 0.000000000000000e+00 1886740808
2.100734 -0.844864 -2.314203 0.000000000000000e+00 1634890835
0.803638 -0.429429 -0.954362 0.000000000000000e+00 1886740808
0.769993 -0.467416 -0.952613 0.000000000000000e+00 1886740808
0.770520 -0.262612 -0.833859 0.000000000000000e+00 1886740808
2.045258 -0.821953 -2.292033 0.000000000000000e+00 1634890835
0.775073 -0.414435 -0.937006 0.000000000000000e+00 1886740808
1.833022 -1.114114 -2.309520 0.000000000000000e+00 1634890835
2.086766 -0.710071 -2.296661 0.000000000000000e+00 1634890835
2.030376 -0.815367 -2.314709 0.000000000000000e+00 1634890835
0.815744 -0.436471 -1.003946 0.000000000000000e+00 1886740808
1.801007 -1.096057 -2.311034 0.000000000000000e+00 1634890835
2.053421 -0.697574 -2.298370 0.000000000000000e+00 1634890835
1.975708 -0.792813 -2.291378 0.000000000000000e+00 1634890835
0.800778 -0.428752 -1.003314 0.000000000000000e+00 1886740808
0.752986 -0.458850 -0.984077 0.000000000000000e+00 1886740808
1.988586 -0.674414 -2.263664 0.000000000000000e+00 1634890835
1.966380 -0.788462 -2.320089 0.000000000000000e+00 1634890835
0.810115 -0.434050 -1.033368 0.000000000000000e+00 1886740808
1.741955 -1.062916 -2.318723 0.000000000000000e+00 1634890835
2.001114 -0.677501 -2.316725 0.000000000000000e+00 1634890835
0.817906 -0.327700 -0.981783 0.000000000000000e+00 1886740808
1.780127 -0.954442 -2.311849 0.000000000000000e+00 1634890835
1.685797 -1.030046 -2.285636 0.000000000000000e+00 1634890835
1.922087 -0.649609 -2.263192 0.000000000000000e+00 1634890835
0.792338 -0.317201 -0.967632 0.000000000000000e+00 1886740808
0.777342 -0.417082 -1.027875 0.000000000000000e+00 1886740808
1.657109 -1.013920 -2.288579 0.000000000000000e+00 1634890835
1.904242 -0.642432 -2.280499 0.000000000000000e+00 1634890835
0.810154 -0.324068 -1.006634 0.000000000000000e+00 1886740808
1.727784 -0.927716 -2.326262 0.000000000000000e+00 1634890835
1.629636 -0.998521 -2.292683 0.000000000000000e+00 1634890835
0.790716 -0.266278 -0.963171 0.000000000000000e+00 1886740808
0.754479 -0.301546 -0.953835 0.000000000000000e+00 1886740808
1.687415 -0.906717 -2.313436 0.000000000000000e+00 1634890835
1.618549 -0.993159 -2.319778 0.000000000000000e+00 1634890835
0.793602 -0.266753 -0.983281 0.000000000000000e+00 1886740808
0.770203 -0.307568 -0.990773 0.000000000000000e+00 1886740808
1.649612 -0.887079 -2.303091 0.000000000000000e+00 1634890835
1.561011 -0.959267 -2.279425 0.000000000000000e+00 1634890835
0.754190 -0.253024 -0.950536 0.000000000000000e+00 1886740808
0.792604 -0.316238 -1.037506 0.000000000000000e+00 1886740808
1.638061 -0.881553 -2.329071 0.000000000000000e+00 1634890835
1.572106 -0.967540 -2.339021 0.000000000000000e+00 1634890835
0.784423 -0.262657 -1.005710 0.000000000000000e+00 1886740808
1.736231 -0.692117 -2.312773 0.000000000000000e+00 1634890835
1.612167 -0.868307 -2.334635 0.000000000000000e+00 1634890835
1.511982 -0.931971 -2.292287 0.000000000000000e+00 1634890835
0.770092 -0.257347 -1.004439 0.000000000000000e+00 1886740808
1.691870 -0.673821 -2.293565 0.000000000000000e+00 1634890835
1.567475 -0.844923 -2.312071 0.000000000000000e+00 1634890835
1.501730 -0.927111 -2.320197 0.000000000000000e+00 1634890835
0.779623 -0.260003 -1.034550 0.000000000000000e+00 1886740808
0.774786 -0.308288 -1.068993 0.000000000000000e+00 1886740808
1.523291 -0.821788 -2.288829 0.000000000000000e+00 1634890835
1.438879 -0.889740 -2.265743 0.000000000000000e+00 1634890835
1.700723 -0.566010 -2.296232 0.000000000000000e+00 1634890835
1.620945 -0.644361 -2.276369 0.000000000000000e+00 1634890835
1.531683 -0.827018 -2.344611 0.000000000000000e+00 1634890835
1.446486 -0.895920 -2.321673 0.000000000000000e+00 1634890835
0.756278 -0.251159 -1.038987 0.000000000000000e+00 1886740808
1.576098 -0.625924 -2.253069 0.000000000000000e+00 1634890835
1.494066 -0.807412 -2.330169 0.000000000000000e+00 1634890835
1.406843 -0.872840 -2.301881 0.000000000000000e+00 1634890835
1.634544 -0.541649 -2.285104 0.000000000000000e+00 1634890835
1.572198 -0.623752 -2.287983 0.000000000000000e+00 1634890835
1.480096 -0.800575 -2.352178 0.000000000000000e+00 1634890835
1.385224 -0.860913 -2.310788 0.000000000000000e+00 1634890835
1.602677 -0.529905 -2.280200 0.000000000000000e+00 1634890835
1.548076 -0.613556 -2.293683 0.000000000000000e+00 1634890835
1.466598 -0.793998 -2.375224 0.000000000000000e+00 1634890835
1.322006 -0.823080 -2.248710 0.000000000000000e+00 1634890835
1.580991 -0.521541 -2.289354 0.000000000000000e+00 1634890835
1.521179 -0.602265 -2.294881 0.000000000000000e+00 1634890835
1.427422 -0.773512 -2.356204 0.000000000000000e+00 1634890835
1.320550 -0.823669 -2.290734 0.000000000000000e+00 1634890835
1.553233 -0.511182 -2.289382 0.000000000000000e+00 1634890835
1.503891 -0.594782 -2.310367 0.000000000000000e+00 1634890835
1.361921 -0.738727 -2.291589 0.000000000000000e+00 1634890835
1.305629 -0.815880 -2.310057 0.000000000000000e+00 1634890835
1.512807 -0.496679 -2.269906 0.000000000000000e+00 1634890835
1.466110 -0.579201 -2.293850 0.000000000000000e+00 1634890835
1.360308 -0.738578 -2.333492 0.000000000000000e+00 1634890835
1.276113 -0.798963 -2.303261 0.000000000000000e+00 1634890835
1.510618 -0.494735 -2.307644 0.000000000000000e+00 1634890835
1.440810 -0.568564 -2.296103 0.000000000000000e+00 1634890835
1.326669 -0.721042 -2.320492 0.000000000000000e+00 1634890835
1.230135 -0.771691 -2.265318 0.000000000000000e+00 1634890835
1.477872 -0.482783 -2.298748 0.000000000000000e+00 1634890835
1.405927 -0.554157 -2.282385 0.000000000000000e+00 1634890835
1.286405 -0.699884 -2.294624 0.000000000000000e+00 1634890835
1.233270 -0.775220 -2.317569 0.000000000000000e+00 1634890835
1.435852 -0.467834 -2.274350 0.000000000000000e+00 1634890835
1.377768 -0.542412 -2.278779 0.000000000000000e+00 1634890835
1.272223 -0.692906 -2.314646 0.000000000000000e+00 1634890835
1.158029 -0.729434 -2.221116 0.000000000000000e+00 1634890835
1.422323 -0.462183 -2.294538 0.000000000000000e+00 1634890835
1.381665 -0.543279 -2.328575 0.000000000000000e+00 1634890835
1.249973 -0.681534 -2.319987 0.000000000000000e+00 1634890835
1.190452 -0.751456 -2.330908 0.000000000000000e+00 1634890835
1.423533 -0.461302 -2.339231 0.000000000000000e+00 1634890835
1.344192 -0.527880 -2.308742 0.000000000000000e+00 1634890835
1.214800 -0.663105 -2.300554 0.000000000000000e+00 1634890835
1.144477 -0.724024 -2.288080 0.000000000000000e+00 1634890835
1.356798 -0.438428 -2.271391 0.000000000000000e+00 1634890835
1.331257 -0.522122 -2.330616 0.000000000000000e+00 1634890835
1.203643 -0.657776 -2.326226 0.000000000000000e+00 1634890835
1.134932 -0.719609 -2.317276 0.000000000000000e+00 1634890835
1.351470 -0.435429 -2.305260 0.000000000000000e+00 1634890835
1.278510 -0.500767 -2.281817 0.000000000000000e+00 1634890835
1.191702 -0.652030 -2.350914 0.000000000000000e+00 1634890835
1.101280 -0.699897 -2.296929 0.000000000000000e+00 1634890835
1.317655 -0.423255 -2.290453 0.000000000000000e+00 1634890835
1.272093 -0.497569 -2.314937 0.000000000000000e+00 1634890835
1.137559 -0.623171 -2.291135 0.000000000000000e+00 1634890835
1.084454 -0.690859 -2.311036 0.000000000000000e+00 1634890835
1.287676 -0.412341 -2.281420 0.000000000000000e+00 1634890835
1.228893 -0.479991 -2.280645 0.000000000000000e+00 1634890835
1.136563 -0.623416 -2.337631 0.000000000000000e+00 1634890835
1.045796 -0.667881 -2.277703 0.000000000000000e+00 1634890835
1.278407 -0.408059 -2.308996 0.000000000000000e+00 1634890835
1.221683 -0.476479 -2.312648 0.000000000000000e+00 1634890835
1.084890 -0.595853 -2.279170 0.000000000000000e+00 1634890835
1.027841 -0.658091 -2.288471 0.000000000000000e+00 1634890835
1.238332 -0.393961 -2.280487 0.000000000000000e+00 1634890835
1.187526 -0.462460 -2.293456 0.000000000000000e+00 1634890835
1.078059 -0.592902 -2.313928 0.000000000000000e+00 1634890835
1.030953 -0.661827 -2.347193 0.000000000000000e+00 1634890835
1.226074 -0.388726 -2.302648 0.000000000000000e+00 1634890835
1.163637 -0.452452 -2.293261 0.000000000000000e+00 1634890835
1.050807 -0.578721 -2.304945 0.000000000000000e+00 1634890835
1.001860 -0.644905 -2.333104 0.000000000000000e+00 1634890835
1.184438 -0.374197 -2.268991 0.000000000000000e+00 1634890835
1.144299 -0.444217 -2.301769 0.000000000000000e+00 1634890835
1.026636 -0.566224 -2.301992 0.000000000000000e+00 1634890835
0.949695 -0.613051 -2.262885 0.000000000000000e+00 1634890835
1.197864 -0.377054 -2.341158 0.000000000000000e+00 1634890835
1.119321 -0.433799 -2.298613 0.000000000000000e+00 1634890835
1.010181 -0.557981 -2.316126 0.000000000000000e+00 1634890835
0.925174 -0.598965 -2.256284 0.000000000000000e+00 1634890835
1.135763 -0.356151 -2.265226 0.000000000000000e+00 1634890835
1.095836 -0.423966 -2.298016 0.000000000000000e+00 1634890835
0.973753 -0.538690 -2.283599 0.000000000000000e+00 1634890835
0.941914 -0.611647 -2.351913 0.000000000000000e+00 1634890835
1.114877 -0.348229 -2.269622 0.000000000000000e+00 1634890835
1.053017 -0.406673 -2.255547 0.000000000000000e+00 1634890835
0.980891 -0.543508 -2.353629 0.000000000000000e+00 1634890835
0.920516 -0.599625 -2.354166 0.000000000000000e+00 1634890835
1.093254 -0.340084 -2.272263 0.000000000000000e+00 1634890835
1.072271 -0.413344 -2.346653 0.000000000000000e+00 1634890835
0.941092 -0.522321 -2.311228 0.000000000000000e+00 1634890835
0.871185 -0.569336 -2.282845 0.000000000000000e+00 1634890835
1.067981 -0.330818 -2.266861 0.000000000000000e+00 1634890835
1.029840 -0.396226 -2.303382 0.000000000000000e+00 1634890835
0.906655 -0.504075 -2.279816 0.000000000000000e+00 1634890835
0.843802 -0.553303 -2.266419 0.000000000000000e+00 1634890835
1.063463 -0.327971 -2.305824 0.000000000000000e+00 1634890835
1.014691 -0.389622 -2.320132 0.000000000000000e+00 1634890835
0.903159 -0.503029 -2.326112 0.000000000000000e+00 1634890835
0.836286 -0.550299 -2.303403 0.000000000000000e+00 1634890835
1.035436 -0.317868 -2.293999 0.000000000000000e+00 1634890835
0.994036 -0.380901 -2.324346 0.000000000000000e+00 1634890835
0.883526 -0.493008 -2.331658 0.000000000000000e+00 1634890835
0.447539 -0.295568 -1.264602 0.000000000000000e+00 1936876886
1.017504 -0.310878 -2.304111 0.000000000000000e+00 1634890835
0.958421 -0.366464 -2.292553 0.000000000000000e+00 1634890835
0.852698 -0.476727 -2.306748 0.000000000000000e+00 1634890835
0.445787 -0.295530 -1.292893 0.000000000000000e+00 1936876886
1.003183 -0.304984 -2.322638 0.000000000000000e+00 1634890835
0.954905 -0.364302 -2.337431 0.000000000000000e+00 1634890835
0.828559 -0.464164 -2.298669 0.000000000000000e+00 1634890835
0.421703 -0.280671 -1.255938 0.000000000000000e+00 1936876886
0.982237 -0.297072 -2.325925 0.000000000000000e+00 1634890835
0.923012 -0.351312 -2.312922 0.000000000000000e+00 1634890835
0.457411 -0.256783 -1.301992 0.000000000000000e+00 1936876886
0.338146 -0.225988 -1.034708 0.000000000000000e+00 1953264973
0.956590 -0.287755 -2.317581 0.000000000000000e+00 1634890835
0.903674 -0.343115 -2.319038 0.000000000000000e+00 1634890835
0.452170 -0.254396 -1.321179 0.000000000000000e+00 1936876886
0.305639 -0.205145 -0.961424 0.000000000000000e+00 1953264973
0.482183 -0.144229 -1.195663 0.000000000000000e+00 1936876886
0.867298 -0.328467 -2.280255 0.000000000000000e+00 1634890835
0.374165 -0.210991 -1.122806 0.000000000000000e+00 1953264973
0.284756 -0.191990 -0.921351 0.000000000000000e+00 1953264973
0.479975 -0.142720 -1.218626 0.000000000000000e+00 1936876886
0.848806 -0.320608 -2.287325 0.000000000000000e+00 1634890835
0.351511 -0.198691 -1.083921 0.000000000000000e+00 1953264973
0.270131 -0.182990 -0.899585 0.000000000000000e+00 1953264973
0.492092 -0.145419 -1.279763 0.000000000000000e+00 1936876886
0.829700 -0.312520 -2.292667 0.000000000000000e+00 1634890835
0.311732 -0.176648 -0.988340 0.000000000000000e+00 1953264973
0.240603 -0.163795 -0.825223 0.000000000000000e+00 1953264973
