# .PCD v0.7 - Point Cloud Data file format
VERSION 0.7
FIELDS x y z rgb label
SIZE 4 4 4 4 4
TYPE F F F F U
COUNT 1 1 1 1 1
WIDTH 535
HEIGHT 1
VIEWPOINT 0 0 0 1 0 0 0
POINTS 535
DATA ascii
36.948399 -18.870861 10.308671 0.000000000000000e+00 1954047316
36.108303 -20.125612 9.854866 0.000000000000000e+00 1954047316
35.382774 -13.154765 -2.248018 0.000000000000000e+00 1851878480
29.346405 -10.902263 -2.131101 0.000000000000000e+00 1851878480
29.020792 -12.135025 -2.040859 0.000000000000000e+00 1851878480
27.355017 -14.120808 -1.752267 0.000000000000000e+00 1851878480
26.346577 -14.967487 -1.580464 0.000000000000000e+00 1851878480
26.659540 -9.896560 -2.178395 0.000000000000000e+00 1851878480
26.238670 -10.967822 -2.091087 0.000000000000000e+00 1851878480
24.944525 -12.880488 -1.847129 0.000000000000000e+00 1851878480
24.300005 -13.812967 -1.708993 0.000000000000000e+00 1851878480
24.102598 -8.940573 -2.188858 0.000000000000000e+00 1851878480
24.243151 -10.130131 -2.159494 0.000000000000000e+00 1851878480
23.152603 -11.958899 -1.946110 0.000000000000000e+00 1851878480
22.732300 -12.929480 -1.834166 0.000000000000000e+00 1851878480
22.072992 -8.181477 -2.205697 0.000000000000000e+00 1851878480
22.185314 -9.267001 -2.184586 0.000000000000000e+00 1851878480
21.781780 -11.254338 -2.049162 0.000000000000000e+00 1851878480
21.542944 -12.260259 -1.961668 0.000000000000000e+00 1851878480
20.420721 -7.563286 -2.226934 0.000000000000000e+00 1851878480
20.491560 -8.556485 -2.210562 0.000000000000000e+00 1851878480
20.623705 -10.659280 -2.147220 0.000000000000000e+00 1851878480
20.340088 -11.582575 -2.063494 0.000000000000000e+00 1851878480
18.930756 -7.006086 -2.237458 0.000000000000000e+00 1851878480
19.024578 -7.941130 -2.231551 0.000000000000000e+00 1851878480
19.375986 -10.017526 -2.212149 0.000000000000000e+00 1851878480
19.141394 -10.906450 -2.141176 0.000000000000000e+00 1851878480
17.577667 -6.500337 -2.238438 0.000000000000000e+00 1851878480
17.637138 -7.359389 -2.235266 0.000000000000000e+00 1851878480
17.893108 -9.253753 -2.223127 0.000000000000000e+00 1851878480
17.979361 -10.250443 -2.198771 0.000000000000000e+00 1851878480
16.396889 -6.059025 -2.238437 0.000000000000000e+00 1851878480
16.435160 -6.855420 -2.238342 0.000000000000000e+00 1851878480
16.575062 -8.574784 -2.226719 0.000000000000000e+00 1851878480
16.724472 -9.540690 -2.220190 0.000000000000000e+00 1851878480
15.362927 -5.672594 -2.238439 0.000000000000000e+00 1851878480
15.366798 -6.407506 -2.238438 0.000000000000000e+00 1851878480
15.438080 -7.989088 -2.230199 0.000000000000000e+00 1851878480
15.504372 -8.849956 -2.220733 0.000000000000000e+00 1851878480
14.449850 -5.331330 -2.238438 0.000000000000000e+00 1851878480
14.426393 -6.013244 -2.238439 0.000000000000000e+00 1851878480
14.431640 -7.470610 -2.231200 0.000000000000000e+00 1851878480
14.453203 -8.254889 -2.222057 0.000000000000000e+00 1851878480
13.637510 -5.027730 -2.238439 0.000000000000000e+00 1851878480
13.592609 -5.663690 -2.238439 0.000000000000000e+00 1851878480
13.573892 -7.028809 -2.236639 0.000000000000000e+00 1851878480
13.563658 -7.751482 -2.228224 0.000000000000000e+00 1851878480
12.910005 -4.755835 -2.238439 0.000000000000000e+00 1851878480
12.848190 -5.351592 -2.238439 0.000000000000000e+00 1851878480
12.793031 -6.626556 -2.238438 0.000000000000000e+00 1851878480
12.773582 -7.304359 -2.233425 0.000000000000000e+00 1851878480
12.254601 -4.510883 -2.238437 0.000000000000000e+00 1851878480
12.179386 -5.071206 -2.238437 0.000000000000000e+00 1851878480
12.086507 -6.262574 -2.238438 0.000000000000000e+00 1851878480
12.070437 -6.906455 -2.238438 0.000000000000000e+00 1851878480
11.661039 -4.289051 -2.238438 0.000000000000000e+00 1851878480
11.575182 -4.817895 -2.238437 0.000000000000000e+00 1851878480
11.452118 -5.935751 -2.238438 0.000000000000000e+00 1851878480
11.415785 -6.535826 -2.238438 0.000000000000000e+00 1851878480
11.120868 -4.087169 -2.238438 0.000000000000000e+00 1851878480
11.026557 -4.587884 -2.238437 0.000000000000000e+00 1851878480
10.879250 -5.640619 -2.238438 0.000000000000000e+00 1851878480
10.826599 -6.202271 -2.238438 0.000000000000000e+00 1851878480
10.627126 -3.902643 -2.238438 0.000000000000000e+00 1851878480
10.526109 -4.378075 -2.238437 0.000000000000000e+00 1851878480
10.359293 -5.372749 -2.238438 0.000000000000000e+00 1851878480
10.293445 -5.900438 -2.238437 0.000000000000000e+00 1851878480
10.173990 -3.733297 -2.238437 0.000000000000000e+00 1851878480
10.067679 -4.185881 -2.238438 0.000000000000000e+00 1851878480
9.885144 -5.128488 -2.238437 0.000000000000000e+00 1851878480
9.808609 -5.625962 -2.238436 0.000000000000000e+00 1851878480
9.756621 -3.577316 -2.238437 0.000000000000000e+00 1851878480
9.646151 -4.009161 -2.238437 0.000000000000000e+00 1851878480
9.450983 -4.904818 -2.238437 0.000000000000000e+00 1851878480
9.365768 -5.375261 -2.238437 0.000000000000000e+00 1851878480
9.370877 -3.433158 -2.238438 0.000000000000000e+00 1851878480
9.257170 -3.846084 -2.238437 0.000000000000000e+00 1851878480
9.051871 -4.699207 -2.238436 0.000000000000000e+00 1851878480
8.959612 -5.145330 -2.238437 0.000000000000000e+00 1851878480
9.013248 -3.299504 -2.238437 0.000000000000000e+00 1851878480
8.897067 -3.695113 -2.238438 0.000000000000000e+00 1851878480
8.683687 -4.509527 -2.238437 0.000000000000000e+00 1851878480
8.585714 -4.933658 -2.238438 0.000000000000000e+00 1851878480
8.680713 -3.175236 -2.238437 0.000000000000000e+00 1851878480
8.562679 -3.554926 -2.238437 0.000000000000000e+00 1851878480
8.342906 -4.333968 -2.238437 0.000000000000000e+00 1851878480
8.240315 -4.738127 -2.238438 0.000000000000000e+00 1851878480
8.370683 -3.059377 -2.238438 0.000000000000000e+00 1851878480
8.251312 -3.424389 -2.238438 0.000000000000000e+00 1851878480
8.026537 -4.170988 -2.238437 0.000000000000000e+00 1851878480
7.920232 -4.556929 -2.238437 0.000000000000000e+00 1851878480
8.080900 -2.951082 -2.238438 0.000000000000000e+00 1851878480
7.960613 -3.302520 -2.238438 0.000000000000000e+00 1851878480
7.731998 -4.019246 -2.238437 0.000000000000000e+00 1851878480
4.354540 -2.506969 -1.278724 1.880790849211783e-38 1684957512
7.809418 -2.849625 -2.238438 0.000000000000000e+00 1851878480
7.688568 -3.188470 -2.238438 0.000000000000000e+00 1851878480
4.259906 -2.215117 -1.278724 1.880790849211783e-38 1684957512
4.196154 -2.417306 -1.278724 1.880790849211783e-38 1684957512
4.315569 -1.573453 -1.278724 1.880790849211783e-38 1684957512
4.246379 -1.760323 -1.278724 1.880790849211783e-38 1684957512
4.112950 -2.139410 -1.278724 1.880790849211783e-38 1684957512
4.048162 -2.333531 -1.278724 1.880790849211783e-38 1684957512
4.178562 -1.522254 -1.278724 1.880790849211783e-38 1684957512
4.109356 -1.702880 -1.278724 1.880790849211783e-38 1684957512
3.975127 -2.068408 -1.278724 1.880790849211783e-38 1684957512
3.909554 -2.255065 -1.278724 1.880790849211783e-38 1684957512
4.049398 -1.473989 -1.278724 1.880790849211783e-38 1684957512
3.980294 -1.648772 -1.278724 1.880790849211783e-38 1684957512
3.845587 -2.001673 -1.278724 1.880790849211783e-38 1684957512
3.779441 -2.181410 -1.278724 1.880790849211783e-38 1684957512
3.963595 -1.441564 -1.290503 1.880790849211783e-38 1684957512
3.858508 -1.597715 -1.278724 1.880790849211783e-38 1684957512
3.723594 -1.938827 -1.278724 1.880790849211783e-38 1684957512
3.657052 -2.112129 -1.278724 1.880790849211783e-38 1684957512
3.966891 -1.441564 -1.330678 1.880790849211783e-38 1684957512
3.743379 -1.549450 -1.278724 1.880790849211783e-38 1684957512
3.608486 -1.879530 -1.278724 1.880790849211783e-38 1684957512
3.541699 -2.046830 -1.278724 1.880790849211783e-38 1684957512
3.970205 -1.441564 -1.371125 1.880790849211783e-38 1684957512
3.634360 -1.503746 -1.278724 1.880790849211783e-38 1684957512
3.499681 -1.823477 -1.278724 1.880790849211783e-38 1684957512
3.432775 -1.985173 -1.278724 1.880790849211783e-38 1684957512
3.973541 -1.441564 -1.411856 1.880790849211783e-38 1684957512
3.530962 -1.460399 -1.278724 1.880790849211783e-38 1684957512
3.396658 -1.770404 -1.278724 1.880790849211783e-38 1684957512
3.329741 -1.926849 -1.278724 1.880790849211783e-38 1684957512
3.976902 -1.441564 -1.452879 1.880790849211783e-38 1684957512
3.486784 -1.441564 -1.298853 1.880790849211783e-38 1684957512
3.298953 -1.720070 -1.278724 1.880790849211783e-38 1684957512
3.232116 -1.871588 -1.278724 1.880790849211783e-38 1684957512
3.980284 -1.441564 -1.494202 1.880790849211783e-38 1684957512
3.488147 -1.441564 -1.335713 1.880790849211783e-38 1684957512
3.206152 -1.672264 -1.278724 1.880790849211783e-38 1684957512
3.139474 -1.819146 -1.278724 1.880790849211783e-38 1684957512
3.983689 -1.441564 -1.535834 1.880790849211783e-38 1684957512
3.489521 -1.441564 -1.372824 1.880790849211783e-38 1684957512
3.117882 -1.626790 -1.278724 1.880790849211783e-38 1684957512
3.051425 -1.769307 -1.278724 1.880790849211783e-38 1684957512
3.987122 -1.441564 -1.577788 1.880790849211783e-38 1684957512
3.490906 -1.441564 -1.410194 1.880790849211783e-38 1684957512
3.033804 -1.583478 -1.278724 1.880790849211783e-38 1684957512
2.967626 -1.721873 -1.278724 1.880790849211783e-38 1684957512
3.990579 -1.441564 -1.620070 1.880790849211783e-38 1684957512
3.492303 -1.441564 -1.447830 1.880790849211783e-38 1684957512
2.953617 -1.542169 -1.278724 1.880790849211783e-38 1684957512
2.887762 -1.676669 -1.278724 1.880790849211783e-38 1684957512
3.994059 -1.441564 -1.662693 1.880790849211783e-38 1684957512
3.493702 -1.441564 -1.485740 1.880790849211783e-38 1684957512
2.877041 -1.502722 -1.278724 1.880790849211783e-38 1684957512
2.811550 -1.633530 -1.278724 1.880790849211783e-38 1684957512
3.997571 -1.441564 -1.705666 1.880790849211783e-38 1684957512
3.495118 -1.441564 -1.523935 1.880790849211783e-38 1684957512
2.803830 -1.465007 -1.278724 1.880790849211783e-38 1684957512
2.738736 -1.592316 -1.278724 1.880790849211783e-38 1684957512
4.001109 -1.441564 -1.748999 1.880790849211783e-38 1684957512
3.496541 -1.441564 -1.562421 1.880790849211783e-38 1684957512
2.757967 -1.441564 -1.290048 1.880790849211783e-38 1684957512
2.669086 -1.552892 -1.278724 1.880790849211783e-38 1684957512
4.004674 -1.441564 -1.792703 1.880790849211783e-38 1684957512
3.497978 -1.441564 -1.601210 1.880790849211783e-38 1684957512
2.756968 -1.441564 -1.322053 1.880790849211783e-38 1684957512
2.602388 -1.515141 -1.278724 1.880790849211783e-38 1684957512
4.008265 -1.441564 -1.836789 1.880790849211783e-38 1684957512
3.499422 -1.441564 -1.640309 1.880790849211783e-38 1684957512
2.755958 -1.441564 -1.354278 1.880790849211783e-38 1684957512
2.538448 -1.478950 -1.278724 1.880790849211783e-38 1684957512
4.011900 -1.441564 -1.881275 1.880790849211783e-38 1684957512
3.500880 -1.441564 -1.679730 1.880790849211783e-38 1684957512
2.754941 -1.441564 -1.386735 1.880790849211783e-38 1684957512
2.477087 -1.444220 -1.278724 1.880790849211783e-38 1684957512
4.015556 -1.441564 -1.926162 1.880790849211783e-38 1684957512
3.502352 -1.441564 -1.719482 1.880790849211783e-38 1684957512
2.753915 -1.441564 -1.419428 1.880790849211783e-38 1684957512
2.470770 -1.441563 -1.306552 1.880790849211783e-38 1684957512
4.019249 -1.441564 -1.971470 1.880790849211783e-38 1684957512
3.503833 -1.441564 -1.759573 1.880790849211783e-38 1684957512
2.752883 -1.441564 -1.452367 1.880790849211783e-38 1684957512
2.468997 -1.441564 -1.336947 1.880790849211783e-38 1684957512
4.022967 -1.441564 -2.017205 1.880790849211783e-38 1684957512
3.505328 -1.441564 -1.800016 1.880790849211783e-38 1684957512
2.751845 -1.441564 -1.485561 1.880790849211783e-38 1684957512
2.467207 -1.441563 -1.367563 1.880790849211783e-38 1684957512
4.026730 -1.441564 -2.063390 1.880790849211783e-38 1684957512
3.506838 -1.441564 -1.840824 1.880790849211783e-38 1684957512
2.750796 -1.441564 -1.519016 1.880790849211783e-38 1684957512
2.465408 -1.441563 -1.398411 1.880790849211783e-38 1684957512
4.030519 -1.441564 -2.110027 1.880790849211783e-38 1684957512
3.508360 -1.441564 -1.882003 1.880790849211783e-38 1684957512
2.749737 -1.441564 -1.552740 1.880790849211783e-38 1684957512
2.463590 -1.441563 -1.429493 1.880790849211783e-38 1684957512
4.034358 -1.441564 -2.157141 1.880790849211783e-38 1684957512
3.509897 -1.441564 -1.923566 1.880790849211783e-38 1684957512
2.748670 -1.441564 -1.586742 1.880790849211783e-38 1684957512
2.461759 -1.441563 -1.460821 1.880790849211783e-38 1684957512
4.038222 -1.441564 -2.204734 1.880790849211783e-38 1684957512
3.511444 -1.441564 -1.965524 1.880790849211783e-38 1684957512
2.747593 -1.441564 -1.621032 1.880790849211783e-38 1684957512
2.459910 -1.441563 -1.492400 1.880790849211783e-38 1684957512
4.016308 -1.432354 -2.238438 0.000000000000000e+00 1851878480
3.513009 -1.441564 -2.007892 1.880790849211783e-38 1684957512
2.746507 -1.441563 -1.655618 1.880790849211783e-38 1684957512
2.458048 -1.441563 -1.524241 1.880790849211783e-38 1684957512
4.006146 -1.427336 -2.278726 0.000000000000000e+00 1634890835
3.514590 -1.441564 -2.050681 1.880790849211783e-38 1684957512
2.745410 -1.441563 -1.690509 1.880790849211783e-38 1684957512
2.456169 -1.441563 -1.556350 1.880790849211783e-38 1684957512
3.926262 -1.397496 -2.278726 0.000000000000000e+00 1634890835
3.516184 -1.441564 -2.093903 1.880790849211783e-38 1684957512
2.744310 -1.441564 -1.725720 1.880790849211783e-38 1684957512
2.454273 -1.441563 -1.588738 1.880790849211783e-38 1684957512
3.848817 -1.368568 -2.278726 0.000000000000000e+00 1634890835
3.517796 -1.441564 -2.137571 1.880790849211783e-38 1684957512
2.743193 -1.441564 -1.761252 1.880790849211783e-38 1684957512
2.452359 -1.441564 -1.621411 1.880790849211783e-38 1684957512
3.773685 -1.340506 -2.278727 0.000000000000000e+00 1634890835
3.519420 -1.441564 -2.181698 1.880790849211783e-38 1684957512
2.742064 -1.441563 -1.797119 1.880790849211783e-38 1684957512
2.450427 -1.441563 -1.654380 1.880790849211783e-38 1684957512
3.700757 -1.313266 -2.278727 0.000000000000000e+00 1634890835
3.521064 -1.441564 -2.226300 1.880790849211783e-38 1684957512
2.740925 -1.441563 -1.833332 1.880790849211783e-38 1684957512
2.448473 -1.441563 -1.687651 1.880790849211783e-38 1684957512
3.629923 -1.286810 -2.278727 0.000000000000000e+00 1634890835
3.471618 -1.420647 -2.238437 0.000000000000000e+00 1851878480
2.739777 -1.441563 -1.869904 1.880790849211783e-38 1684957512
2.446506 -1.441563 -1.721241 1.880790849211783e-38 1684957512
3.561090 -1.261100 -2.278727 0.000000000000000e+00 1634890835
3.466211 -1.417759 -2.278727 0.000000000000000e+00 1634890835
2.738616 -1.441563 -1.906841 1.880790849211783e-38 1684957512
2.444516 -1.441563 -1.755152 1.880790849211783e-38 1684957512
3.494162 -1.236102 -2.278727 0.000000000000000e+00 1634890835
3.400212 -1.390092 -2.278727 0.000000000000000e+00 1634890835
2.737445 -1.441563 -1.944159 1.880790849211783e-38 1684957512
2.442506 -1.441563 -1.789398 1.880790849211783e-38 1684957512
3.429050 -1.211785 -2.278727 0.000000000000000e+00 1634890835
3.336016 -1.363182 -2.278727 0.000000000000000e+00 1634890835
2.736260 -1.441563 -1.981866 1.880790849211783e-38 1684957512
2.440475 -1.441564 -1.823989 1.880790849211783e-38 1684957512
3.365674 -1.188117 -2.278727 0.000000000000000e+00 1634890835
3.273543 -1.336996 -2.278727 0.000000000000000e+00 1634890835
2.735061 -1.441563 -2.019975 1.880790849211783e-38 1684957512
2.438423 -1.441563 -1.858935 1.880790849211783e-38 1684957512
3.303956 -1.165064 -2.278727 0.000000000000000e+00 1634890835
3.212713 -1.311496 -2.278727 0.000000000000000e+00 1634890835
2.733850 -1.441563 -2.058501 1.880790849211783e-38 1684957512
2.436348 -1.441563 -1.894249 1.880790849211783e-38 1684957512
3.243822 -1.142608 -2.278727 0.000000000000000e+00 1634890835
3.153456 -1.286658 -2.278727 0.000000000000000e+00 1634890835
2.732624 -1.441563 -2.097454 1.880790849211783e-38 1684957512
2.434251 -1.441563 -1.929940 1.880790849211783e-38 1684957512
3.185205 -1.120717 -2.278726 0.000000000000000e+00 1634890835
3.095702 -1.262449 -2.278727 0.000000000000000e+00 1634890835
2.731386 -1.441563 -2.136850 1.880790849211783e-38 1684957512
2.432127 -1.441564 -1.966020 1.880790849211783e-38 1684957512
3.128041 -1.099368 -2.278727 0.000000000000000e+00 1634890835
3.039388 -1.238845 -2.278727 0.000000000000000e+00 1634890835
2.730129 -1.441563 -2.176697 1.880790849211783e-38 1684957512
2.429983 -1.441563 -2.002504 1.880790849211783e-38 1684957512
3.072265 -1.078540 -2.278727 0.000000000000000e+00 1634890835
2.984451 -1.215816 -2.278727 0.000000000000000e+00 1634890835
2.728863 -1.441563 -2.217019 1.880790849211783e-38 1684957512
0.840392 -0.499000 -0.705943 0.000000000000000e+00 1886740808
3.017821 -1.058209 -2.278727 0.000000000000000e+00 1634890835
2.930831 -1.193340 -2.278727 0.000000000000000e+00 1634890835
2.704158 -1.429187 -2.238437 0.000000000000000e+00 1851878480
0.824540 -0.490031 -0.705943 0.000000000000000e+00 1886740808
2.964656 -1.038356 -2.278727 0.000000000000000e+00 1634890835
2.878477 -1.171397 -2.278727 0.000000000000000e+00 1634890835
0.837099 -0.442630 -0.705943 0.000000000000000e+00 1886740808
0.809070 -0.481279 -0.705943 0.000000000000000e+00 1886740808
2.912716 -1.018961 -2.278727 0.000000000000000e+00 1634890835
2.827339 -1.149959 -2.278727 0.000000000000000e+00 1634890835
0.821748 -0.434723 -0.705943 0.000000000000000e+00 1886740808
0.793966 -0.472733 -0.705943 0.000000000000000e+00 1886740808
2.861952 -1.000006 -2.278727 0.000000000000000e+00 1634890835
2.777363 -1.129012 -2.278727 0.000000000000000e+00 1634890835
0.806751 -0.426998 -0.705943 0.000000000000000e+00 1886740808
0.779214 -0.464386 -0.705943 0.000000000000000e+00 1886740808
2.812317 -0.981473 -2.278727 0.000000000000000e+00 1634890835
2.728504 -1.108533 -2.278727 0.000000000000000e+00 1634890835
0.792094 -0.419448 -0.705943 0.000000000000000e+00 1886740808
0.764797 -0.456231 -0.705943 0.000000000000000e+00 1886740808
2.763767 -0.963343 -2.278727 0.000000000000000e+00 1634890835
0.830479 -0.337215 -0.705943 0.000000000000000e+00 1886740808
0.777762 -0.412066 -0.705943 0.000000000000000e+00 1886740808
0.750702 -0.448257 -0.705943 0.000000000000000e+00 1886740808
0.841490 -0.292946 -0.705943 0.000000000000000e+00 1886740808
0.815995 -0.331144 -0.705943 0.000000000000000e+00 1886740808
0.763743 -0.404845 -0.705943 0.000000000000000e+00 1886740808
0.744292 -0.444866 -0.713007 0.000000000000000e+00 1886740808
0.827083 -0.287567 -0.705943 0.000000000000000e+00 1886740808
0.801818 -0.325202 -0.705943 0.000000000000000e+00 1886740808
0.750025 -0.397779 -0.705943 0.000000000000000e+00 1886740808
0.744292 -0.445309 -0.726299 0.000000000000000e+00 1886740808
0.812975 -0.282300 -0.705943 0.000000000000000e+00 1886740808
0.787937 -0.319383 -0.705943 0.000000000000000e+00 1886740808
0.744292 -0.394946 -0.713318 0.000000000000000e+00 1886740808
0.744292 -0.445760 -0.739797 0.000000000000000e+00 1886740808
0.799155 -0.277140 -0.705943 0.000000000000000e+00 1886740808
0.774339 -0.313684 -0.705943 0.000000000000000e+00 1886740808
0.744292 -0.395157 -0.726286 0.000000000000000e+00 1886740808
0.744293 -0.446218 -0.753511 0.000000000000000e+00 1886740808
0.785611 -0.272084 -0.705943 0.000000000000000e+00 1886740808
0.761015 -0.308100 -0.705943 0.000000000000000e+00 1886740808
0.744292 -0.395371 -0.739454 0.000000000000000e+00 1886740808
0.744293 -0.446684 -0.767445 0.000000000000000e+00 1886740808
0.772336 -0.267127 -0.705943 0.000000000000000e+00 1886740808
0.747956 -0.302626 -0.705943 0.000000000000000e+00 1886740808
0.744292 -0.395588 -0.752831 0.000000000000000e+00 1886740808
0.744293 -0.447157 -0.781607 0.000000000000000e+00 1886740808
0.759317 -0.262267 -0.705943 0.000000000000000e+00 1886740808
0.744292 -0.300955 -0.714722 0.000000000000000e+00 1886740808
0.744292 -0.395809 -0.766423 0.000000000000000e+00 1886740808
0.744292 -0.447638 -0.796007 0.000000000000000e+00 1886740808
0.746546 -0.257499 -0.705943 0.000000000000000e+00 1886740808
0.744293 -0.300764 -0.727147 0.000000000000000e+00 1886740808
0.744292 -0.396033 -0.780239 0.000000000000000e+00 1886740808
2.092193 -1.259678 -2.278727 0.000000000000000e+00 1634890835
0.744292 -0.256361 -0.715829 0.000000000000000e+00 1886740808
0.744293 -0.300570 -0.739765 0.000000000000000e+00 1886740808
0.744293 -0.396262 -0.794285 0.000000000000000e+00 1886740808
2.054434 -1.238319 -2.278727 0.000000000000000e+00 1634890835
0.744292 -0.255995 -0.728030 0.000000000000000e+00 1886740808
0.744293 -0.300372 -0.752583 0.000000000000000e+00 1886740808
2.097579 -1.117405 -2.278727 0.000000000000000e+00 1634890835
2.017382 -1.217361 -2.278727 0.000000000000000e+00 1634890835
0.744293 -0.255623 -0.740422 0.000000000000000e+00 1886740808
0.744293 -0.300171 -0.765608 0.000000000000000e+00 1886740808
2.060544 -1.098330 -2.278727 0.000000000000000e+00 1634890835
0.796275 -0.481053 -0.915942 0.000000000000000e+00 1886740808
0.744293 -0.255245 -0.753011 0.000000000000000e+00 1886740808
0.744293 -0.299968 -0.778848 0.000000000000000e+00 1886740808
2.024177 -1.079599 -2.278727 0.000000000000000e+00 1634890835
0.784636 -0.474576 -0.919123 0.000000000000000e+00 1886740808
0.744293 -0.254862 -0.765803 0.000000000000000e+00 1886740808
0.744292 -0.299761 -0.792308 0.000000000000000e+00 1886740808
1.988453 -1.061199 -2.278727 0.000000000000000e+00 1634890835
0.775673 -0.469713 -0.925308 0.000000000000000e+00 1886740808
0.744293 -0.254472 -0.778808 0.000000000000000e+00 1886740808
2.104272 -0.846891 -2.278727 0.000000000000000e+00 1634890835
0.797389 -0.425818 -0.930214 0.000000000000000e+00 1886740808
0.768823 -0.466130 -0.933989 0.000000000000000e+00 1886740808
0.744293 -0.254076 -0.792029 0.000000000000000e+00 1886740808
2.068530 -0.831912 -2.278727 0.000000000000000e+00 1634890835
0.785518 -0.419747 -0.932844 0.000000000000000e+00 1886740808
0.764549 -0.464111 -0.945878 0.000000000000000e+00 1886740808
0.744292 -0.253673 -0.805476 0.000000000000000e+00 1886740808
2.033384 -0.817181 -2.278727 0.000000000000000e+00 1634890835
0.776431 -0.415161 -0.938648 0.000000000000000e+00 1886740808
1.808582 -1.099259 -2.278727 0.000000000000000e+00 1634890835
2.070472 -0.704526 -2.278727 0.000000000000000e+00 1634890835
1.998814 -0.802692 -2.278727 0.000000000000000e+00 1634890835
0.769417 -0.411684 -0.946931 0.000000000000000e+00 1886740808
1.775830 -1.080735 -2.278727 0.000000000000000e+00 1634890835
2.035872 -0.691612 -2.278727 0.000000000000000e+00 1634890835
1.964800 -0.788435 -2.278727 0.000000000000000e+00 1634890835
0.764805 -0.409492 -0.958243 0.000000000000000e+00 1886740808
0.749057 -0.456456 -0.978942 0.000000000000000e+00 1886740808
2.001818 -0.678901 -2.278727 0.000000000000000e+00 1634890835
1.931324 -0.774405 -2.278727 0.000000000000000e+00 1634890835
0.767168 -0.411040 -0.978585 0.000000000000000e+00 1886740808
1.711907 -1.044581 -2.278727 0.000000000000000e+00 1634890835
1.968293 -0.666389 -2.278727 0.000000000000000e+00 1634890835
0.797682 -0.319597 -0.957506 0.000000000000000e+00 1886740808
1.754623 -0.940768 -2.278727 0.000000000000000e+00 1634890835
1.680701 -1.026932 -2.278727 0.000000000000000e+00 1634890835
1.935280 -0.654068 -2.278727 0.000000000000000e+00 1634890835
0.785811 -0.314588 -0.959661 0.000000000000000e+00 1886740808
0.751063 -0.402982 -0.993126 0.000000000000000e+00 1886740808
1.649976 -1.009555 -2.278727 0.000000000000000e+00 1634890835
1.902762 -0.641932 -2.278727 0.000000000000000e+00 1634890835
0.776731 -0.310699 -0.965105 0.000000000000000e+00 1886740808
1.692478 -0.908759 -2.278727 0.000000000000000e+00 1634890835
1.619717 -0.992442 -2.278727 0.000000000000000e+00 1634890835
0.796758 -0.268312 -0.970530 0.000000000000000e+00 1886740808
0.769655 -0.307611 -0.973022 0.000000000000000e+00 1886740808
1.662098 -0.893113 -2.278727 0.000000000000000e+00 1634890835
1.589907 -0.975584 -2.278727 0.000000000000000e+00 1634890835
0.785168 -0.263918 -0.972832 0.000000000000000e+00 1886740808
0.764879 -0.305443 -0.983925 0.000000000000000e+00 1886740808
1.632161 -0.877695 -2.278727 0.000000000000000e+00 1634890835
1.560533 -0.958973 -2.278727 0.000000000000000e+00 1634890835
0.776222 -0.260416 -0.978303 0.000000000000000e+00 1886740808
0.765618 -0.305471 -1.002182 0.000000000000000e+00 1886740808
1.602653 -0.862498 -2.278727 0.000000000000000e+00 1634890835
1.531581 -0.942600 -2.278727 0.000000000000000e+00 1634890835
0.769282 -0.257587 -0.986297 0.000000000000000e+00 1886740808
1.710672 -0.681929 -2.278727 0.000000000000000e+00 1634890835
1.573560 -0.847513 -2.278727 0.000000000000000e+00 1634890835
1.503038 -0.926458 -2.278727 0.000000000000000e+00 1634890835
0.764662 -0.255532 -0.997356 0.000000000000000e+00 1886740808
1.680925 -0.669462 -2.278727 0.000000000000000e+00 1634890835
1.544869 -0.832737 -2.278727 0.000000000000000e+00 1634890835
1.474890 -0.910540 -2.278727 0.000000000000000e+00 1634890835
0.766224 -0.255534 -1.016770 0.000000000000000e+00 1886740808
0.744045 -0.296056 -1.026577 0.000000000000000e+00 1886740808
1.516568 -0.818161 -2.278727 0.000000000000000e+00 1634890835
1.447124 -0.894839 -2.278727 0.000000000000000e+00 1634890835
1.687758 -0.561696 -2.278727 0.000000000000000e+00 1634890835
1.622624 -0.645028 -2.278727 0.000000000000000e+00 1634890835
1.488642 -0.803779 -2.278727 0.000000000000000e+00 1634890835
1.419728 -0.879347 -2.278727 0.000000000000000e+00 1634890835
0.752069 -0.249761 -1.033205 0.000000000000000e+00 1886740808
1.594047 -0.633052 -2.278727 0.000000000000000e+00 1634890835
1.461082 -0.789587 -2.278727 0.000000000000000e+00 1634890835
1.392692 -0.864060 -2.278727 0.000000000000000e+00 1634890835
1.629982 -0.540137 -2.278727 0.000000000000000e+00 1634890835
1.565838 -0.621229 -2.278727 0.000000000000000e+00 1634890835
1.433877 -0.775575 -2.278727 0.000000000000000e+00 1634890835
1.366004 -0.848968 -2.278727 0.000000000000000e+00 1634890835
1.601642 -0.529563 -2.278727 0.000000000000000e+00 1634890835
1.537982 -0.609555 -2.278727 0.000000000000000e+00 1634890835
1.407015 -0.761741 -2.278727 0.000000000000000e+00 1634890835
1.339653 -0.834067 -2.278727 0.000000000000000e+00 1634890835
1.573652 -0.519120 -2.278727 0.000000000000000e+00 1634890835
1.510471 -0.598026 -2.278727 0.000000000000000e+00 1634890835
1.380485 -0.748077 -2.278727 0.000000000000000e+00 1634890835
1.313628 -0.819352 -2.278727 0.000000000000000e+00 1634890835
1.546004 -0.508803 -2.278727 0.000000000000000e+00 1634890835
1.483295 -0.586636 -2.278727 0.000000000000000e+00 1634890835
1.354277 -0.734580 -2.278727 0.000000000000000e+00 1634890835
1.287921 -0.804815 -2.278727 0.000000000000000e+00 1634890835
1.518686 -0.498610 -2.278727 0.000000000000000e+00 1634890835
1.456444 -0.575383 -2.278727 0.000000000000000e+00 1634890835
1.328382 -0.721244 -2.278727 0.000000000000000e+00 1634890835
1.262520 -0.790452 -2.278727 0.000000000000000e+00 1634890835
1.491688 -0.488535 -2.278727 0.000000000000000e+00 1634890835
1.429906 -0.564261 -2.278727 0.000000000000000e+00 1634890835
1.302791 -0.708064 -2.278727 0.000000000000000e+00 1634890835
1.237417 -0.776259 -2.278727 0.000000000000000e+00 1634890835
1.465000 -0.478579 -2.278727 0.000000000000000e+00 1634890835
1.403673 -0.553269 -2.278727 0.000000000000000e+00 1634890835
1.277493 -0.695036 -2.278727 0.000000000000000e+00 1634890835
1.212601 -0.762228 -2.278727 0.000000000000000e+00 1634890835
1.438616 -0.468734 -2.278727 0.000000000000000e+00 1634890835
1.377737 -0.542399 -2.278727 0.000000000000000e+00 1634890835
1.252480 -0.682154 -2.278727 0.000000000000000e+00 1634890835
1.188066 -0.748354 -2.278727 0.000000000000000e+00 1634890835
1.412522 -0.458998 -2.278727 0.000000000000000e+00 1634890835
1.352088 -0.531649 -2.278727 0.000000000000000e+00 1634890835
1.227744 -0.669414 -2.278727 0.000000000000000e+00 1634890835
1.163801 -0.734634 -2.278727 0.000000000000000e+00 1634890835
1.386713 -0.449370 -2.278727 0.000000000000000e+00 1634890835
1.326717 -0.521017 -2.278727 0.000000000000000e+00 1634890835
1.203275 -0.656813 -2.278727 0.000000000000000e+00 1634890835
1.139799 -0.721064 -2.278727 0.000000000000000e+00 1634890835
1.361180 -0.439844 -2.278727 0.000000000000000e+00 1634890835
1.301617 -0.510498 -2.278727 0.000000000000000e+00 1634890835
1.179066 -0.644345 -2.278727 0.000000000000000e+00 1634890835
1.116052 -0.707638 -2.278727 0.000000000000000e+00 1634890835
1.335915 -0.430417 -2.278727 0.000000000000000e+00 1634890835
1.276779 -0.500089 -2.278727 0.000000000000000e+00 1634890835
1.155110 -0.632009 -2.278727 0.000000000000000e+00 1634890835
1.092553 -0.694350 -2.278727 0.000000000000000e+00 1634890835
1.310909 -0.421088 -2.278727 0.000000000000000e+00 1634890835
1.252195 -0.489786 -2.278727 0.000000000000000e+00 1634890835
1.131398 -0.619797 -2.278727 0.000000000000000e+00 1634890835
1.069293 -0.681201 -2.278727 0.000000000000000e+00 1634890835
1.286156 -0.411854 -2.278727 0.000000000000000e+00 1634890835
1.227860 -0.479588 -2.278727 0.000000000000000e+00 1634890835
1.107924 -0.607707 -2.278727 0.000000000000000e+00 1634890835
1.046266 -0.668181 -2.278727 0.000000000000000e+00 1634890835
1.261648 -0.402710 -2.278727 0.000000000000000e+00 1634890835
1.203764 -0.469490 -2.278727 0.000000000000000e+00 1634890835
1.084680 -0.595737 -2.278727 0.000000000000000e+00 1634890835
1.023464 -0.655289 -2.278727 0.000000000000000e+00 1634890835
1.237376 -0.393657 -2.278727 0.000000000000000e+00 1634890835
1.179900 -0.459490 -2.278727 0.000000000000000e+00 1634890835
1.061658 -0.583882 -2.278727 0.000000000000000e+00 1634890835
1.000881 -0.642522 -2.278727 0.000000000000000e+00 1634890835
1.213337 -0.384688 -2.278727 0.000000000000000e+00 1634890835
1.156262 -0.449584 -2.278727 0.000000000000000e+00 1634890835
1.038854 -0.572138 -2.278727 0.000000000000000e+00 1634890835
0.978510 -0.629874 -2.278727 0.000000000000000e+00 1634890835
1.189520 -0.375803 -2.278727 0.000000000000000e+00 1634890835
1.132844 -0.439770 -2.278727 0.000000000000000e+00 1634890835
1.016261 -0.560501 -2.278727 0.000000000000000e+00 1634890835
0.956343 -0.617343 -2.278727 0.000000000000000e+00 1634890835
1.165920 -0.366999 -2.278727 0.000000000000000e+00 1634890835
1.109637 -0.430046 -2.278727 0.000000000000000e+00 1634890835
0.993869 -0.548971 -2.278727 0.000000000000000e+00 1634890835
0.934377 -0.604923 -2.278727 0.000000000000000e+00 1634890835
1.142533 -0.358274 -2.278727 0.000000000000000e+00 1634890835
1.086638 -0.420407 -2.278727 0.000000000000000e+00 1634890835
0.971676 -0.537541 -2.278727 0.000000000000000e+00 1634890835
0.912604 -0.592614 -2.278727 0.000000000000000e+00 1634890835
1.119349 -0.349626 -2.278727 0.000000000000000e+00 1634890835
1.063839 -0.410853 -2.278727 0.000000000000000e+00 1634890835
0.949675 -0.526211 -2.278727 0.000000000000000e+00 1634890835
0.891018 -0.580411 -2.278727 0.000000000000000e+00 1634890835
1.096364 -0.341051 -2.278727 0.000000000000000e+00 1634890835
1.041233 -0.401379 -2.278727 0.000000000000000e+00 1634890835
0.927858 -0.514976 -2.278727 0.000000000000000e+00 1634890835
0.869613 -0.568309 -2.278727 0.000000000000000e+00 1634890835
1.073571 -0.332549 -2.278727 0.000000000000000e+00 1634890835
1.018817 -0.391985 -2.278727 0.000000000000000e+00 1634890835
0.906222 -0.503834 -2.278727 0.000000000000000e+00 1634890835
0.848384 -0.556308 -2.278727 0.000000000000000e+00 1634890835
1.050966 -0.324117 -2.278727 0.000000000000000e+00 1634890835
0.996582 -0.382668 -2.278727 0.000000000000000e+00 1634890835
0.884761 -0.492782 -2.278727 0.000000000000000e+00 1634890835
0.827326 -0.544404 -2.278727 0.000000000000000e+00 1634890835
1.028543 -0.315752 -2.278727 0.000000000000000e+00 1634890835
0.974527 -0.373425 -2.278727 0.000000000000000e+00 1634890835
0.863469 -0.481816 -2.278727 0.000000000000000e+00 1634890835
0.451011 -0.297860 -1.274413 0.000000000000000e+00 1936876886
1.006294 -0.307453 -2.278727 0.000000000000000e+00 1634890835
0.952641 -0.364254 -2.278727 0.000000000000000e+00 1634890835
0.842340 -0.470936 -2.278727 0.000000000000000e+00 1634890835
0.433313 -0.287261 -1.256716 0.000000000000000e+00 1936876886
0.984217 -0.299218 -2.278727 0.000000000000000e+00 1634890835
0.930923 -0.355153 -2.278727 0.000000000000000e+00 1634890835
0.821371 -0.460137 -2.278727 0.000000000000000e+00 1634890835
0.421228 -0.280355 -1.254523 0.000000000000000e+00 1936876886
0.962305 -0.291044 -2.278727 0.000000000000000e+00 1634890835
0.909366 -0.346119 -2.278727 0.000000000000000e+00 1634890835
0.445942 -0.250344 -1.269344 0.000000000000000e+00 1936876886
0.335127 -0.223970 -1.025470 0.000000000000000e+00 1953264973
0.940553 -0.282931 -2.278727 0.000000000000000e+00 1634890835
0.887966 -0.337151 -2.278727 0.000000000000000e+00 1634890835
0.428905 -0.241307 -1.253204 0.000000000000000e+00 1936876886
0.306471 -0.205703 -0.964043 0.000000000000000e+00 1953264973
0.495093 -0.148090 -1.227674 0.000000000000000e+00 1936876886
0.866717 -0.328247 -2.278727 0.000000000000000e+00 1634890835
0.358554 -0.202188 -1.075959 0.000000000000000e+00 1953264973
0.281222 -0.189608 -0.909918 0.000000000000000e+00 1953264973
0.483538 -0.143780 -1.227673 0.000000000000000e+00 1936876886
0.845615 -0.319403 -2.278727 0.000000000000000e+00 1634890835
0.326694 -0.184663 -1.007392 0.000000000000000e+00 1953264973
0.258801 -0.175315 -0.861855 0.000000000000000e+00 1953264973
0.472063 -0.139500 -1.227673 0.000000000000000e+00 1936876886
0.824655 -0.310620 -2.278727 0.000000000000000e+00 1634890835
0.299053 -0.169463 -0.948141 0.000000000000000e+00 1953264973
0.238755 -0.162537 -0.818883 0.000000000000000e+00 1953264973
