# .PCD v0.7 - Point Cloud Data file format
VERSION 0.7
FIELDS x y z rgb label
SIZE 4 4 4 4 4
TYPE F F F F U
COUNT 1 1 1 1 1
WIDTH 540
HEIGHT 1
VIEWPOINT 0 0 0 1 0 0 0
POINTS 540
DATA ascii
35.003986 -13.023796 -1.906192 0.000000000000000e+00 1851878480
33.158154 -13.874753 -1.711239 0.000000000000000e+00 1851878480
30.751534 -15.864294 -1.356279 0.000000000000000e+00 1851878480
29.919178 -16.977045 -1.177114 0.000000000000000e+00 1851878480
31.265898 -11.624174 -1.986454 0.000000000000000e+00 1851878480
30.528898 -12.770087 -1.861110 0.000000000000000e+00 1851878480
29.068520 -15.000674 -1.571890 0.000000000000000e+00 1851878480
28.195957 -16.008673 -1.400198 0.000000000000000e+00 1851878480
29.076998 -10.802176 -2.111538 0.000000000000000e+00 1851878480
28.696308 -11.999341 -2.018039 0.000000000000000e+00 1851878480
27.461441 -14.175745 -1.759085 0.000000000000000e+00 1851878480
26.207918 -14.888715 -1.572147 0.000000000000000e+00 1851878480
27.149015 -10.078264 -2.218391 0.000000000000000e+00 1851878480
26.641506 -11.136209 -2.123191 0.000000000000000e+00 1851878480
25.848911 -13.347481 -1.914098 0.000000000000000e+00 1851878480
24.588387 -13.976892 -1.729274 0.000000000000000e+00 1851878480
24.466160 -9.075431 -2.221874 0.000000000000000e+00 1851878480
24.629431 -10.291541 -2.193903 0.000000000000000e+00 1851878480
23.796753 -12.291619 -2.000254 0.000000000000000e+00 1851878480
23.015453 -13.090529 -1.857012 0.000000000000000e+00 1851878480
22.303009 -8.266735 -2.228682 0.000000000000000e+00 1851878480
22.425772 -9.367443 -2.208265 0.000000000000000e+00 1851878480
21.851622 -11.290423 -2.055732 0.000000000000000e+00 1851878480
21.395704 -12.176462 -1.948261 0.000000000000000e+00 1851878480
20.426802 -7.565538 -2.227597 0.000000000000000e+00 1851878480
20.537504 -8.575670 -2.215517 0.000000000000000e+00 1851878480
20.310349 -10.497322 -2.114595 0.000000000000000e+00 1851878480
19.869045 -11.314341 -2.015707 0.000000000000000e+00 1851878480
18.953819 -7.014621 -2.240184 0.000000000000000e+00 1851878480
18.975143 -7.920496 -2.225753 0.000000000000000e+00 1851878480
19.148560 -9.899944 -2.186185 0.000000000000000e+00 1851878480
18.764973 -10.691972 -2.099069 0.000000000000000e+00 1851878480
17.612581 -6.513247 -2.242884 0.000000000000000e+00 1851878480
17.718267 -7.393242 -2.245548 0.000000000000000e+00 1851878480
17.724344 -9.166472 -2.202159 0.000000000000000e+00 1851878480
17.762779 -10.126965 -2.172284 0.000000000000000e+00 1851878480
16.429207 -6.070968 -2.242849 0.000000000000000e+00 1851878480
16.418972 -6.848669 -2.236137 0.000000000000000e+00 1851878480
16.502666 -8.537333 -2.216994 0.000000000000000e+00 1851878480
16.512482 -9.419758 -2.192048 0.000000000000000e+00 1851878480
15.429759 -5.697270 -2.248176 0.000000000000000e+00 1851878480
15.388958 -6.416746 -2.241666 0.000000000000000e+00 1851878480
15.467760 -8.004448 -2.234487 0.000000000000000e+00 1851878480
15.338033 -8.755010 -2.196908 0.000000000000000e+00 1851878480
14.497308 -5.348840 -2.245790 0.000000000000000e+00 1851878480
14.466031 -6.029767 -2.244589 0.000000000000000e+00 1851878480
14.520609 -7.516665 -2.244956 0.000000000000000e+00 1851878480
14.516579 -8.291084 -2.231800 0.000000000000000e+00 1851878480
13.628721 -5.024491 -2.236996 0.000000000000000e+00 1851878480
13.647809 -5.686691 -2.247529 0.000000000000000e+00 1851878480
13.615384 -7.050294 -2.243475 0.000000000000000e+00 1851878480
13.597885 -7.771042 -2.233847 0.000000000000000e+00 1851878480
12.911485 -4.756380 -2.238695 0.000000000000000e+00 1851878480
12.859422 -5.356269 -2.240395 0.000000000000000e+00 1851878480
12.809720 -6.635201 -2.241358 0.000000000000000e+00 1851878480
12.805698 -7.322724 -2.239041 0.000000000000000e+00 1851878480
12.292744 -4.524924 -2.245404 0.000000000000000e+00 1851878480
12.202215 -5.080711 -2.242633 0.000000000000000e+00 1851878480
12.082289 -6.260388 -2.237657 0.000000000000000e+00 1851878480
12.097833 -6.922130 -2.243518 0.000000000000000e+00 1851878480
11.644666 -4.283029 -2.235294 0.000000000000000e+00 1851878480
11.614101 -4.834095 -2.245964 0.000000000000000e+00 1851878480
11.466049 -5.942972 -2.241161 0.000000000000000e+00 1851878480
11.441255 -6.550408 -2.243432 0.000000000000000e+00 1851878480
11.117486 -4.085926 -2.237757 0.000000000000000e+00 1851878480
11.060521 -4.602015 -2.245332 0.000000000000000e+00 1851878480
10.946268 -5.675366 -2.252227 0.000000000000000e+00 1851878480
10.831285 -6.204955 -2.239407 0.000000000000000e+00 1851878480
10.594579 -3.890691 -2.231582 0.000000000000000e+00 1851878480
10.557450 -4.391111 -2.245102 0.000000000000000e+00 1851878480
10.367249 -5.376875 -2.240157 0.000000000000000e+00 1851878480
10.276261 -5.890588 -2.234700 0.000000000000000e+00 1851878480
10.239544 -3.757352 -2.252860 0.000000000000000e+00 1851878480
10.105669 -4.201675 -2.246884 0.000000000000000e+00 1851878480
9.929275 -5.151383 -2.248430 0.000000000000000e+00 1851878480
9.821275 -5.633226 -2.241327 0.000000000000000e+00 1851878480
9.724989 -3.565718 -2.231180 0.000000000000000e+00 1851878480
9.706216 -4.034125 -2.252376 0.000000000000000e+00 1851878480
9.503016 -4.931821 -2.250761 0.000000000000000e+00 1851878480
9.395341 -5.392234 -2.245505 0.000000000000000e+00 1851878480
9.372127 -3.433615 -2.238736 0.000000000000000e+00 1851878480
9.293976 -3.861376 -2.247337 0.000000000000000e+00 1851878480
9.142140 -4.746070 -2.260759 0.000000000000000e+00 1851878480
8.955429 -5.142928 -2.237392 0.000000000000000e+00 1851878480
9.027308 -3.304651 -2.241930 0.000000000000000e+00 1851878480
8.927023 -3.707554 -2.245975 0.000000000000000e+00 1851878480
8.685716 -4.510581 -2.238960 0.000000000000000e+00 1851878480
8.579075 -4.929843 -2.236707 0.000000000000000e+00 1851878480
8.652983 -3.165093 -2.231287 0.000000000000000e+00 1851878480
8.613932 -3.576204 -2.251836 0.000000000000000e+00 1851878480
8.411288 -4.369492 -2.256784 0.000000000000000e+00 1851878480
8.273293 -4.757088 -2.247396 0.000000000000000e+00 1851878480
8.334805 -3.046264 -2.228843 0.000000000000000e+00 1851878480
8.182748 -3.395934 -2.219838 0.000000000000000e+00 1851878480
8.045676 -4.180933 -2.243775 0.000000000000000e+00 1851878480
7.978099 -4.590222 -2.254792 0.000000000000000e+00 1851878480
8.065645 -2.945511 -2.234212 0.000000000000000e+00 1851878480
8.007264 -3.321873 -2.251555 0.000000000000000e+00 1851878480
7.815468 -4.062636 -2.262603 0.000000000000000e+00 1851878480
7.657451 -4.408500 -2.248633 0.000000000000000e+00 1851878480
7.864143 -2.869594 -2.254124 0.000000000000000e+00 1851878480
7.756380 -3.216591 -2.258181 0.000000000000000e+00 1851878480
7.508147 -3.904175 -2.253769 0.000000000000000e+00 1851878480
7.394473 -4.259782 -2.253370 0.000000000000000e+00 1851878480
7.578742 -2.763203 -2.245617 0.000000000000000e+00 1851878480
7.435459 -3.082346 -2.239060 0.000000000000000e+00 1851878480
7.219844 -3.755505 -2.244663 0.000000000000000e+00 1851878480
7.100124 -4.092811 -2.242771 0.000000000000000e+00 1851878480
7.333724 -2.671683 -2.244267 0.000000000000000e+00 1851878480
7.212135 -2.988643 -2.244227 0.000000000000000e+00 1851878480
6.990957 -3.637657 -2.248860 0.000000000000000e+00 1851878480
6.854101 -3.953505 -2.241816 0.000000000000000e+00 1851878480
7.066622 -2.572266 -2.231506 0.000000000000000e+00 1851878480
7.012637 -2.904872 -2.252906 0.000000000000000e+00 1851878480
6.815462 -3.547528 -2.266258 0.000000000000000e+00 1851878480
6.612027 -3.816316 -2.237092 0.000000000000000e+00 1851878480
6.906621 -2.511945 -2.248720 0.000000000000000e+00 1851878480
6.826285 -2.826600 -2.262256 0.000000000000000e+00 1851878480
6.568499 -3.420131 -2.255695 0.000000000000000e+00 1851878480
6.410378 -3.702312 -2.241451 0.000000000000000e+00 1851878480
6.677040 -2.426429 -2.239787 0.000000000000000e+00 1851878480
6.560162 -2.715365 -2.240926 0.000000000000000e+00 1851878480
6.346737 -3.305786 -2.249066 0.000000000000000e+00 1851878480
6.209507 -3.588618 -2.241930 0.000000000000000e+00 1851878480
6.459328 -2.345353 -2.230753 0.000000000000000e+00 1851878480
6.364145 -2.633217 -2.239179 0.000000000000000e+00 1851878480
6.165723 -3.212594 -2.252850 0.000000000000000e+00 1851878480
6.066768 -3.508411 -2.259897 0.000000000000000e+00 1851878480
6.384203 -2.316130 -2.268398 0.000000000000000e+00 1851878480
6.209091 -2.568069 -2.248598 0.000000000000000e+00 1851878480
5.942173 -3.097176 -2.237021 0.000000000000000e+00 1851878480
5.825425 -3.371047 -2.237143 0.000000000000000e+00 1851878480
6.160840 -2.233206 -2.250736 0.000000000000000e+00 1851878480
6.017728 -2.487948 -2.241649 0.000000000000000e+00 1851878480
5.833872 -3.041774 -2.261297 0.000000000000000e+00 1851878480
5.697609 -3.299256 -2.254149 0.000000000000000e+00 1851878480
5.987987 -2.168706 -2.247895 0.000000000000000e+00 1851878480
5.825194 -2.407407 -2.230637 0.000000000000000e+00 1851878480
5.677192 -2.961108 -2.264260 0.000000000000000e+00 1851878480
5.542566 -3.211601 -2.257516 0.000000000000000e+00 1851878480
5.866059 -2.122731 -2.261547 0.000000000000000e+00 1851878480
5.684079 -2.348163 -2.236193 0.000000000000000e+00 1851878480
5.497814 -2.868547 -2.254795 0.000000000000000e+00 1851878480
5.364976 -3.110774 -2.248236 0.000000000000000e+00 1851878480
5.666752 -2.048842 -2.242453 0.000000000000000e+00 1851878480
5.582588 -2.305320 -2.255154 0.000000000000000e+00 1851878480
5.342744 -2.788618 -2.251924 0.000000000000000e+00 1851878480
5.180739 -3.005963 -2.232334 0.000000000000000e+00 1851878480
5.531899 -1.998353 -2.245806 0.000000000000000e+00 1851878480
5.445554 -2.247833 -2.257604 0.000000000000000e+00 1851878480
5.219679 -2.725346 -2.259781 0.000000000000000e+00 1851878480
5.096616 -2.959156 -2.256822 0.000000000000000e+00 1851878480
5.398869 -1.948597 -2.247503 0.000000000000000e+00 1851878480
5.293023 -2.183996 -2.250923 0.000000000000000e+00 1851878480
5.068074 -2.647131 -2.252546 0.000000000000000e+00 1851878480
4.972715 -2.889183 -2.261646 0.000000000000000e+00 1851878480
5.247716 -1.892379 -2.239073 0.000000000000000e+00 1851878480
5.185176 -2.138630 -2.260831 0.000000000000000e+00 1851878480
4.940337 -2.581336 -2.253106 0.000000000000000e+00 1851878480
4.817504 -2.800924 -2.249307 0.000000000000000e+00 1851878480
5.106967 -1.839995 -2.232401 0.000000000000000e+00 1851878480
5.037416 -2.076840 -2.250957 0.000000000000000e+00 1851878480
4.778108 -2.497473 -2.234976 0.000000000000000e+00 1851878480
4.681433 -2.723689 -2.242812 0.000000000000000e+00 1851878480
5.026567 -1.809415 -2.250156 0.000000000000000e+00 1851878480
4.976321 -2.050809 -2.277926 0.000000000000000e+00 1851878480
4.744663 -2.480890 -2.275215 0.000000000000000e+00 1851878480
4.555272 -2.652133 -2.238304 0.000000000000000e+00 1851878480
4.895685 -1.760722 -2.243449 0.000000000000000e+00 1851878480
4.804806 -1.979308 -2.252190 0.000000000000000e+00 1851878480
4.611573 -2.412184 -2.266128 0.000000000000000e+00 1851878480
4.424378 -2.577731 -2.228747 0.000000000000000e+00 1851878480
4.818917 -1.731543 -2.259705 0.000000000000000e+00 1851878480
4.723737 -1.945102 -2.266459 0.000000000000000e+00 1851878480
4.512920 -2.361453 -2.271636 0.000000000000000e+00 1851878480
4.331534 -2.525422 -2.236028 0.000000000000000e+00 1851878480
4.682861 -1.681123 -2.246252 0.000000000000000e+00 1851878480
4.602709 -1.894469 -2.259702 0.000000000000000e+00 1851878480
4.376515 -2.290929 -2.255751 0.000000000000000e+00 1851878480
4.274964 -2.494215 -2.260616 0.000000000000000e+00 1851878480
4.582267 -1.643499 -2.247634 0.000000000000000e+00 1851878480
4.491001 -1.847709 -2.255314 0.000000000000000e+00 1851878480
4.346334 -2.275984 -2.293041 0.000000000000000e+00 1851878480
4.177757 -2.439252 -2.262231 0.000000000000000e+00 1851878480
4.477212 -1.604335 -2.244974 0.000000000000000e+00 1851878480
4.370935 -1.797544 -2.244513 0.000000000000000e+00 1851878480
4.198867 -2.199592 -2.266724 0.000000000000000e+00 1851878480
4.004169 -2.339594 -2.219494 0.000000000000000e+00 1851878480
4.395633 -1.573630 -2.252424 0.000000000000000e+00 1851878480
4.309993 -1.771718 -2.262419 0.000000000000000e+00 1851878480
4.070405 -2.133109 -2.247716 0.000000000000000e+00 1851878480
3.952457 -2.311065 -2.241884 0.000000000000000e+00 1851878480
4.230294 -1.513016 -2.214612 0.000000000000000e+00 1851878480
4.175843 -1.715829 -2.240063 0.000000000000000e+00 1851878480
3.997774 -2.095854 -2.257489 0.000000000000000e+00 1851878480
3.904465 -2.284688 -2.265558 0.000000000000000e+00 1851878480
4.201722 -1.501367 -2.246629 0.000000000000000e+00 1851878480
4.122050 -1.692984 -2.259052 0.000000000000000e+00 1851878480
3.938406 -2.065531 -2.273548 0.000000000000000e+00 1851878480
3.801845 -2.226294 -2.256035 0.000000000000000e+00 1851878480
4.146749 -1.480306 -2.263986 0.000000000000000e+00 1851878480
3.997296 -1.641022 -2.237479 0.000000000000000e+00 1851878480
3.815651 -2.001935 -2.251167 0.000000000000000e+00 1851878480
3.672271 -2.152035 -2.227926 0.000000000000000e+00 1851878480
4.016200 -1.432315 -2.238377 0.000000000000000e+00 1851878480
3.963826 -1.626557 -2.265561 0.000000000000000e+00 1851878480
3.744071 -1.965156 -2.256958 0.000000000000000e+00 1851878480
3.583640 -2.101686 -2.222222 0.000000000000000e+00 1851878480
4.026673 -1.434650 -2.290401 0.000000000000000e+00 1634890835
3.859844 -1.583175 -2.252129 0.000000000000000e+00 1851878480
3.690391 -1.937755 -2.272389 0.000000000000000e+00 1851878480
3.490587 -2.048679 -2.211809 0.000000000000000e+00 1851878480
3.903189 -1.389283 -2.265335 0.000000000000000e+00 1634890835
3.798041 -1.557119 -2.261750 0.000000000000000e+00 1851878480
3.580369 -1.880738 -2.251464 0.000000000000000e+00 1851878480
3.482628 -2.045587 -2.254429 0.000000000000000e+00 1851878480
3.865124 -1.374367 -2.288381 0.000000000000000e+00 1634890835
3.731304 -1.529058 -2.267309 0.000000000000000e+00 1851878480
3.510189 -1.844624 -2.253698 0.000000000000000e+00 1851878480
3.388132 -1.991637 -2.240111 0.000000000000000e+00 1851878480
3.769225 -1.338921 -2.276034 0.000000000000000e+00 1634890835
3.553686 -1.455599 -2.202940 0.000000000000000e+00 1851878480
3.473279 -1.825980 -2.276350 0.000000000000000e+00 1851878480
3.311395 -1.948063 -2.235653 0.000000000000000e+00 1851878480
3.719786 -1.320019 -2.290444 0.000000000000000e+00 1634890835
3.564787 -1.459465 -2.253945 0.000000000000000e+00 1851878480
3.392549 -1.784278 -2.269186 0.000000000000000e+00 1851878480
3.292736 -1.938632 -2.269574 0.000000000000000e+00 1851878480
3.643114 -1.291486 -2.287008 0.000000000000000e+00 1634890835
3.498862 -1.431795 -2.256003 0.000000000000000e+00 1851878480
3.307043 -1.740036 -2.257064 0.000000000000000e+00 1851878480
3.191775 -1.880701 -2.245576 0.000000000000000e+00 1851878480
3.576891 -1.266696 -2.288838 0.000000000000000e+00 1634890835
3.488866 -1.427025 -2.293620 0.000000000000000e+00 1634890835
3.238557 -1.704724 -2.254940 0.000000000000000e+00 1851878480
3.175583 -1.872683 -2.280056 0.000000000000000e+00 1851878480
3.469650 -1.227430 -2.262741 0.000000000000000e+00 1634890835
3.408537 -1.393495 -2.284306 0.000000000000000e+00 1634890835
3.170032 -1.669368 -2.251386 0.000000000000000e+00 1851878480
3.055204 -1.803177 -2.238266 0.000000000000000e+00 1851878480
3.430898 -1.212438 -2.279955 0.000000000000000e+00 1634890835
3.347162 -1.367737 -2.286340 0.000000000000000e+00 1634890835
3.132788 -1.650469 -2.269070 0.000000000000000e+00 1851878480
2.973826 -1.756608 -2.222610 0.000000000000000e+00 1851878480
3.410504 -1.203942 -2.309079 0.000000000000000e+00 1634890835
3.286134 -1.342139 -2.287492 0.000000000000000e+00 1634890835
3.055684 -1.610554 -2.256771 0.000000000000000e+00 1851878480
2.956206 -1.747670 -2.253668 0.000000000000000e+00 1851878480
3.301018 -1.164028 -2.276700 0.000000000000000e+00 1634890835
3.225899 -1.316879 -2.288080 0.000000000000000e+00 1634890835
2.978575 -1.570607 -2.242771 0.000000000000000e+00 1851878480
2.878136 -1.702965 -2.237737 0.000000000000000e+00 1851878480
3.221434 -1.134722 -2.263000 0.000000000000000e+00 1634890835
3.144583 -1.283037 -2.272315 0.000000000000000e+00 1634890835
2.935648 -1.548666 -2.253287 0.000000000000000e+00 1851878480
2.860263 -1.693848 -2.267695 0.000000000000000e+00 1851878480
3.210216 -1.129517 -2.296620 0.000000000000000e+00 1634890835
3.121330 -1.272900 -2.297591 0.000000000000000e+00 1634890835
2.891768 -1.526209 -2.262322 0.000000000000000e+00 1851878480
2.774171 -1.644299 -2.242513 0.000000000000000e+00 1851878480
3.158503 -1.110074 -2.300917 0.000000000000000e+00 1634890835
3.040607 -1.239342 -2.279641 0.000000000000000e+00 1634890835
2.850408 -1.505073 -2.272595 0.000000000000000e+00 1851878480
2.699413 -1.601400 -2.224536 0.000000000000000e+00 1851878480
3.116627 -1.094114 -2.311630 0.000000000000000e+00 1634890835
2.969457 -1.209707 -2.267278 0.000000000000000e+00 1634890835
2.764460 -1.460368 -2.245939 0.000000000000000e+00 1851878480
0.868863 -0.515906 -0.729860 0.000000000000000e+00 1886740808
3.025418 -1.060872 -2.284462 0.000000000000000e+00 1634890835
2.937623 -1.196106 -2.284007 0.000000000000000e+00 1634890835
2.720864 -1.438016 -2.252266 0.000000000000000e+00 1851878480
0.795354 -0.472686 -0.680955 0.000000000000000e+00 1886740808
2.972341 -1.041048 -2.284634 0.000000000000000e+00 1634890835
2.917484 -1.187271 -2.309606 0.000000000000000e+00 1634890835
0.884612 -0.467753 -0.746012 0.000000000000000e+00 1886740808
0.850622 -0.505996 -0.742199 0.000000000000000e+00 1886740808
2.915359 -1.019886 -2.280795 0.000000000000000e+00 1634890835
2.875113 -1.169390 -2.317231 0.000000000000000e+00 1634890835
0.828824 -0.438466 -0.712022 0.000000000000000e+00 1886740808
0.816223 -0.485985 -0.725733 0.000000000000000e+00 1886740808
2.884287 -1.007810 -2.296510 0.000000000000000e+00 1634890835
2.786829 -1.132860 -2.286493 0.000000000000000e+00 1634890835
0.848471 -0.449080 -0.742450 0.000000000000000e+00 1886740808
0.774803 -0.461758 -0.701947 0.000000000000000e+00 1886740808
2.829470 -0.987459 -2.292626 0.000000000000000e+00 1634890835
2.741348 -1.113751 -2.289453 0.000000000000000e+00 1634890835
0.802171 -0.424785 -0.714925 0.000000000000000e+00 1886740808
0.805227 -0.480349 -0.743262 0.000000000000000e+00 1886740808
2.785747 -0.971005 -2.296850 0.000000000000000e+00 1634890835
0.849384 -0.344892 -0.722013 0.000000000000000e+00 1886740808
0.814817 -0.431699 -0.739577 0.000000000000000e+00 1886740808
0.777678 -0.464364 -0.731310 0.000000000000000e+00 1886740808
0.855956 -0.297982 -0.718079 0.000000000000000e+00 1886740808
0.827923 -0.335985 -0.716263 0.000000000000000e+00 1886740808
0.813745 -0.431350 -0.752161 0.000000000000000e+00 1886740808
0.740754 -0.442751 -0.709617 0.000000000000000e+00 1886740808
0.817033 -0.284073 -0.697366 0.000000000000000e+00 1886740808
0.820522 -0.332788 -0.722411 0.000000000000000e+00 1886740808
0.804813 -0.426836 -0.757511 0.000000000000000e+00 1886740808
0.746960 -0.446906 -0.728902 0.000000000000000e+00 1886740808
0.832497 -0.289079 -0.722895 0.000000000000000e+00 1886740808
0.797781 -0.323373 -0.714763 0.000000000000000e+00 1886740808
0.749432 -0.397673 -0.718244 0.000000000000000e+00 1886740808
0.773496 -0.463250 -0.768824 0.000000000000000e+00 1886740808
0.838179 -0.290673 -0.740416 0.000000000000000e+00 1886740808
0.774709 -0.313834 -0.706280 0.000000000000000e+00 1886740808
0.776044 -0.412014 -0.757269 0.000000000000000e+00 1886740808
0.755724 -0.453072 -0.765084 0.000000000000000e+00 1886740808
0.783801 -0.271457 -0.704316 0.000000000000000e+00 1886740808
0.795455 -0.322043 -0.737890 0.000000000000000e+00 1886740808
0.771164 -0.409645 -0.766150 0.000000000000000e+00 1886740808
0.759375 -0.455736 -0.782997 0.000000000000000e+00 1886740808
0.801463 -0.277201 -0.732566 0.000000000000000e+00 1886740808
0.754354 -0.305214 -0.711982 0.000000000000000e+00 1886740808
0.782070 -0.415667 -0.791042 0.000000000000000e+00 1886740808
0.781089 -0.469263 -0.820249 0.000000000000000e+00 1886740808
0.789716 -0.272767 -0.734205 0.000000000000000e+00 1886740808
0.741095 -0.299662 -0.711652 0.000000000000000e+00 1886740808
0.799943 -0.425403 -0.823729 0.000000000000000e+00 1886740808
0.754280 -0.453644 -0.806688 0.000000000000000e+00 1886740808
0.741170 -0.255645 -0.700859 0.000000000000000e+00 1886740808
0.779657 -0.315054 -0.761696 0.000000000000000e+00 1886740808
0.753464 -0.400913 -0.789853 0.000000000000000e+00 1886740808
2.107895 -1.269132 -2.295830 0.000000000000000e+00 1634890835
0.802394 -0.276373 -0.771708 0.000000000000000e+00 1886740808
0.723677 -0.292244 -0.719274 0.000000000000000e+00 1886740808
0.787150 -0.419079 -0.840021 0.000000000000000e+00 1886740808
2.048212 -1.234569 -2.271826 0.000000000000000e+00 1634890835
0.738174 -0.253890 -0.722045 0.000000000000000e+00 1886740808
0.734205 -0.296301 -0.742383 0.000000000000000e+00 1886740808
2.102741 -1.120154 -2.284335 0.000000000000000e+00 1634890835
2.043871 -1.233345 -2.308648 0.000000000000000e+00 1634890835
0.764335 -0.262506 -0.760360 0.000000000000000e+00 1886740808
0.760517 -0.306715 -0.782297 0.000000000000000e+00 1886740808
2.111789 -1.125646 -2.335398 0.000000000000000e+00 1634890835
0.788862 -0.476575 -0.907415 0.000000000000000e+00 1886740808
0.746836 -0.256118 -0.755584 0.000000000000000e+00 1886740808
0.777122 -0.313199 -0.813202 0.000000000000000e+00 1886740808
2.059767 -1.098581 -2.318793 0.000000000000000e+00 1634890835
0.784803 -0.474678 -0.919319 0.000000000000000e+00 1886740808
0.761349 -0.260702 -0.783353 0.000000000000000e+00 1886740808
0.768189 -0.309385 -0.817747 0.000000000000000e+00 1886740808
2.007916 -1.071585 -2.301031 0.000000000000000e+00 1634890835
0.798717 -0.483667 -0.952797 0.000000000000000e+00 1886740808
0.763678 -0.261100 -0.799092 0.000000000000000e+00 1886740808
2.104268 -0.846889 -2.278722 0.000000000000000e+00 1634890835
0.834671 -0.445728 -0.973707 0.000000000000000e+00 1886740808
0.770384 -0.467076 -0.935886 0.000000000000000e+00 1886740808
0.767049 -0.261844 -0.816245 0.000000000000000e+00 1886740808
2.069017 -0.832108 -2.279263 0.000000000000000e+00 1634890835
0.847907 -0.453085 -1.006934 0.000000000000000e+00 1886740808
0.761613 -0.462328 -0.942245 0.000000000000000e+00 1886740808
0.793669 -0.270501 -0.858911 0.000000000000000e+00 1886740808
2.045815 -0.822177 -2.292658 0.000000000000000e+00 1634890835
0.794736 -0.424949 -0.960778 0.000000000000000e+00 1886740808
1.809402 -1.099757 -2.279760 0.000000000000000e+00 1634890835
2.078966 -0.707416 -2.288075 0.000000000000000e+00 1634890835
2.008071 -0.806409 -2.289280 0.000000000000000e+00 1634890835
0.821493 -0.439548 -1.011022 0.000000000000000e+00 1886740808
1.807805 -1.100194 -2.319756 0.000000000000000e+00 1634890835
2.021124 -0.686602 -2.262220 0.000000000000000e+00 1634890835
1.983128 -0.795790 -2.299983 0.000000000000000e+00 1634890835
0.764150 -0.409141 -0.957422 0.000000000000000e+00 1886740808
0.750291 -0.457208 -0.980555 0.000000000000000e+00 1886740808
2.009396 -0.681471 -2.287353 0.000000000000000e+00 1634890835
1.955719 -0.784187 -2.307510 0.000000000000000e+00 1634890835
0.789855 -0.423195 -1.007525 0.000000000000000e+00 1886740808
1.717896 -1.048236 -2.286699 0.000000000000000e+00 1634890835
1.977012 -0.669341 -2.288821 0.000000000000000e+00 1634890835
0.801434 -0.321100 -0.962010 0.000000000000000e+00 1886740808
1.763533 -0.945545 -2.290299 0.000000000000000e+00 1634890835
1.677251 -1.024824 -2.274050 0.000000000000000e+00 1634890835
1.938950 -0.655308 -2.283047 0.000000000000000e+00 1634890835
0.782722 -0.313351 -0.955888 0.000000000000000e+00 1886740808
0.747593 -0.401121 -0.988538 0.000000000000000e+00 1886740808
1.670034 -1.021829 -2.306429 0.000000000000000e+00 1634890835
1.910716 -0.644616 -2.288252 0.000000000000000e+00 1634890835
0.788452 -0.315387 -0.979668 0.000000000000000e+00 1886740808
1.719632 -0.923339 -2.315287 0.000000000000000e+00 1634890835
1.633655 -1.000983 -2.298336 0.000000000000000e+00 1634890835
0.810372 -0.272897 -0.987113 0.000000000000000e+00 1886740808
0.787069 -0.314571 -0.995036 0.000000000000000e+00 1886740808
1.707717 -0.917627 -2.341271 0.000000000000000e+00 1634890835
1.615185 -0.991095 -2.314957 0.000000000000000e+00 1634890835
0.803336 -0.270025 -0.995341 0.000000000000000e+00 1886740808
0.824411 -0.329216 -1.060506 0.000000000000000e+00 1886740808
1.662651 -0.894091 -2.321295 0.000000000000000e+00 1634890835
1.587271 -0.975404 -2.317770 0.000000000000000e+00 1634890835
0.777497 -0.260843 -0.979910 0.000000000000000e+00 1886740808
0.778903 -0.310772 -1.019572 0.000000000000000e+00 1886740808
1.641105 -0.883192 -2.333400 0.000000000000000e+00 1634890835
1.580565 -0.972746 -2.351606 0.000000000000000e+00 1634890835
0.766065 -0.256510 -0.982173 0.000000000000000e+00 1886740808
1.729322 -0.689363 -2.303570 0.000000000000000e+00 1634890835
1.572468 -0.846925 -2.277145 0.000000000000000e+00 1634890835
1.510939 -0.931329 -2.290707 0.000000000000000e+00 1634890835
0.773194 -0.258384 -1.008485 0.000000000000000e+00 1886740808
1.695065 -0.675093 -2.297895 0.000000000000000e+00 1634890835
1.579131 -0.851205 -2.329264 0.000000000000000e+00 1634890835
1.535321 -0.947849 -2.372096 0.000000000000000e+00 1634890835
0.792510 -0.264301 -1.051652 0.000000000000000e+00 1886740808
0.759703 -0.302286 -1.048181 0.000000000000000e+00 1886740808
1.530882 -0.825884 -2.300235 0.000000000000000e+00 1634890835
1.454303 -0.899278 -2.290031 0.000000000000000e+00 1634890835
1.697890 -0.565068 -2.292407 0.000000000000000e+00 1634890835
1.622056 -0.644803 -2.277930 0.000000000000000e+00 1634890835
1.491764 -0.805464 -2.283506 0.000000000000000e+00 1634890835
1.428314 -0.884665 -2.292508 0.000000000000000e+00 1634890835
0.750475 -0.249232 -1.031015 0.000000000000000e+00 1886740808
1.610998 -0.639784 -2.302959 0.000000000000000e+00 1634890835
1.465503 -0.791976 -2.285621 0.000000000000000e+00 1634890835
1.384256 -0.858826 -2.264925 0.000000000000000e+00 1634890835
1.651856 -0.547386 -2.309307 0.000000000000000e+00 1634890835
1.610039 -0.638765 -2.343053 0.000000000000000e+00 1634890835
1.467058 -0.793522 -2.331458 0.000000000000000e+00 1634890835
1.389496 -0.863568 -2.317915 0.000000000000000e+00 1634890835
1.604448 -0.530491 -2.282720 0.000000000000000e+00 1634890835
1.559110 -0.617930 -2.310032 0.000000000000000e+00 1634890835
1.447960 -0.783908 -2.345041 0.000000000000000e+00 1634890835
1.344957 -0.837369 -2.287748 0.000000000000000e+00 1634890835
1.556065 -0.513318 -2.253260 0.000000000000000e+00 1634890835
1.520874 -0.602145 -2.294421 0.000000000000000e+00 1634890835
1.414330 -0.766417 -2.334594 0.000000000000000e+00 1634890835
1.351083 -0.842714 -2.343700 0.000000000000000e+00 1634890835
1.541597 -0.507352 -2.272230 0.000000000000000e+00 1634890835
1.467432 -0.580362 -2.254357 0.000000000000000e+00 1634890835
1.377407 -0.747126 -2.317645 0.000000000000000e+00 1634890835
1.286702 -0.804053 -2.276571 0.000000000000000e+00 1634890835
1.508071 -0.495125 -2.262800 0.000000000000000e+00 1634890835
1.442630 -0.569925 -2.257114 0.000000000000000e+00 1634890835
1.369746 -0.743703 -2.349684 0.000000000000000e+00 1634890835
1.245658 -0.779895 -2.248293 0.000000000000000e+00 1634890835
1.499540 -0.491106 -2.290721 0.000000000000000e+00 1634890835
1.482409 -0.584980 -2.362397 0.000000000000000e+00 1634890835
1.338067 -0.727236 -2.340428 0.000000000000000e+00 1634890835
1.246584 -0.782009 -2.295609 0.000000000000000e+00 1634890835
1.472302 -0.480964 -2.290085 0.000000000000000e+00 1634890835
1.430641 -0.563898 -2.322505 0.000000000000000e+00 1634890835
1.303454 -0.709160 -2.325035 0.000000000000000e+00 1634890835
1.232965 -0.775029 -2.316997 0.000000000000000e+00 1634890835
1.458794 -0.475309 -2.310688 0.000000000000000e+00 1634890835
1.385679 -0.545526 -2.291864 0.000000000000000e+00 1634890835
1.280512 -0.697421 -2.329727 0.000000000000000e+00 1634890835
1.195818 -0.753236 -2.293594 0.000000000000000e+00 1634890835
1.434197 -0.466042 -2.313693 0.000000000000000e+00 1634890835
1.361907 -0.535510 -2.295276 0.000000000000000e+00 1634890835
1.225583 -0.668235 -2.274717 0.000000000000000e+00 1634890835
1.180297 -0.745047 -2.311026 0.000000000000000e+00 1634890835
1.394724 -0.451966 -2.291891 0.000000000000000e+00 1634890835
1.333670 -0.523748 -2.290670 0.000000000000000e+00 1634890835
1.228503 -0.670584 -2.326504 0.000000000000000e+00 1634890835
1.139318 -0.720760 -2.277766 0.000000000000000e+00 1634890835
1.345655 -0.434828 -2.252737 0.000000000000000e+00 1634890835
1.331431 -0.522191 -2.330921 0.000000000000000e+00 1634890835
1.204838 -0.658429 -2.328535 0.000000000000000e+00 1634890835
1.121972 -0.711391 -2.290814 0.000000000000000e+00 1634890835
1.339754 -0.431654 -2.285275 0.000000000000000e+00 1634890835
1.278950 -0.500939 -2.282603 0.000000000000000e+00 1634890835
1.179672 -0.645448 -2.327182 0.000000000000000e+00 1634890835
1.093468 -0.694931 -2.280634 0.000000000000000e+00 1634890835
1.315263 -0.422486 -2.286295 0.000000000000000e+00 1634890835
1.259761 -0.492745 -2.292494 0.000000000000000e+00 1634890835
1.168042 -0.639871 -2.352531 0.000000000000000e+00 1634890835
1.083035 -0.689955 -2.308012 0.000000000000000e+00 1634890835
1.314007 -0.420772 -2.328072 0.000000000000000e+00 1634890835
1.243657 -0.485758 -2.308044 0.000000000000000e+00 1634890835
1.138072 -0.624244 -2.340735 0.000000000000000e+00 1634890835
1.045621 -0.667769 -2.277323 0.000000000000000e+00 1634890835
1.276121 -0.407330 -2.304867 0.000000000000000e+00 1634890835
1.228186 -0.479015 -2.324959 0.000000000000000e+00 1634890835
1.100412 -0.604377 -2.311777 0.000000000000000e+00 1634890835
1.030969 -0.660094 -2.295436 0.000000000000000e+00 1634890835
1.246517 -0.396565 -2.295560 0.000000000000000e+00 1634890835
1.171992 -0.456410 -2.263455 0.000000000000000e+00 1634890835
1.059510 -0.582700 -2.274116 0.000000000000000e+00 1634890835
0.998544 -0.641021 -2.273407 0.000000000000000e+00 1634890835
1.230021 -0.389977 -2.310061 0.000000000000000e+00 1634890835
1.175835 -0.457195 -2.317300 0.000000000000000e+00 1634890835
1.045589 -0.575847 -2.293500 0.000000000000000e+00 1634890835
0.989158 -0.636728 -2.303524 0.000000000000000e+00 1634890835
1.177239 -0.371923 -2.255200 0.000000000000000e+00 1634890835
1.159518 -0.450125 -2.332383 0.000000000000000e+00 1634890835
1.041859 -0.574620 -2.336126 0.000000000000000e+00 1634890835
0.981884 -0.633830 -2.339585 0.000000000000000e+00 1634890835
1.158703 -0.364727 -2.264621 0.000000000000000e+00 1634890835
1.113870 -0.431686 -2.287420 0.000000000000000e+00 1634890835
1.023474 -0.565323 -2.346604 0.000000000000000e+00 1634890835
0.949447 -0.614680 -2.315479 0.000000000000000e+00 1634890835
1.162227 -0.364450 -2.318007 0.000000000000000e+00 1634890835
1.090793 -0.422015 -2.287441 0.000000000000000e+00 1634890835
0.992759 -0.549205 -2.328171 0.000000000000000e+00 1634890835
0.913397 -0.593129 -2.280707 0.000000000000000e+00 1634890835
1.127898 -0.352296 -2.296131 0.000000000000000e+00 1634890835
1.053160 -0.406729 -2.255854 0.000000000000000e+00 1634890835
0.964318 -0.534325 -2.313863 0.000000000000000e+00 1634890835
0.918066 -0.598030 -2.347901 0.000000000000000e+00 1634890835
1.124012 -0.349651 -2.336192 0.000000000000000e+00 1634890835
1.037719 -0.400025 -2.271035 0.000000000000000e+00 1634890835
0.953263 -0.529076 -2.341118 0.000000000000000e+00 1634890835
0.890373 -0.581877 -2.333127 0.000000000000000e+00 1634890835
1.065511 -0.330052 -2.261618 0.000000000000000e+00 1634890835
1.044485 -0.401861 -2.336138 0.000000000000000e+00 1634890835
0.915759 -0.509136 -2.302707 0.000000000000000e+00 1634890835
0.870738 -0.570966 -2.338768 0.000000000000000e+00 1634890835
1.081492 -0.333531 -2.344915 0.000000000000000e+00 1634890835
1.013066 -0.388998 -2.316417 0.000000000000000e+00 1634890835
0.905027 -0.504069 -2.330923 0.000000000000000e+00 1634890835
0.830720 -0.546637 -2.288074 0.000000000000000e+00 1634890835
1.027052 -0.315295 -2.275425 0.000000000000000e+00 1634890835
0.995110 -0.381312 -2.326857 0.000000000000000e+00 1634890835
0.881522 -0.491890 -2.326368 0.000000000000000e+00 1634890835
0.451722 -0.298330 -1.276423 0.000000000000000e+00 1936876886
0.989706 -0.302385 -2.241163 0.000000000000000e+00 1634890835
0.961167 -0.367514 -2.299120 0.000000000000000e+00 1634890835
0.848879 -0.474592 -2.296416 0.000000000000000e+00 1634890835
0.424404 -0.281354 -1.230876 0.000000000000000e+00 1936876886
0.980204 -0.297998 -2.269435 0.000000000000000e+00 1634890835
0.936952 -0.357453 -2.293484 0.000000000000000e+00 1634890835
0.839658 -0.470382 -2.329461 0.000000000000000e+00 1634890835
0.420596 -0.279934 -1.252641 0.000000000000000e+00 1936876886
0.978066 -0.295811 -2.316048 0.000000000000000e+00 1634890835
0.923120 -0.351353 -2.313192 0.000000000000000e+00 1634890835
0.460687 -0.258622 -1.311317 0.000000000000000e+00 1936876886
0.325923 -0.217819 -0.997307 0.000000000000000e+00 1953264973
0.941980 -0.283360 -2.282184 0.000000000000000e+00 1634890835
0.877608 -0.333218 -2.252148 0.000000000000000e+00 1634890835
0.428396 -0.241021 -1.251715 0.000000000000000e+00 1936876886
0.316478 -0.212420 -0.995519 0.000000000000000e+00 1953264973
0.500440 -0.149690 -1.240935 0.000000000000000e+00 1936876886
0.882125 -0.334082 -2.319238 0.000000000000000e+00 1634890835
0.367426 -0.207191 -1.102584 0.000000000000000e+00 1953264973
0.280423 -0.189069 -0.907332 0.000000000000000e+00 1953264973
0.494503 -0.147040 -1.255512 0.000000000000000e+00 1936876886
0.843833 -0.318730 -2.273925 0.000000000000000e+00 1634890835
0.356520 -0.201522 -1.099365 0.000000000000000e+00 1953264973
0.272044 -0.184286 -0.905957 0.000000000000000e+00 1953264973
0.474836 -0.140319 -1.234885 0.000000000000000e+00 1936876886
0.835888 -0.314851 -2.309766 0.000000000000000e+00 1634890835
0.317160 -0.179724 -1.005547 0.000000000000000e+00 1953264973
0.228163 -0.155326 -0.782554 0.000000000000000e+00 1953264973
