# .PCD v0.7 - Point Cloud Data file format
VERSION 0.7
FIELDS x y z rgb label
SIZE 4 4 4 4 4
TYPE F F F F U
COUNT 1 1 1 1 1
WIDTH 539
HEIGHT 1
VIEWPOINT 0 0 0 1 0 0 0
POINTS 539
DATA ascii
40.791180 -17.263247 10.283599 0.000000000000000e+00 1954047316
40.794483 -17.258312 9.882092 0.000000000000000e+00 1954047316
38.116524 -21.258072 9.993579 0.000000000000000e+00 1954047316
32.360130 -12.030993 -2.055976 0.000000000000000e+00 1851878480
31.746689 -13.279483 -1.935350 0.000000000000000e+00 1851878480
29.069572 -15.001219 -1.571946 0.000000000000000e+00 1851878480
27.743059 -15.751534 -1.377707 0.000000000000000e+00 1851878480
29.021568 -10.781585 -2.107512 0.000000000000000e+00 1851878480
28.101070 -11.750443 -1.976180 0.000000000000000e+00 1851878480
26.718605 -13.792290 -1.711501 0.000000000000000e+00 1851878480
25.869572 -14.696501 -1.551850 0.000000000000000e+00 1851878480
26.501020 -9.837714 -2.165442 0.000000000000000e+00 1851878480
26.043957 -10.886432 -2.075569 0.000000000000000e+00 1851878480
25.064125 -12.942245 -1.855984 0.000000000000000e+00 1851878480
24.613422 -13.991124 -1.731035 0.000000000000000e+00 1851878480
24.216291 -8.982745 -2.199183 0.000000000000000e+00 1851878480
24.423874 -10.205647 -2.175593 0.000000000000000e+00 1851878480
23.717525 -12.250697 -1.993595 0.000000000000000e+00 1851878480
23.466068 -13.346827 -1.893371 0.000000000000000e+00 1851878480
22.238518 -8.242830 -2.222239 0.000000000000000e+00 1851878480
22.455675 -9.379934 -2.211209 0.000000000000000e+00 1851878480
22.175840 -11.457944 -2.086234 0.000000000000000e+00 1851878480
21.909477 -12.468855 -1.995044 0.000000000000000e+00 1851878480
20.484320 -7.586841 -2.233870 0.000000000000000e+00 1851878480
20.647532 -8.621614 -2.227387 0.000000000000000e+00 1851878480
20.727106 -10.712722 -2.157985 0.000000000000000e+00 1851878480
20.445801 -11.642771 -2.074219 0.000000000000000e+00 1851878480
18.929653 -7.005678 -2.237327 0.000000000000000e+00 1851878480
19.020029 -7.939230 -2.231017 0.000000000000000e+00 1851878480
19.355433 -10.006900 -2.209803 0.000000000000000e+00 1851878480
19.059893 -10.860011 -2.132059 0.000000000000000e+00 1851878480
17.577671 -6.500337 -2.238439 0.000000000000000e+00 1851878480
17.623617 -7.353747 -2.233553 0.000000000000000e+00 1851878480
17.815088 -9.213404 -2.213434 0.000000000000000e+00 1851878480
17.837711 -10.169685 -2.181448 0.000000000000000e+00 1851878480
16.396893 -6.059027 -2.238438 0.000000000000000e+00 1851878480
16.435867 -6.855716 -2.238438 0.000000000000000e+00 1851878480
16.517006 -8.544749 -2.218920 0.000000000000000e+00 1851878480
16.604053 -9.471996 -2.204204 0.000000000000000e+00 1851878480
15.362926 -5.672593 -2.238438 0.000000000000000e+00 1851878480
15.366798 -6.407506 -2.238438 0.000000000000000e+00 1851878480
15.375828 -7.956873 -2.221206 0.000000000000000e+00 1851878480
15.410051 -8.796118 -2.207224 0.000000000000000e+00 1851878480
14.449854 -5.331332 -2.238439 0.000000000000000e+00 1851878480
14.426393 -6.013244 -2.238439 0.000000000000000e+00 1851878480
14.430781 -7.470165 -2.231067 0.000000000000000e+00 1851878480
14.422464 -8.237332 -2.217331 0.000000000000000e+00 1851878480
13.637506 -5.027729 -2.238438 0.000000000000000e+00 1851878480
13.592607 -5.663689 -2.238438 0.000000000000000e+00 1851878480
13.584814 -7.034464 -2.238438 0.000000000000000e+00 1851878480
13.566955 -7.753366 -2.228766 0.000000000000000e+00 1851878480
12.910001 -4.755833 -2.238438 0.000000000000000e+00 1851878480
12.848188 -5.351591 -2.238438 0.000000000000000e+00 1851878480
12.793027 -6.626554 -2.238438 0.000000000000000e+00 1851878480
12.802253 -7.320754 -2.238438 0.000000000000000e+00 1851878480
7.000535 -2.576877 -1.278725 1.880790849211783e-38 1684957512
6.957566 -2.896964 -1.278724 1.880790849211783e-38 1684957512
12.086509 -6.262575 -2.238438 0.000000000000000e+00 1851878480
12.070436 -6.906454 -2.238438 0.000000000000000e+00 1851878480
6.661458 -2.450153 -1.278724 1.880790849211783e-38 1684957512
6.612411 -2.752259 -1.278724 1.880790849211783e-38 1684957512
6.542106 -3.390841 -1.278724 1.880790849211783e-38 1684957512
11.415785 -6.535826 -2.238438 0.000000000000000e+00 1851878480
6.352880 -2.334826 -1.278724 1.880790849211783e-38 1684957512
6.299004 -2.620863 -1.278724 1.880790849211783e-38 1684957512
6.214852 -3.222245 -1.278724 1.880790849211783e-38 1684957512
10.826599 -6.202271 -2.238438 0.000000000000000e+00 1851878480
6.070825 -2.229414 -1.278724 1.880790849211783e-38 1684957512
6.013121 -2.501009 -1.278724 1.880790849211783e-38 1684957512
5.917823 -3.069223 -1.278724 1.880790849211783e-38 1684957512
5.880210 -3.370671 -1.278725 1.880790849211783e-38 1684957512
5.811969 -2.132674 -1.278724 1.880790849211783e-38 1684957512
5.751238 -2.391216 -1.278724 1.880790849211783e-38 1684957512
5.646965 -2.929688 -1.278724 1.880790849211783e-38 1684957512
5.603245 -3.213875 -1.278724 1.880790849211783e-38 1684957512
5.573544 -2.043569 -1.278724 1.880790849211783e-38 1684957512
5.510437 -2.290263 -1.278724 1.880790849211783e-38 1684957512
5.398947 -2.801915 -1.278725 1.880790849211783e-38 1684957512
5.350267 -3.070659 -1.278725 1.880790849211783e-38 1684957512
5.353184 -1.961217 -1.278724 1.880790849211783e-38 1684957512
5.288229 -2.197105 -1.278725 1.880790849211783e-38 1684957512
5.170952 -2.684459 -1.278724 1.880790849211783e-38 1684957512
5.145987 -2.955239 -1.285655 1.880790849211783e-38 1684957512
5.148886 -1.884866 -1.278724 1.880790849211783e-38 1684957512
5.145986 -2.137221 -1.294693 1.880790849211783e-38 1684957512
5.145987 -2.672363 -1.326506 1.880790849211783e-38 1684957512
5.145986 -2.957067 -1.341644 1.880790849211783e-38 1684957512
5.145986 -1.882302 -1.326961 1.880790849211783e-38 1684957512
5.145986 -2.136434 -1.345253 1.880790849211783e-38 1684957512
5.145987 -2.673234 -1.380690 1.880790849211783e-38 1684957512
5.145987 -2.958908 -1.397880 1.880790849211783e-38 1684957512
5.145987 -1.880792 -1.376109 1.880790849211783e-38 1684957512
5.145986 -2.135643 -1.396017 1.880790849211783e-38 1684957512
5.145987 -2.674110 -1.435110 1.880790849211783e-38 1684957512
5.145986 -2.960758 -1.454373 1.880790849211783e-38 1684957512
5.145987 -1.879275 -1.425457 1.880790849211783e-38 1684957512
5.145987 -2.134851 -1.446995 1.880790849211783e-38 1684957512
5.145987 -2.674986 -1.489779 1.880790849211783e-38 1684957512
5.145986 -2.962615 -1.511134 1.880790849211783e-38 1684957512
5.145986 -1.877749 -1.475010 1.880790849211783e-38 1684957512
5.145986 -2.134054 -1.498195 1.880790849211783e-38 1684957512
5.145986 -2.675871 -1.544704 1.880790849211783e-38 1684957512
5.145986 -2.964482 -1.568173 1.880790849211783e-38 1684957512
5.145986 -1.876222 -1.524780 1.880790849211783e-38 1684957512
5.145987 -2.133253 -1.549625 1.880790849211783e-38 1684957512
5.145986 -2.676758 -1.599896 1.880790849211783e-38 1684957512
5.145987 -2.966364 -1.625502 1.880790849211783e-38 1684957512
5.145987 -1.874688 -1.574775 1.880790849211783e-38 1684957512
5.145987 -2.132450 -1.601296 1.880790849211783e-38 1684957512
5.145987 -2.677649 -1.655367 1.880790849211783e-38 1684957512
5.145987 -2.968249 -1.683132 1.880790849211783e-38 1684957512
5.145986 -1.873150 -1.625005 1.880790849211783e-38 1684957512
5.145987 -2.131642 -1.653219 1.880790849211783e-38 1684957512
5.145986 -2.678546 -1.711129 1.880790849211783e-38 1684957512
5.145988 -2.970151 -1.741077 1.880790849211783e-38 1684957512
5.145987 -1.871601 -1.675477 1.880790849211783e-38 1684957512
5.145986 -2.130829 -1.705399 1.880790849211783e-38 1684957512
5.145986 -2.679447 -1.767189 1.880790849211783e-38 1684957512
5.145988 -2.972063 -1.799345 1.880790849211783e-38 1684957512
5.145987 -1.870046 -1.726201 1.880790849211783e-38 1684957512
5.145986 -2.130014 -1.757849 1.880790849211783e-38 1684957512
5.145987 -2.680358 -1.823561 1.880790849211783e-38 1684957512
5.145987 -2.973985 -1.857949 1.880790849211783e-38 1684957512
5.145986 -1.868484 -1.777186 1.880790849211783e-38 1684957512
5.145987 -2.129194 -1.810579 1.880790849211783e-38 1684957512
5.145986 -2.681269 -1.880256 1.880790849211783e-38 1684957512
5.145987 -2.975923 -1.916903 1.880790849211783e-38 1684957512
5.145986 -1.866916 -1.828442 1.880790849211783e-38 1684957512
5.145987 -2.128371 -1.863599 1.880790849211783e-38 1684957512
5.145987 -2.682189 -1.937285 1.880790849211783e-38 1684957512
5.145987 -2.977871 -1.976218 1.880790849211783e-38 1684957512
5.145986 -1.865338 -1.879980 1.880790849211783e-38 1684957512
5.145987 -2.127539 -1.916919 1.880790849211783e-38 1684957512
5.145986 -2.683111 -1.994662 1.880790849211783e-38 1684957512
5.145988 -2.979833 -2.035910 1.880790849211783e-38 1684957512
5.145987 -1.863753 -1.931808 1.880790849211783e-38 1684957512
5.145987 -2.126708 -1.970549 1.880790849211783e-38 1684957512
5.145987 -2.684042 -2.052397 1.880790849211783e-38 1684957512
5.145987 -2.981806 -2.095987 1.880790849211783e-38 1684957512
5.145986 -1.862160 -1.983936 1.880790849211783e-38 1684957512
5.145986 -2.125870 -2.024500 1.880790849211783e-38 1684957512
5.145987 -2.684977 -2.110502 1.880790849211783e-38 1684957512
5.145988 -2.983797 -2.156467 1.880790849211783e-38 1684957512
5.145986 -1.860557 -2.036375 1.880790849211783e-38 1684957512
5.145987 -2.125026 -2.078784 1.880790849211783e-38 1684957512
5.145987 -2.685921 -2.168992 1.880790849211783e-38 1684957512
5.145987 -2.985799 -2.217360 1.880790849211783e-38 1684957512
5.145986 -1.858945 -2.089136 1.880790849211783e-38 1684957512
5.145987 -2.124176 -2.133410 1.880790849211783e-38 1684957512
5.145988 -2.686870 -2.227878 1.880790849211783e-38 1684957512
5.055100 -2.935051 -2.238438 0.000000000000000e+00 1851878480
5.145987 -1.857325 -2.142230 1.880790849211783e-38 1684957512
5.145987 -2.123326 -2.188395 1.880790849211783e-38 1684957512
5.036332 -2.630552 -2.238438 0.000000000000000e+00 1851878480
4.921688 -2.859535 -2.238438 0.000000000000000e+00 1851878480
5.145986 -1.855693 -2.195666 1.880790849211783e-38 1684957512
5.133818 -2.117447 -2.238438 0.000000000000000e+00 1851878480
4.908175 -2.564531 -2.238438 0.000000000000000e+00 1851878480
4.794225 -2.787389 -2.238438 0.000000000000000e+00 1851878480
5.120776 -1.844970 -2.238438 0.000000000000000e+00 1851878480
5.009400 -2.065289 -2.238438 0.000000000000000e+00 1851878480
4.785508 -2.501341 -2.238438 0.000000000000000e+00 1851878480
4.672303 -2.718377 -2.238438 0.000000000000000e+00 1851878480
5.000390 -1.799992 -2.238438 0.000000000000000e+00 1851878480
4.890056 -2.015258 -2.238438 0.000000000000000e+00 1851878480
4.667969 -2.440788 -2.238438 0.000000000000000e+00 1851878480
4.555545 -2.652292 -2.238438 0.000000000000000e+00 1851878480
4.884750 -1.756789 -2.238438 0.000000000000000e+00 1851878480
4.775467 -1.967222 -2.238438 0.000000000000000e+00 1851878480
4.555224 -2.382710 -2.238438 0.000000000000000e+00 1851878480
4.443616 -2.588940 -2.238438 0.000000000000000e+00 1851878480
4.773566 -1.715247 -2.238438 0.000000000000000e+00 1851878480
4.665335 -1.921054 -2.238438 0.000000000000000e+00 1851878480
4.446967 -2.326941 -2.238438 0.000000000000000e+00 1851878480
4.336203 -2.528143 -2.238438 0.000000000000000e+00 1851878480
4.666571 -1.675275 -2.238438 0.000000000000000e+00 1851878480
4.559396 -1.876642 -2.238438 0.000000000000000e+00 1851878480
4.342925 -2.273346 -2.238438 0.000000000000000e+00 1851878480
4.233025 -2.469746 -2.238438 0.000000000000000e+00 1851878480
4.563519 -1.636774 -2.238438 0.000000000000000e+00 1851878480
4.457397 -1.833884 -2.238438 0.000000000000000e+00 1851878480
4.242839 -2.221788 -2.238438 0.000000000000000e+00 1851878480
4.133820 -2.413598 -2.238439 0.000000000000000e+00 1851878480
4.464177 -1.599664 -2.238438 0.000000000000000e+00 1851878480
4.359105 -1.792679 -2.238438 0.000000000000000e+00 1851878480
4.146471 -2.172144 -2.238438 0.000000000000000e+00 1851878480
4.038345 -2.359563 -2.238439 0.000000000000000e+00 1851878480
4.368337 -1.563859 -2.238438 0.000000000000000e+00 1851878480
4.264309 -1.752939 -2.238438 0.000000000000000e+00 1851878480
4.053603 -2.124304 -2.238438 0.000000000000000e+00 1851878480
3.946382 -2.307513 -2.238438 0.000000000000000e+00 1851878480
4.275806 -1.529294 -2.238438 0.000000000000000e+00 1851878480
4.172814 -1.714584 -2.238438 0.000000000000000e+00 1851878480
3.964037 -2.078167 -2.238438 0.000000000000000e+00 1851878480
3.857727 -2.257339 -2.238438 0.000000000000000e+00 1851878480
4.186402 -1.495893 -2.238438 0.000000000000000e+00 1851878480
4.084438 -1.677536 -2.238438 0.000000000000000e+00 1851878480
3.877585 -2.033633 -2.238438 0.000000000000000e+00 1851878480
3.772191 -2.208929 -2.238438 0.000000000000000e+00 1851878480
4.099954 -1.463601 -2.238438 0.000000000000000e+00 1851878480
3.999008 -1.641725 -2.238437 0.000000000000000e+00 1851878480
3.794076 -1.990616 -2.238438 0.000000000000000e+00 1851878480
3.689599 -2.162189 -2.238438 0.000000000000000e+00 1851878480
4.016309 -1.432354 -2.238438 0.000000000000000e+00 1851878480
3.916371 -1.607084 -2.238438 0.000000000000000e+00 1851878480
3.713349 -1.949031 -2.238438 0.000000000000000e+00 1851878480
3.609790 -2.117022 -2.238438 0.000000000000000e+00 1851878480
4.006150 -1.427338 -2.278728 0.000000000000000e+00 1634890835
3.836380 -1.573551 -2.238438 0.000000000000000e+00 1851878480
3.635254 -1.908803 -2.238438 0.000000000000000e+00 1851878480
3.532612 -2.073345 -2.238438 0.000000000000000e+00 1851878480
3.926265 -1.397497 -2.278727 0.000000000000000e+00 1634890835
3.758894 -1.541070 -2.238438 0.000000000000000e+00 1851878480
3.559654 -1.869857 -2.238438 0.000000000000000e+00 1851878480
3.457926 -2.031078 -2.238438 0.000000000000000e+00 1851878480
3.848819 -1.368569 -2.278728 0.000000000000000e+00 1634890835
3.683792 -1.509588 -2.238438 0.000000000000000e+00 1851878480
3.486422 -1.832134 -2.238438 0.000000000000000e+00 1851878480
3.385603 -1.990150 -2.238438 0.000000000000000e+00 1851878480
3.773688 -1.340507 -2.278728 0.000000000000000e+00 1634890835
3.610950 -1.479055 -2.238438 0.000000000000000e+00 1851878480
3.415433 -1.795569 -2.238438 0.000000000000000e+00 1851878480
3.315520 -1.950490 -2.238438 0.000000000000000e+00 1851878480
3.700758 -1.313266 -2.278728 0.000000000000000e+00 1634890835
3.540261 -1.449423 -2.238438 0.000000000000000e+00 1851878480
3.346580 -1.760102 -2.238438 0.000000000000000e+00 1851878480
3.247563 -1.912036 -2.238438 0.000000000000000e+00 1851878480
3.629925 -1.286810 -2.278728 0.000000000000000e+00 1634890835
3.471619 -1.420647 -2.238438 0.000000000000000e+00 1851878480
3.279752 -1.725677 -2.238438 0.000000000000000e+00 1851878480
3.181630 -1.874723 -2.238438 0.000000000000000e+00 1851878480
3.561091 -1.261101 -2.278728 0.000000000000000e+00 1634890835
3.466213 -1.417760 -2.278728 0.000000000000000e+00 1634890835
3.214857 -1.692249 -2.238438 0.000000000000000e+00 1851878480
3.117620 -1.838502 -2.238438 0.000000000000000e+00 1851878480
3.494164 -1.236102 -2.278728 0.000000000000000e+00 1634890835
3.400213 -1.390092 -2.278728 0.000000000000000e+00 1634890835
3.151801 -1.659767 -2.238438 0.000000000000000e+00 1851878480
3.055439 -1.803316 -2.238438 0.000000000000000e+00 1851878480
3.429051 -1.211786 -2.278728 0.000000000000000e+00 1634890835
3.336018 -1.363183 -2.278728 0.000000000000000e+00 1634890835
3.090495 -1.628188 -2.238437 0.000000000000000e+00 1851878480
2.995003 -1.769118 -2.238438 0.000000000000000e+00 1851878480
3.365676 -1.188117 -2.278728 0.000000000000000e+00 1634890835
3.273544 -1.336997 -2.278728 0.000000000000000e+00 1634890835
3.030861 -1.597471 -2.238438 0.000000000000000e+00 1851878480
2.936229 -1.735860 -2.238438 0.000000000000000e+00 1851878480
3.303957 -1.165065 -2.278728 0.000000000000000e+00 1634890835
3.212714 -1.311497 -2.278728 0.000000000000000e+00 1634890835
2.972820 -1.567573 -2.238438 0.000000000000000e+00 1851878480
2.879038 -1.703499 -2.238438 0.000000000000000e+00 1851878480
3.243824 -1.142608 -2.278728 0.000000000000000e+00 1634890835
3.153457 -1.286659 -2.278728 0.000000000000000e+00 1634890835
2.916301 -1.538460 -2.238438 0.000000000000000e+00 1851878480
2.823361 -1.671995 -2.238438 0.000000000000000e+00 1851878480
3.185206 -1.120717 -2.278728 0.000000000000000e+00 1634890835
3.095704 -1.262450 -2.278728 0.000000000000000e+00 1634890835
2.861239 -1.510097 -2.238438 0.000000000000000e+00 1851878480
2.769130 -1.641311 -2.238438 0.000000000000000e+00 1851878480
3.128043 -1.099369 -2.278728 0.000000000000000e+00 1634890835
3.039389 -1.238845 -2.278728 0.000000000000000e+00 1634890835
2.807567 -1.482452 -2.238438 0.000000000000000e+00 1851878480
2.716283 -1.611408 -2.238438 0.000000000000000e+00 1851878480
3.072267 -1.078541 -2.278728 0.000000000000000e+00 1634890835
2.984452 -1.215816 -2.278728 0.000000000000000e+00 1634890835
2.755227 -1.455490 -2.238438 0.000000000000000e+00 1851878480
0.840392 -0.499000 -0.705943 0.000000000000000e+00 1886740808
3.017823 -1.058209 -2.278728 0.000000000000000e+00 1634890835
2.930833 -1.193341 -2.278728 0.000000000000000e+00 1634890835
2.704159 -1.429187 -2.238438 0.000000000000000e+00 1851878480
0.824540 -0.490031 -0.705943 0.000000000000000e+00 1886740808
2.964657 -1.038357 -2.278728 0.000000000000000e+00 1634890835
2.878476 -1.171397 -2.278725 0.000000000000000e+00 1634890835
0.837099 -0.442630 -0.705943 0.000000000000000e+00 1886740808
0.809070 -0.481279 -0.705943 0.000000000000000e+00 1886740808
2.912717 -1.018962 -2.278728 0.000000000000000e+00 1634890835
2.827337 -1.149958 -2.278725 0.000000000000000e+00 1634890835
0.821748 -0.434723 -0.705943 0.000000000000000e+00 1886740808
0.793966 -0.472733 -0.705943 0.000000000000000e+00 1886740808
2.861950 -1.000005 -2.278726 0.000000000000000e+00 1634890835
2.777361 -1.129012 -2.278725 0.000000000000000e+00 1634890835
0.806751 -0.426998 -0.705943 0.000000000000000e+00 1886740808
0.779213 -0.464386 -0.705943 0.000000000000000e+00 1886740808
2.812315 -0.981472 -2.278726 0.000000000000000e+00 1634890835
2.728503 -1.108533 -2.278726 0.000000000000000e+00 1634890835
0.792094 -0.419448 -0.705943 0.000000000000000e+00 1886740808
0.764797 -0.456231 -0.705943 0.000000000000000e+00 1886740808
2.763765 -0.963342 -2.278726 0.000000000000000e+00 1634890835
0.830479 -0.337215 -0.705943 0.000000000000000e+00 1886740808
0.777762 -0.412066 -0.705943 0.000000000000000e+00 1886740808
0.750702 -0.448257 -0.705943 0.000000000000000e+00 1886740808
0.841489 -0.292946 -0.705943 0.000000000000000e+00 1886740808
0.815995 -0.331144 -0.705943 0.000000000000000e+00 1886740808
0.763743 -0.404845 -0.705943 0.000000000000000e+00 1886740808
0.744297 -0.444868 -0.713011 0.000000000000000e+00 1886740808
0.827083 -0.287567 -0.705943 0.000000000000000e+00 1886740808
0.801817 -0.325202 -0.705943 0.000000000000000e+00 1886740808
0.750025 -0.397779 -0.705943 0.000000000000000e+00 1886740808
0.744297 -0.445312 -0.726303 0.000000000000000e+00 1886740808
0.812975 -0.282300 -0.705943 0.000000000000000e+00 1886740808
0.787936 -0.319383 -0.705943 0.000000000000000e+00 1886740808
0.744297 -0.394949 -0.713323 0.000000000000000e+00 1886740808
0.744297 -0.445763 -0.739802 0.000000000000000e+00 1886740808
0.799154 -0.277139 -0.705943 0.000000000000000e+00 1886740808
0.774339 -0.313684 -0.705943 0.000000000000000e+00 1886740808
0.744297 -0.395159 -0.726290 0.000000000000000e+00 1886740808
0.744297 -0.446221 -0.753515 0.000000000000000e+00 1886740808
0.785611 -0.272084 -0.705943 0.000000000000000e+00 1886740808
0.761015 -0.308100 -0.705943 0.000000000000000e+00 1886740808
0.744297 -0.395373 -0.739459 0.000000000000000e+00 1886740808
0.744297 -0.446686 -0.767449 0.000000000000000e+00 1886740808
0.772335 -0.267127 -0.705943 0.000000000000000e+00 1886740808
0.747955 -0.302626 -0.705943 0.000000000000000e+00 1886740808
0.744297 -0.395590 -0.752835 0.000000000000000e+00 1886740808
0.744297 -0.447159 -0.781612 0.000000000000000e+00 1886740808
0.759317 -0.262267 -0.705943 0.000000000000000e+00 1886740808
0.744297 -0.300957 -0.714727 0.000000000000000e+00 1886740808
0.744297 -0.395811 -0.766428 0.000000000000000e+00 1886740808
0.744297 -0.447640 -0.796012 0.000000000000000e+00 1886740808
0.746546 -0.257499 -0.705943 0.000000000000000e+00 1886740808
0.744297 -0.300766 -0.727151 0.000000000000000e+00 1886740808
0.744297 -0.396036 -0.780243 0.000000000000000e+00 1886740808
2.092192 -1.259677 -2.278726 0.000000000000000e+00 1634890835
0.744297 -0.256362 -0.715833 0.000000000000000e+00 1886740808
0.744297 -0.300571 -0.739769 0.000000000000000e+00 1886740808
0.744297 -0.396264 -0.794289 0.000000000000000e+00 1886740808
2.054433 -1.238318 -2.278726 0.000000000000000e+00 1634890835
0.744297 -0.255996 -0.728034 0.000000000000000e+00 1886740808
0.744297 -0.300374 -0.752588 0.000000000000000e+00 1886740808
2.097577 -1.117404 -2.278726 0.000000000000000e+00 1634890835
2.017381 -1.217360 -2.278726 0.000000000000000e+00 1634890835
0.744297 -0.255624 -0.740426 0.000000000000000e+00 1886740808
0.744297 -0.300173 -0.765613 0.000000000000000e+00 1886740808
2.060543 -1.098330 -2.278726 0.000000000000000e+00 1634890835
0.796275 -0.481053 -0.915943 0.000000000000000e+00 1886740808
0.744297 -0.255247 -0.753015 0.000000000000000e+00 1886740808
0.744297 -0.299970 -0.778852 0.000000000000000e+00 1886740808
2.024177 -1.079599 -2.278726 0.000000000000000e+00 1634890835
0.784637 -0.474577 -0.919124 0.000000000000000e+00 1886740808
0.744297 -0.254863 -0.765808 0.000000000000000e+00 1886740808
0.744297 -0.299763 -0.792313 0.000000000000000e+00 1886740808
1.988452 -1.061198 -2.278726 0.000000000000000e+00 1634890835
0.775674 -0.469714 -0.925310 0.000000000000000e+00 1886740808
0.744297 -0.254474 -0.778812 0.000000000000000e+00 1886740808
2.104271 -0.846891 -2.278726 0.000000000000000e+00 1634890835
0.797389 -0.425818 -0.930214 0.000000000000000e+00 1886740808
0.768824 -0.466131 -0.933991 0.000000000000000e+00 1886740808
0.744297 -0.254077 -0.792034 0.000000000000000e+00 1886740808
2.068529 -0.831911 -2.278726 0.000000000000000e+00 1634890835
0.785519 -0.419748 -0.932845 0.000000000000000e+00 1886740808
0.764551 -0.464112 -0.945880 0.000000000000000e+00 1886740808
0.744297 -0.253674 -0.805481 0.000000000000000e+00 1886740808
2.033383 -0.817181 -2.278726 0.000000000000000e+00 1634890835
0.776432 -0.415161 -0.938649 0.000000000000000e+00 1886740808
1.808581 -1.099258 -2.278726 0.000000000000000e+00 1634890835
2.070471 -0.704526 -2.278726 0.000000000000000e+00 1634890835
1.998813 -0.802691 -2.278726 0.000000000000000e+00 1634890835
0.769418 -0.411685 -0.946932 0.000000000000000e+00 1886740808
1.775830 -1.080734 -2.278726 0.000000000000000e+00 1634890835
2.035871 -0.691612 -2.278726 0.000000000000000e+00 1634890835
1.964799 -0.788435 -2.278726 0.000000000000000e+00 1634890835
0.764807 -0.409493 -0.958245 0.000000000000000e+00 1886740808
0.749057 -0.456456 -0.978943 0.000000000000000e+00 1886740808
2.001817 -0.678901 -2.278726 0.000000000000000e+00 1634890835
1.931323 -0.774405 -2.278726 0.000000000000000e+00 1634890835
0.767173 -0.411042 -0.978591 0.000000000000000e+00 1886740808
1.711907 -1.044581 -2.278726 0.000000000000000e+00 1634890835
1.968293 -0.666389 -2.278726 0.000000000000000e+00 1634890835
0.797682 -0.319597 -0.957506 0.000000000000000e+00 1886740808
1.754622 -0.940768 -2.278726 0.000000000000000e+00 1634890835
1.680700 -1.026932 -2.278726 0.000000000000000e+00 1634890835
1.935279 -0.654068 -2.278726 0.000000000000000e+00 1634890835
0.785811 -0.314588 -0.959662 0.000000000000000e+00 1886740808
0.751063 -0.402982 -0.993125 0.000000000000000e+00 1886740808
1.649975 -1.009555 -2.278726 0.000000000000000e+00 1634890835
1.902761 -0.641932 -2.278726 0.000000000000000e+00 1634890835
0.776732 -0.310699 -0.965106 0.000000000000000e+00 1886740808
1.692477 -0.908759 -2.278726 0.000000000000000e+00 1634890835
1.619716 -0.992442 -2.278726 0.000000000000000e+00 1634890835
0.796758 -0.268312 -0.970531 0.000000000000000e+00 1886740808
0.769656 -0.307612 -0.973023 0.000000000000000e+00 1886740808
1.662097 -0.893113 -2.278726 0.000000000000000e+00 1634890835
1.589906 -0.975583 -2.278726 0.000000000000000e+00 1634890835
0.785169 -0.263918 -0.972833 0.000000000000000e+00 1886740808
0.764880 -0.305443 -0.983926 0.000000000000000e+00 1886740808
1.632161 -0.877694 -2.278726 0.000000000000000e+00 1634890835
1.560533 -0.958973 -2.278726 0.000000000000000e+00 1634890835
0.776223 -0.260416 -0.978304 0.000000000000000e+00 1886740808
0.765620 -0.305472 -1.002184 0.000000000000000e+00 1886740808
1.602653 -0.862498 -2.278726 0.000000000000000e+00 1634890835
1.531581 -0.942599 -2.278726 0.000000000000000e+00 1634890835
0.769283 -0.257587 -0.986298 0.000000000000000e+00 1886740808
1.710671 -0.681928 -2.278726 0.000000000000000e+00 1634890835
1.573560 -0.847513 -2.278726 0.000000000000000e+00 1634890835
1.503037 -0.926458 -2.278726 0.000000000000000e+00 1634890835
0.764663 -0.255533 -0.997358 0.000000000000000e+00 1886740808
1.680924 -0.669462 -2.278726 0.000000000000000e+00 1634890835
1.544869 -0.832737 -2.278726 0.000000000000000e+00 1634890835
1.474889 -0.910540 -2.278726 0.000000000000000e+00 1634890835
0.766230 -0.255536 -1.016778 0.000000000000000e+00 1886740808
0.744047 -0.296056 -1.026580 0.000000000000000e+00 1886740808
1.516567 -0.818161 -2.278726 0.000000000000000e+00 1634890835
1.447124 -0.894838 -2.278726 0.000000000000000e+00 1634890835
1.687758 -0.561695 -2.278726 0.000000000000000e+00 1634890835
1.622623 -0.645028 -2.278726 0.000000000000000e+00 1634890835
1.488642 -0.803779 -2.278726 0.000000000000000e+00 1634890835
1.419728 -0.879347 -2.278726 0.000000000000000e+00 1634890835
0.752068 -0.249761 -1.033203 0.000000000000000e+00 1886740808
1.594046 -0.633052 -2.278726 0.000000000000000e+00 1634890835
1.461082 -0.789587 -2.278726 0.000000000000000e+00 1634890835
1.392691 -0.864060 -2.278726 0.000000000000000e+00 1634890835
1.629982 -0.540137 -2.278726 0.000000000000000e+00 1634890835
1.565837 -0.621229 -2.278726 0.000000000000000e+00 1634890835
1.433877 -0.775575 -2.278726 0.000000000000000e+00 1634890835
1.366004 -0.848968 -2.278726 0.000000000000000e+00 1634890835
1.601641 -0.529563 -2.278726 0.000000000000000e+00 1634890835
1.537981 -0.609555 -2.278726 0.000000000000000e+00 1634890835
1.407014 -0.761740 -2.278726 0.000000000000000e+00 1634890835
1.339653 -0.834067 -2.278726 0.000000000000000e+00 1634890835
1.573652 -0.519120 -2.278726 0.000000000000000e+00 1634890835
1.510471 -0.598026 -2.278726 0.000000000000000e+00 1634890835
1.380484 -0.748077 -2.278726 0.000000000000000e+00 1634890835
1.313627 -0.819351 -2.278726 0.000000000000000e+00 1634890835
1.546004 -0.508802 -2.278726 0.000000000000000e+00 1634890835
1.483294 -0.586636 -2.278726 0.000000000000000e+00 1634890835
1.354277 -0.734580 -2.278726 0.000000000000000e+00 1634890835
1.287920 -0.804815 -2.278726 0.000000000000000e+00 1634890835
1.518685 -0.498610 -2.278726 0.000000000000000e+00 1634890835
1.456443 -0.575382 -2.278726 0.000000000000000e+00 1634890835
1.328382 -0.721244 -2.278726 0.000000000000000e+00 1634890835
1.262519 -0.790452 -2.278727 0.000000000000000e+00 1634890835
1.491688 -0.488535 -2.278726 0.000000000000000e+00 1634890835
1.429906 -0.564261 -2.278726 0.000000000000000e+00 1634890835
1.302791 -0.708064 -2.278726 0.000000000000000e+00 1634890835
1.237416 -0.776258 -2.278727 0.000000000000000e+00 1634890835
1.465000 -0.478578 -2.278726 0.000000000000000e+00 1634890835
1.403673 -0.553268 -2.278726 0.000000000000000e+00 1634890835
1.277492 -0.695035 -2.278726 0.000000000000000e+00 1634890835
1.212600 -0.762228 -2.278726 0.000000000000000e+00 1634890835
1.438615 -0.468734 -2.278726 0.000000000000000e+00 1634890835
1.377737 -0.542399 -2.278726 0.000000000000000e+00 1634890835
1.252480 -0.682154 -2.278726 0.000000000000000e+00 1634890835
1.188066 -0.748353 -2.278726 0.000000000000000e+00 1634890835
1.412522 -0.458998 -2.278726 0.000000000000000e+00 1634890835
1.352087 -0.531649 -2.278726 0.000000000000000e+00 1634890835
1.227743 -0.669413 -2.278726 0.000000000000000e+00 1634890835
1.163801 -0.734634 -2.278727 0.000000000000000e+00 1634890835
1.386713 -0.449370 -2.278726 0.000000000000000e+00 1634890835
1.326717 -0.521017 -2.278726 0.000000000000000e+00 1634890835
1.203274 -0.656813 -2.278726 0.000000000000000e+00 1634890835
1.139799 -0.721064 -2.278727 0.000000000000000e+00 1634890835
1.361180 -0.439844 -2.278726 0.000000000000000e+00 1634890835
1.301617 -0.510498 -2.278726 0.000000000000000e+00 1634890835
1.179066 -0.644345 -2.278727 0.000000000000000e+00 1634890835
1.116052 -0.707638 -2.278726 0.000000000000000e+00 1634890835
1.335915 -0.430417 -2.278726 0.000000000000000e+00 1634890835
1.276778 -0.500089 -2.278726 0.000000000000000e+00 1634890835
1.155109 -0.632009 -2.278726 0.000000000000000e+00 1634890835
1.092553 -0.694350 -2.278726 0.000000000000000e+00 1634890835
1.310909 -0.421088 -2.278726 0.000000000000000e+00 1634890835
1.252195 -0.489786 -2.278726 0.000000000000000e+00 1634890835
1.131397 -0.619796 -2.278726 0.000000000000000e+00 1634890835
1.069293 -0.681200 -2.278727 0.000000000000000e+00 1634890835
1.286155 -0.411854 -2.278726 0.000000000000000e+00 1634890835
1.227859 -0.479588 -2.278726 0.000000000000000e+00 1634890835
1.107924 -0.607707 -2.278726 0.000000000000000e+00 1634890835
1.046265 -0.668181 -2.278727 0.000000000000000e+00 1634890835
1.261647 -0.402710 -2.278726 0.000000000000000e+00 1634890835
1.203763 -0.469490 -2.278726 0.000000000000000e+00 1634890835
1.084679 -0.595737 -2.278726 0.000000000000000e+00 1634890835
1.023464 -0.655289 -2.278727 0.000000000000000e+00 1634890835
1.237376 -0.393657 -2.278727 0.000000000000000e+00 1634890835
1.179899 -0.459490 -2.278726 0.000000000000000e+00 1634890835
1.061658 -0.583882 -2.278726 0.000000000000000e+00 1634890835
1.000880 -0.642521 -2.278726 0.000000000000000e+00 1634890835
1.213336 -0.384687 -2.278726 0.000000000000000e+00 1634890835
1.156262 -0.449584 -2.278726 0.000000000000000e+00 1634890835
1.038854 -0.572138 -2.278726 0.000000000000000e+00 1634890835
0.978510 -0.629874 -2.278727 0.000000000000000e+00 1634890835
1.189520 -0.375802 -2.278727 0.000000000000000e+00 1634890835
1.132843 -0.439770 -2.278726 0.000000000000000e+00 1634890835
1.016260 -0.560501 -2.278726 0.000000000000000e+00 1634890835
0.956343 -0.617343 -2.278726 0.000000000000000e+00 1634890835
1.165920 -0.366999 -2.278726 0.000000000000000e+00 1634890835
1.109637 -0.430046 -2.278727 0.000000000000000e+00 1634890835
0.993869 -0.548970 -2.278726 0.000000000000000e+00 1634890835
0.934377 -0.604923 -2.278727 0.000000000000000e+00 1634890835
1.142532 -0.358274 -2.278726 0.000000000000000e+00 1634890835
1.086638 -0.420407 -2.278727 0.000000000000000e+00 1634890835
0.971676 -0.537541 -2.278726 0.000000000000000e+00 1634890835
0.912604 -0.592614 -2.278727 0.000000000000000e+00 1634890835
1.119349 -0.349625 -2.278726 0.000000000000000e+00 1634890835
1.063838 -0.410853 -2.278726 0.000000000000000e+00 1634890835
0.949675 -0.526211 -2.278727 0.000000000000000e+00 1634890835
0.891018 -0.580410 -2.278726 0.000000000000000e+00 1634890835
1.096363 -0.341051 -2.278727 0.000000000000000e+00 1634890835
1.041233 -0.401379 -2.278727 0.000000000000000e+00 1634890835
0.927858 -0.514976 -2.278727 0.000000000000000e+00 1634890835
0.869613 -0.568309 -2.278726 0.000000000000000e+00 1634890835
1.073571 -0.332549 -2.278726 0.000000000000000e+00 1634890835
1.018817 -0.391985 -2.278727 0.000000000000000e+00 1634890835
0.906222 -0.503834 -2.278727 0.000000000000000e+00 1634890835
0.848384 -0.556308 -2.278727 0.000000000000000e+00 1634890835
1.050966 -0.324117 -2.278726 0.000000000000000e+00 1634890835
0.996582 -0.382668 -2.278726 0.000000000000000e+00 1634890835
0.884761 -0.492782 -2.278726 0.000000000000000e+00 1634890835
0.827326 -0.544404 -2.278726 0.000000000000000e+00 1634890835
1.028542 -0.315752 -2.278727 0.000000000000000e+00 1634890835
0.974526 -0.373425 -2.278726 0.000000000000000e+00 1634890835
0.863469 -0.481816 -2.278727 0.000000000000000e+00 1634890835
0.451009 -0.297860 -1.274409 0.000000000000000e+00 1936876886
1.006294 -0.307453 -2.278726 0.000000000000000e+00 1634890835
0.952641 -0.364254 -2.278726 0.000000000000000e+00 1634890835
0.842340 -0.470936 -2.278726 0.000000000000000e+00 1634890835
0.433312 -0.287260 -1.256711 0.000000000000000e+00 1936876886
0.984217 -0.299218 -2.278727 0.000000000000000e+00 1634890835
0.930923 -0.355153 -2.278726 0.000000000000000e+00 1634890835
0.821371 -0.460137 -2.278727 0.000000000000000e+00 1634890835
0.421241 -0.280364 -1.254561 0.000000000000000e+00 1936876886
0.962305 -0.291044 -2.278726 0.000000000000000e+00 1634890835
0.909366 -0.346118 -2.278726 0.000000000000000e+00 1634890835
0.445940 -0.250343 -1.269340 0.000000000000000e+00 1936876886
0.335122 -0.223967 -1.025456 0.000000000000000e+00 1953264973
0.940553 -0.282931 -2.278727 0.000000000000000e+00 1634890835
0.887966 -0.337151 -2.278726 0.000000000000000e+00 1634890835
0.428905 -0.241307 -1.253204 0.000000000000000e+00 1936876886
0.306467 -0.205701 -0.964030 0.000000000000000e+00 1953264973
0.495092 -0.148090 -1.227673 0.000000000000000e+00 1936876886
0.866717 -0.328247 -2.278727 0.000000000000000e+00 1634890835
0.358548 -0.202185 -1.075943 0.000000000000000e+00 1953264973
0.281218 -0.189605 -0.909905 0.000000000000000e+00 1953264973
0.483539 -0.143780 -1.227675 0.000000000000000e+00 1936876886
0.845615 -0.319403 -2.278727 0.000000000000000e+00 1634890835
0.326689 -0.184660 -1.007379 0.000000000000000e+00 1953264973
0.258798 -0.175313 -0.861843 0.000000000000000e+00 1953264973
0.472063 -0.139500 -1.227674 0.000000000000000e+00 1936876886
0.824655 -0.310620 -2.278727 0.000000000000000e+00 1634890835
0.299049 -0.169461 -0.948128 0.000000000000000e+00 1953264973
0.238752 -0.162534 -0.818872 0.000000000000000e+00 1953264973
