# .PCD v0.7 - Point Cloud Data file format
VERSION 0.7
FIELDS x y z rgb label
SIZE 4 4 4 4 4
TYPE F F F F U
COUNT 1 1 1 1 1
WIDTH 540
HEIGHT 1
VIEWPOINT 0 0 0 1 0 0 0
POINTS 540
DATA ascii
41.299511 -15.366150 -2.249025 0.000000000000000e+00 1851878480
34.631401 -14.491223 -1.787271 0.000000000000000e+00 1851878480
30.760363 -15.868849 -1.356669 0.000000000000000e+00 1851878480
30.075314 -17.065639 -1.183257 0.000000000000000e+00 1851878480
31.304369 -11.638477 -1.988899 0.000000000000000e+00 1851878480
30.500162 -12.758067 -1.859360 0.000000000000000e+00 1851878480
28.641584 -14.780356 -1.548803 0.000000000000000e+00 1851878480
27.929045 -15.857130 -1.386943 0.000000000000000e+00 1851878480
28.881527 -10.729560 -2.097343 0.000000000000000e+00 1851878480
28.160328 -11.775222 -1.980347 0.000000000000000e+00 1851878480
27.248335 -14.065739 -1.745434 0.000000000000000e+00 1851878480
26.472168 -15.038836 -1.588000 0.000000000000000e+00 1851878480
26.783571 -9.942603 -2.188530 0.000000000000000e+00 1851878480
26.474207 -11.066277 -2.109858 0.000000000000000e+00 1851878480
25.768097 -13.305751 -1.908114 0.000000000000000e+00 1851878480
24.839653 -14.119720 -1.746945 0.000000000000000e+00 1851878480
24.496897 -9.086832 -2.224666 0.000000000000000e+00 1851878480
24.682117 -10.313556 -2.198597 0.000000000000000e+00 1851878480
23.908171 -12.349168 -2.009619 0.000000000000000e+00 1851878480
23.435436 -13.329404 -1.890899 0.000000000000000e+00 1851878480
22.304176 -8.267167 -2.228799 0.000000000000000e+00 1851878480
22.555075 -9.421454 -2.220997 0.000000000000000e+00 1851878480
22.120226 -11.429208 -2.081002 0.000000000000000e+00 1851878480
21.746897 -12.376329 -1.980240 0.000000000000000e+00 1851878480
20.448589 -7.573607 -2.229973 0.000000000000000e+00 1851878480
20.561842 -8.585833 -2.218143 0.000000000000000e+00 1851878480
20.447025 -10.567964 -2.128825 0.000000000000000e+00 1851878480
20.051607 -11.418300 -2.034228 0.000000000000000e+00 1851878480
18.927843 -7.005008 -2.237113 0.000000000000000e+00 1851878480
18.967524 -7.917315 -2.224859 0.000000000000000e+00 1851878480
19.122976 -9.886718 -2.183263 0.000000000000000e+00 1851878480
18.721970 -10.667470 -2.094259 0.000000000000000e+00 1851878480
17.577662 -6.500334 -2.238437 0.000000000000000e+00 1851878480
17.620178 -7.352313 -2.233117 0.000000000000000e+00 1851878480
17.708927 -9.158500 -2.200243 0.000000000000000e+00 1851878480
17.650085 -10.062716 -2.158502 0.000000000000000e+00 1851878480
16.396889 -6.059025 -2.238437 0.000000000000000e+00 1851878480
16.435862 -6.855714 -2.238438 0.000000000000000e+00 1851878480
16.461519 -8.516045 -2.211466 0.000000000000000e+00 1851878480
16.505926 -9.416018 -2.191178 0.000000000000000e+00 1851878480
8.776179 -3.240508 -1.278723 1.880790849211783e-38 1684957512
15.366792 -6.407503 -2.238437 0.000000000000000e+00 1851878480
15.402794 -7.970828 -2.225102 0.000000000000000e+00 1851878480
15.402014 -8.791530 -2.206073 0.000000000000000e+00 1851878480
8.315399 -3.068000 -1.288145 1.880790849211783e-38 1684957512
14.426387 -6.013242 -2.238438 0.000000000000000e+00 1851878480
14.478450 -7.494841 -2.238437 0.000000000000000e+00 1851878480
14.439067 -8.246815 -2.219884 0.000000000000000e+00 1851878480
8.315399 -3.065632 -1.364876 1.880790849211783e-38 1684957512
13.592604 -5.663688 -2.238438 0.000000000000000e+00 1851878480
13.584810 -7.034463 -2.238438 0.000000000000000e+00 1851878480
13.584657 -7.763483 -2.231673 0.000000000000000e+00 1851878480
8.315399 -3.063257 -1.441790 1.880790849211783e-38 1684957512
12.848187 -5.351590 -2.238438 0.000000000000000e+00 1851878480
12.793028 -6.626554 -2.238437 0.000000000000000e+00 1851878480
12.802251 -7.320753 -2.238438 0.000000000000000e+00 1851878480
8.315398 -3.060874 -1.518899 1.880790849211783e-38 1684957512
12.179387 -5.071207 -2.238437 0.000000000000000e+00 1851878480
12.086507 -6.262574 -2.238438 0.000000000000000e+00 1851878480
12.070436 -6.906454 -2.238438 0.000000000000000e+00 1851878480
8.315398 -3.058489 -1.596213 1.880790849211783e-38 1684957512
11.575185 -4.817896 -2.238437 0.000000000000000e+00 1851878480
11.452118 -5.935751 -2.238438 0.000000000000000e+00 1851878480
11.415787 -6.535828 -2.238438 0.000000000000000e+00 1851878480
8.315398 -3.056096 -1.673745 1.880790849211783e-38 1684957512
11.026561 -4.587886 -2.238438 0.000000000000000e+00 1851878480
10.879250 -5.640619 -2.238438 0.000000000000000e+00 1851878480
10.826597 -6.202270 -2.238438 0.000000000000000e+00 1851878480
8.315397 -3.053697 -1.751508 1.880790849211783e-38 1684957512
10.526113 -4.378077 -2.238438 0.000000000000000e+00 1851878480
10.359290 -5.372747 -2.238438 0.000000000000000e+00 1851878480
10.293447 -5.900439 -2.238437 0.000000000000000e+00 1851878480
8.315398 -3.051296 -1.829518 1.880790849211783e-38 1684957512
10.067681 -4.185881 -2.238438 0.000000000000000e+00 1851878480
9.885146 -5.128488 -2.238437 0.000000000000000e+00 1851878480
9.808614 -5.625964 -2.238437 0.000000000000000e+00 1851878480
8.315396 -3.048884 -1.907781 1.880790849211783e-38 1684957512
9.646152 -4.009161 -2.238438 0.000000000000000e+00 1851878480
9.450988 -4.904820 -2.238438 0.000000000000000e+00 1851878480
9.365773 -5.375264 -2.238438 0.000000000000000e+00 1851878480
8.315396 -3.046467 -1.986313 1.880790849211783e-38 1684957512
9.257171 -3.846085 -2.238437 0.000000000000000e+00 1851878480
9.051879 -4.699212 -2.238439 0.000000000000000e+00 1851878480
8.959615 -5.145332 -2.238438 0.000000000000000e+00 1851878480
8.315397 -3.044040 -2.065127 1.880790849211783e-38 1684957512
8.897067 -3.695113 -2.238438 0.000000000000000e+00 1851878480
8.683691 -4.509530 -2.238438 0.000000000000000e+00 1851878480
8.585716 -4.933659 -2.238438 0.000000000000000e+00 1851878480
8.315397 -3.041610 -2.144236 1.880790849211783e-38 1684957512
8.562681 -3.554927 -2.238438 0.000000000000000e+00 1851878480
8.342911 -4.333971 -2.238438 0.000000000000000e+00 1851878480
8.240318 -4.738128 -2.238438 0.000000000000000e+00 1851878480
8.315397 -3.039170 -2.223653 1.880790849211783e-38 1684957512
8.251312 -3.424389 -2.238438 0.000000000000000e+00 1851878480
8.026540 -4.170989 -2.238438 0.000000000000000e+00 1851878480
7.920232 -4.556929 -2.238437 0.000000000000000e+00 1851878480
8.080901 -2.951082 -2.238438 0.000000000000000e+00 1851878480
7.960613 -3.302520 -2.238438 0.000000000000000e+00 1851878480
7.732002 -4.019248 -2.238439 0.000000000000000e+00 1851878480
7.622732 -4.388512 -2.238438 0.000000000000000e+00 1851878480
7.809419 -2.849625 -2.238438 0.000000000000000e+00 1851878480
7.688568 -3.188470 -2.238438 0.000000000000000e+00 1851878480
7.457074 -3.877617 -2.238438 0.000000000000000e+00 1851878480
7.345471 -4.231554 -2.238438 0.000000000000000e+00 1851878480
7.554513 -2.754369 -2.238438 0.000000000000000e+00 1851878480
7.433393 -3.081490 -2.238438 0.000000000000000e+00 1851878480
7.199822 -3.745090 -2.238438 0.000000000000000e+00 1851878480
7.086407 -4.084904 -2.238438 0.000000000000000e+00 1851878480
7.314680 -2.664744 -2.238438 0.000000000000000e+00 1851878480
7.193531 -2.980934 -2.238438 0.000000000000000e+00 1851878480
6.958561 -3.620799 -2.238438 0.000000000000000e+00 1851878480
6.843773 -3.947547 -2.238438 0.000000000000000e+00 1851878480
7.088573 -2.580256 -2.238438 0.000000000000000e+00 1851878480
6.967604 -2.886218 -2.238438 0.000000000000000e+00 1851878480
6.731797 -3.503979 -2.238438 0.000000000000000e+00 1851878480
6.616007 -3.818614 -2.238438 0.000000000000000e+00 1851878480
6.875041 -2.500460 -2.238438 0.000000000000000e+00 1851878480
6.754415 -2.796840 -2.238438 0.000000000000000e+00 1851878480
6.518245 -3.393965 -2.238438 0.000000000000000e+00 1851878480
6.401761 -3.697335 -2.238438 0.000000000000000e+00 1851878480
6.673020 -2.424968 -2.238438 0.000000000000000e+00 1851878480
6.552879 -2.712351 -2.238439 0.000000000000000e+00 1851878480
6.316745 -3.290164 -2.238438 0.000000000000000e+00 1851878480
6.199834 -3.583028 -2.238438 0.000000000000000e+00 1851878480
6.481579 -2.353432 -2.238438 0.000000000000000e+00 1851878480
6.362038 -2.632345 -2.238438 0.000000000000000e+00 1851878480
6.126279 -3.192042 -2.238438 0.000000000000000e+00 1851878480
6.009160 -3.475096 -2.238438 0.000000000000000e+00 1851878480
6.299883 -2.285539 -2.238438 0.000000000000000e+00 1851878480
6.181037 -2.556466 -2.238438 0.000000000000000e+00 1851878480
5.945936 -3.099138 -2.238438 0.000000000000000e+00 1851878480
5.828795 -3.372998 -2.238438 0.000000000000000e+00 1851878480
6.127177 -2.221004 -2.238438 0.000000000000000e+00 1851878480
6.009108 -2.484385 -2.238438 0.000000000000000e+00 1851878480
5.774899 -3.011026 -2.238438 0.000000000000000e+00 1851878480
5.657900 -3.276261 -2.238438 0.000000000000000e+00 1851878480
5.962794 -2.159581 -2.238438 0.000000000000000e+00 1851878480
5.845567 -2.415826 -2.238438 0.000000000000000e+00 1851878480
5.612449 -2.927340 -2.238438 0.000000000000000e+00 1851878480
5.495727 -3.184460 -2.238438 0.000000000000000e+00 1851878480
5.806120 -2.101041 -2.238438 0.000000000000000e+00 1851878480
5.689786 -2.350520 -2.238438 0.000000000000000e+00 1851878480
5.457929 -2.847737 -2.238438 0.000000000000000e+00 1851878480
5.341595 -3.097216 -2.238437 0.000000000000000e+00 1851878480
5.656606 -2.045174 -2.238438 0.000000000000000e+00 1851878480
5.541208 -2.288233 -2.238438 0.000000000000000e+00 1851878480
5.310750 -2.771918 -2.238438 0.000000000000000e+00 1851878480
5.194902 -3.014181 -2.238438 0.000000000000000e+00 1851878480
5.513750 -1.991797 -2.238438 0.000000000000000e+00 1851878480
5.399323 -2.228750 -2.238438 0.000000000000000e+00 1851878480
5.170380 -2.699605 -2.238438 0.000000000000000e+00 1851878480
5.055099 -2.935050 -2.238438 0.000000000000000e+00 1851878480
5.377092 -1.940738 -2.238438 0.000000000000000e+00 1851878480
5.263663 -2.171881 -2.238438 0.000000000000000e+00 1851878480
5.036331 -2.630551 -2.238438 0.000000000000000e+00 1851878480
4.921688 -2.859535 -2.238438 0.000000000000000e+00 1851878480
5.246229 -1.891842 -2.238438 0.000000000000000e+00 1851878480
5.133818 -2.117447 -2.238438 0.000000000000000e+00 1851878480
4.908175 -2.564531 -2.238438 0.000000000000000e+00 1851878480
4.794224 -2.787388 -2.238437 0.000000000000000e+00 1851878480
5.120777 -1.844970 -2.238438 0.000000000000000e+00 1851878480
5.009399 -2.065289 -2.238438 0.000000000000000e+00 1851878480
4.785507 -2.501341 -2.238438 0.000000000000000e+00 1851878480
4.672302 -2.718376 -2.238437 0.000000000000000e+00 1851878480
5.000390 -1.799992 -2.238438 0.000000000000000e+00 1851878480
4.890056 -2.015258 -2.238438 0.000000000000000e+00 1851878480
4.667969 -2.440788 -2.238438 0.000000000000000e+00 1851878480
4.555544 -2.652292 -2.238438 0.000000000000000e+00 1851878480
4.884749 -1.756789 -2.238437 0.000000000000000e+00 1851878480
4.775467 -1.967222 -2.238438 0.000000000000000e+00 1851878480
4.555223 -2.382709 -2.238438 0.000000000000000e+00 1851878480
4.443616 -2.588939 -2.238438 0.000000000000000e+00 1851878480
4.773564 -1.715247 -2.238437 0.000000000000000e+00 1851878480
4.665335 -1.921054 -2.238438 0.000000000000000e+00 1851878480
4.446967 -2.326941 -2.238438 0.000000000000000e+00 1851878480
4.336202 -2.528143 -2.238438 0.000000000000000e+00 1851878480
4.666571 -1.675275 -2.238438 0.000000000000000e+00 1851878480
4.559396 -1.876642 -2.238438 0.000000000000000e+00 1851878480
4.342924 -2.273346 -2.238437 0.000000000000000e+00 1851878480
4.233023 -2.469745 -2.238438 0.000000000000000e+00 1851878480
4.563519 -1.636774 -2.238438 0.000000000000000e+00 1851878480
4.457396 -1.833883 -2.238438 0.000000000000000e+00 1851878480
4.242837 -2.221787 -2.238437 0.000000000000000e+00 1851878480
4.133819 -2.413598 -2.238438 0.000000000000000e+00 1851878480
4.464178 -1.599664 -2.238438 0.000000000000000e+00 1851878480
4.359105 -1.792679 -2.238438 0.000000000000000e+00 1851878480
4.146471 -2.172143 -2.238438 0.000000000000000e+00 1851878480
4.038345 -2.359563 -2.238438 0.000000000000000e+00 1851878480
4.368338 -1.563859 -2.238438 0.000000000000000e+00 1851878480
4.264308 -1.752938 -2.238438 0.000000000000000e+00 1851878480
4.053602 -2.124304 -2.238438 0.000000000000000e+00 1851878480
3.946381 -2.307513 -2.238438 0.000000000000000e+00 1851878480
4.275805 -1.529293 -2.238437 0.000000000000000e+00 1851878480
4.172813 -1.714584 -2.238438 0.000000000000000e+00 1851878480
3.964036 -2.078166 -2.238438 0.000000000000000e+00 1851878480
3.857726 -2.257339 -2.238438 0.000000000000000e+00 1851878480
4.186402 -1.495893 -2.238438 0.000000000000000e+00 1851878480
4.084437 -1.677536 -2.238438 0.000000000000000e+00 1851878480
3.877585 -2.033633 -2.238438 0.000000000000000e+00 1851878480
3.772191 -2.208929 -2.238438 0.000000000000000e+00 1851878480
4.099954 -1.463601 -2.238438 0.000000000000000e+00 1851878480
3.999009 -1.641725 -2.238438 0.000000000000000e+00 1851878480
3.794075 -1.990616 -2.238438 0.000000000000000e+00 1851878480
3.689599 -2.162189 -2.238438 0.000000000000000e+00 1851878480
4.016309 -1.432354 -2.238438 0.000000000000000e+00 1851878480
3.916371 -1.607084 -2.238438 0.000000000000000e+00 1851878480
3.713349 -1.949031 -2.238438 0.000000000000000e+00 1851878480
3.609790 -2.117022 -2.238438 0.000000000000000e+00 1851878480
4.006146 -1.427336 -2.278726 0.000000000000000e+00 1634890835
3.836380 -1.573551 -2.238438 0.000000000000000e+00 1851878480
3.635254 -1.908803 -2.238438 0.000000000000000e+00 1851878480
3.532612 -2.073344 -2.238438 0.000000000000000e+00 1851878480
3.926262 -1.397496 -2.278726 0.000000000000000e+00 1634890835
3.758893 -1.541070 -2.238438 0.000000000000000e+00 1851878480
3.559654 -1.869857 -2.238438 0.000000000000000e+00 1851878480
3.457926 -2.031078 -2.238438 0.000000000000000e+00 1851878480
3.848815 -1.368567 -2.278726 0.000000000000000e+00 1634890835
3.683792 -1.509588 -2.238438 0.000000000000000e+00 1851878480
3.486422 -1.832134 -2.238438 0.000000000000000e+00 1851878480
3.385602 -1.990149 -2.238438 0.000000000000000e+00 1851878480
3.773684 -1.340505 -2.278726 0.000000000000000e+00 1634890835
3.610950 -1.479055 -2.238438 0.000000000000000e+00 1851878480
3.415433 -1.795569 -2.238438 0.000000000000000e+00 1851878480
3.315519 -1.950489 -2.238438 0.000000000000000e+00 1851878480
3.700755 -1.313265 -2.278726 0.000000000000000e+00 1634890835
3.540262 -1.449423 -2.238438 0.000000000000000e+00 1851878480
3.346579 -1.760101 -2.238438 0.000000000000000e+00 1851878480
3.247563 -1.912036 -2.238438 0.000000000000000e+00 1851878480
3.629921 -1.286809 -2.278725 0.000000000000000e+00 1634890835
3.471619 -1.420647 -2.238438 0.000000000000000e+00 1851878480
3.279753 -1.725677 -2.238438 0.000000000000000e+00 1851878480
3.181630 -1.874723 -2.238438 0.000000000000000e+00 1851878480
3.561088 -1.261099 -2.278725 0.000000000000000e+00 1634890835
3.466209 -1.417758 -2.278725 0.000000000000000e+00 1634890835
3.214858 -1.692249 -2.238438 0.000000000000000e+00 1851878480
3.117619 -1.838501 -2.238438 0.000000000000000e+00 1851878480
3.494160 -1.236101 -2.278726 0.000000000000000e+00 1634890835
3.400211 -1.390091 -2.278726 0.000000000000000e+00 1634890835
3.151801 -1.659767 -2.238438 0.000000000000000e+00 1851878480
3.055439 -1.803316 -2.238438 0.000000000000000e+00 1851878480
3.429048 -1.211785 -2.278726 0.000000000000000e+00 1634890835
3.336015 -1.363182 -2.278726 0.000000000000000e+00 1634890835
3.090496 -1.628188 -2.238438 0.000000000000000e+00 1851878480
2.995003 -1.769118 -2.238438 0.000000000000000e+00 1851878480
3.365672 -1.188116 -2.278726 0.000000000000000e+00 1634890835
3.273541 -1.336996 -2.278726 0.000000000000000e+00 1634890835
3.030861 -1.597471 -2.238438 0.000000000000000e+00 1851878480
2.936229 -1.735860 -2.238438 0.000000000000000e+00 1851878480
3.303954 -1.165064 -2.278726 0.000000000000000e+00 1634890835
3.212711 -1.311496 -2.278726 0.000000000000000e+00 1634890835
2.972820 -1.567573 -2.238438 0.000000000000000e+00 1851878480
2.879038 -1.703499 -2.238438 0.000000000000000e+00 1851878480
3.243821 -1.142607 -2.278726 0.000000000000000e+00 1634890835
3.153455 -1.286657 -2.278726 0.000000000000000e+00 1634890835
2.916301 -1.538460 -2.238438 0.000000000000000e+00 1851878480
2.823361 -1.671995 -2.238438 0.000000000000000e+00 1851878480
3.185204 -1.120717 -2.278726 0.000000000000000e+00 1634890835
3.095701 -1.262449 -2.278726 0.000000000000000e+00 1634890835
2.861239 -1.510097 -2.238438 0.000000000000000e+00 1851878480
2.769130 -1.641311 -2.238438 0.000000000000000e+00 1851878480
3.128041 -1.099368 -2.278726 0.000000000000000e+00 1634890835
3.039387 -1.238844 -2.278726 0.000000000000000e+00 1634890835
2.807567 -1.482453 -2.238438 0.000000000000000e+00 1851878480
2.716283 -1.611408 -2.238438 0.000000000000000e+00 1851878480
3.072265 -1.078540 -2.278726 0.000000000000000e+00 1634890835
2.984450 -1.215815 -2.278726 0.000000000000000e+00 1634890835
2.755227 -1.455490 -2.238438 0.000000000000000e+00 1851878480
0.840391 -0.499000 -0.705943 0.000000000000000e+00 1886740808
3.017821 -1.058208 -2.278726 0.000000000000000e+00 1634890835
2.930830 -1.193340 -2.278726 0.000000000000000e+00 1634890835
2.704159 -1.429187 -2.238438 0.000000000000000e+00 1851878480
0.824539 -0.490031 -0.705943 0.000000000000000e+00 1886740808
2.964655 -1.038356 -2.278726 0.000000000000000e+00 1634890835
2.878477 -1.171397 -2.278726 0.000000000000000e+00 1634890835
0.837099 -0.442630 -0.705943 0.000000000000000e+00 1886740808
0.809070 -0.481279 -0.705943 0.000000000000000e+00 1886740808
2.912715 -1.018961 -2.278726 0.000000000000000e+00 1634890835
2.827338 -1.149959 -2.278726 0.000000000000000e+00 1634890835
0.821748 -0.434722 -0.705943 0.000000000000000e+00 1886740808
0.793966 -0.472733 -0.705943 0.000000000000000e+00 1886740808
2.861951 -1.000005 -2.278726 0.000000000000000e+00 1634890835
2.777362 -1.129012 -2.278726 0.000000000000000e+00 1634890835
0.806751 -0.426998 -0.705943 0.000000000000000e+00 1886740808
0.779213 -0.464386 -0.705943 0.000000000000000e+00 1886740808
2.812316 -0.981473 -2.278726 0.000000000000000e+00 1634890835
2.728504 -1.108533 -2.278726 0.000000000000000e+00 1634890835
0.792094 -0.419448 -0.705943 0.000000000000000e+00 1886740808
0.764796 -0.456230 -0.705943 0.000000000000000e+00 1886740808
2.763766 -0.963343 -2.278726 0.000000000000000e+00 1634890835
0.830479 -0.337215 -0.705943 0.000000000000000e+00 1886740808
0.777762 -0.412066 -0.705943 0.000000000000000e+00 1886740808
0.750702 -0.448257 -0.705943 0.000000000000000e+00 1886740808
0.841489 -0.292946 -0.705943 0.000000000000000e+00 1886740808
0.815994 -0.331144 -0.705943 0.000000000000000e+00 1886740808
0.763743 -0.404845 -0.705943 0.000000000000000e+00 1886740808
0.744295 -0.444867 -0.713009 0.000000000000000e+00 1886740808
0.827082 -0.287567 -0.705943 0.000000000000000e+00 1886740808
0.801817 -0.325202 -0.705943 0.000000000000000e+00 1886740808
0.750025 -0.397779 -0.705943 0.000000000000000e+00 1886740808
0.744295 -0.445311 -0.726302 0.000000000000000e+00 1886740808
0.812975 -0.282300 -0.705943 0.000000000000000e+00 1886740808
0.787936 -0.319383 -0.705943 0.000000000000000e+00 1886740808
0.744295 -0.394948 -0.713321 0.000000000000000e+00 1886740808
0.744295 -0.445762 -0.739800 0.000000000000000e+00 1886740808
0.799154 -0.277139 -0.705943 0.000000000000000e+00 1886740808
0.774338 -0.313684 -0.705943 0.000000000000000e+00 1886740808
0.744295 -0.395158 -0.726288 0.000000000000000e+00 1886740808
0.744295 -0.446220 -0.753513 0.000000000000000e+00 1886740808
0.785611 -0.272084 -0.705943 0.000000000000000e+00 1886740808
0.761015 -0.308100 -0.705943 0.000000000000000e+00 1886740808
0.744295 -0.395372 -0.739457 0.000000000000000e+00 1886740808
0.744295 -0.446685 -0.767447 0.000000000000000e+00 1886740808
0.772335 -0.267127 -0.705943 0.000000000000000e+00 1886740808
0.747955 -0.302626 -0.705943 0.000000000000000e+00 1886740808
0.744295 -0.395589 -0.752834 0.000000000000000e+00 1886740808
0.744295 -0.447158 -0.781610 0.000000000000000e+00 1886740808
0.759316 -0.262267 -0.705943 0.000000000000000e+00 1886740808
0.744295 -0.300956 -0.714725 0.000000000000000e+00 1886740808
0.744295 -0.395810 -0.766426 0.000000000000000e+00 1886740808
0.744295 -0.447639 -0.796010 0.000000000000000e+00 1886740808
0.746545 -0.257499 -0.705943 0.000000000000000e+00 1886740808
0.744295 -0.300765 -0.727149 0.000000000000000e+00 1886740808
0.744295 -0.396035 -0.780241 0.000000000000000e+00 1886740808
2.092192 -1.259678 -2.278726 0.000000000000000e+00 1634890835
0.744295 -0.256362 -0.715831 0.000000000000000e+00 1886740808
0.744295 -0.300571 -0.739767 0.000000000000000e+00 1886740808
0.744295 -0.396263 -0.794288 0.000000000000000e+00 1886740808
2.054433 -1.238318 -2.278726 0.000000000000000e+00 1634890835
0.744295 -0.255996 -0.728033 0.000000000000000e+00 1886740808
0.744295 -0.300373 -0.752586 0.000000000000000e+00 1886740808
2.097578 -1.117404 -2.278726 0.000000000000000e+00 1634890835
2.017381 -1.217360 -2.278726 0.000000000000000e+00 1634890835
0.744295 -0.255624 -0.740424 0.000000000000000e+00 1886740808
0.744295 -0.300173 -0.765611 0.000000000000000e+00 1886740808
2.060544 -1.098330 -2.278726 0.000000000000000e+00 1634890835
0.796276 -0.481053 -0.915943 0.000000000000000e+00 1886740808
0.744295 -0.255246 -0.753013 0.000000000000000e+00 1886740808
0.744295 -0.299969 -0.778851 0.000000000000000e+00 1886740808
2.024176 -1.079598 -2.278726 0.000000000000000e+00 1634890835
0.784636 -0.474577 -0.919123 0.000000000000000e+00 1886740808
0.744295 -0.254863 -0.765806 0.000000000000000e+00 1886740808
0.744295 -0.299762 -0.792311 0.000000000000000e+00 1886740808
1.988452 -1.061198 -2.278726 0.000000000000000e+00 1634890835
0.775673 -0.469714 -0.925309 0.000000000000000e+00 1886740808
0.744295 -0.254473 -0.778811 0.000000000000000e+00 1886740808
2.104271 -0.846891 -2.278726 0.000000000000000e+00 1634890835
0.797389 -0.425818 -0.930214 0.000000000000000e+00 1886740808
0.768823 -0.466130 -0.933990 0.000000000000000e+00 1886740808
0.744295 -0.254077 -0.792032 0.000000000000000e+00 1886740808
2.068529 -0.831912 -2.278726 0.000000000000000e+00 1634890835
0.785519 -0.419747 -0.932845 0.000000000000000e+00 1886740808
0.764549 -0.464111 -0.945879 0.000000000000000e+00 1886740808
0.744295 -0.253673 -0.805479 0.000000000000000e+00 1886740808
2.033383 -0.817181 -2.278726 0.000000000000000e+00 1634890835
0.776431 -0.415161 -0.938648 0.000000000000000e+00 1886740808
1.808581 -1.099258 -2.278726 0.000000000000000e+00 1634890835
2.070471 -0.704526 -2.278726 0.000000000000000e+00 1634890835
1.998813 -0.802691 -2.278726 0.000000000000000e+00 1634890835
0.769417 -0.411684 -0.946931 0.000000000000000e+00 1886740808
1.775830 -1.080734 -2.278726 0.000000000000000e+00 1634890835
2.035871 -0.691612 -2.278726 0.000000000000000e+00 1634890835
1.964799 -0.788435 -2.278726 0.000000000000000e+00 1634890835
0.764805 -0.409492 -0.958243 0.000000000000000e+00 1886740808
0.749057 -0.456456 -0.978943 0.000000000000000e+00 1886740808
2.001817 -0.678901 -2.278726 0.000000000000000e+00 1634890835
1.931323 -0.774405 -2.278726 0.000000000000000e+00 1634890835
0.767166 -0.411039 -0.978583 0.000000000000000e+00 1886740808
1.711907 -1.044581 -2.278726 0.000000000000000e+00 1634890835
1.968292 -0.666389 -2.278726 0.000000000000000e+00 1634890835
0.797682 -0.319597 -0.957507 0.000000000000000e+00 1886740808
1.754622 -0.940768 -2.278726 0.000000000000000e+00 1634890835
1.680700 -1.026932 -2.278726 0.000000000000000e+00 1634890835
1.935279 -0.654068 -2.278726 0.000000000000000e+00 1634890835
0.785811 -0.314588 -0.959661 0.000000000000000e+00 1886740808
0.751063 -0.402982 -0.993127 0.000000000000000e+00 1886740808
1.649975 -1.009555 -2.278726 0.000000000000000e+00 1634890835
1.902761 -0.641932 -2.278726 0.000000000000000e+00 1634890835
0.776731 -0.310699 -0.965105 0.000000000000000e+00 1886740808
1.692477 -0.908759 -2.278726 0.000000000000000e+00 1634890835
1.619716 -0.992442 -2.278726 0.000000000000000e+00 1634890835
0.796758 -0.268312 -0.970531 0.000000000000000e+00 1886740808
0.769655 -0.307611 -0.973021 0.000000000000000e+00 1886740808
1.662097 -0.893113 -2.278726 0.000000000000000e+00 1634890835
1.589906 -0.975583 -2.278726 0.000000000000000e+00 1634890835
0.785168 -0.263918 -0.972832 0.000000000000000e+00 1886740808
0.764880 -0.305443 -0.983925 0.000000000000000e+00 1886740808
1.632161 -0.877694 -2.278726 0.000000000000000e+00 1634890835
1.560533 -0.958973 -2.278726 0.000000000000000e+00 1634890835
0.776222 -0.260416 -0.978303 0.000000000000000e+00 1886740808
0.765616 -0.305471 -1.002180 0.000000000000000e+00 1886740808
1.602653 -0.862498 -2.278726 0.000000000000000e+00 1634890835
1.531581 -0.942599 -2.278726 0.000000000000000e+00 1634890835
0.769282 -0.257587 -0.986297 0.000000000000000e+00 1886740808
1.710671 -0.681928 -2.278726 0.000000000000000e+00 1634890835
1.573560 -0.847513 -2.278726 0.000000000000000e+00 1634890835
1.503037 -0.926458 -2.278726 0.000000000000000e+00 1634890835
0.764661 -0.255532 -0.997356 0.000000000000000e+00 1886740808
1.680924 -0.669462 -2.278726 0.000000000000000e+00 1634890835
1.544869 -0.832737 -2.278726 0.000000000000000e+00 1634890835
1.474889 -0.910540 -2.278726 0.000000000000000e+00 1634890835
0.766221 -0.255533 -1.016766 0.000000000000000e+00 1886740808
0.744043 -0.296055 -1.026576 0.000000000000000e+00 1886740808
1.516567 -0.818161 -2.278726 0.000000000000000e+00 1634890835
1.447124 -0.894838 -2.278726 0.000000000000000e+00 1634890835
1.687758 -0.561695 -2.278726 0.000000000000000e+00 1634890835
1.622623 -0.645028 -2.278726 0.000000000000000e+00 1634890835
1.488642 -0.803778 -2.278726 0.000000000000000e+00 1634890835
1.419727 -0.879347 -2.278726 0.000000000000000e+00 1634890835
0.752073 -0.249762 -1.033210 0.000000000000000e+00 1886740808
1.594046 -0.633052 -2.278726 0.000000000000000e+00 1634890835
1.461081 -0.789587 -2.278726 0.000000000000000e+00 1634890835
1.392691 -0.864060 -2.278726 0.000000000000000e+00 1634890835
1.629982 -0.540137 -2.278726 0.000000000000000e+00 1634890835
1.565837 -0.621228 -2.278726 0.000000000000000e+00 1634890835
1.433877 -0.775575 -2.278726 0.000000000000000e+00 1634890835
1.366004 -0.848968 -2.278726 0.000000000000000e+00 1634890835
1.601641 -0.529563 -2.278726 0.000000000000000e+00 1634890835
1.537981 -0.609555 -2.278726 0.000000000000000e+00 1634890835
1.407014 -0.761740 -2.278726 0.000000000000000e+00 1634890835
1.339653 -0.834067 -2.278726 0.000000000000000e+00 1634890835
1.573651 -0.519120 -2.278726 0.000000000000000e+00 1634890835
1.510470 -0.598026 -2.278726 0.000000000000000e+00 1634890835
1.380484 -0.748076 -2.278726 0.000000000000000e+00 1634890835
1.313628 -0.819351 -2.278726 0.000000000000000e+00 1634890835
1.546004 -0.508802 -2.278726 0.000000000000000e+00 1634890835
1.483294 -0.586636 -2.278726 0.000000000000000e+00 1634890835
1.354277 -0.734580 -2.278726 0.000000000000000e+00 1634890835
1.287920 -0.804815 -2.278726 0.000000000000000e+00 1634890835
1.518685 -0.498609 -2.278726 0.000000000000000e+00 1634890835
1.456443 -0.575382 -2.278726 0.000000000000000e+00 1634890835
1.328382 -0.721244 -2.278726 0.000000000000000e+00 1634890835
1.262519 -0.790452 -2.278726 0.000000000000000e+00 1634890835
1.491688 -0.488535 -2.278726 0.000000000000000e+00 1634890835
1.429906 -0.564261 -2.278726 0.000000000000000e+00 1634890835
1.302790 -0.708064 -2.278726 0.000000000000000e+00 1634890835
1.237416 -0.776258 -2.278726 0.000000000000000e+00 1634890835
1.465000 -0.478578 -2.278726 0.000000000000000e+00 1634890835
1.403673 -0.553268 -2.278726 0.000000000000000e+00 1634890835
1.277492 -0.695035 -2.278726 0.000000000000000e+00 1634890835
1.212600 -0.762227 -2.278726 0.000000000000000e+00 1634890835
1.438615 -0.468734 -2.278726 0.000000000000000e+00 1634890835
1.377737 -0.542399 -2.278726 0.000000000000000e+00 1634890835
1.252480 -0.682154 -2.278726 0.000000000000000e+00 1634890835
1.188065 -0.748353 -2.278726 0.000000000000000e+00 1634890835
1.412522 -0.458998 -2.278726 0.000000000000000e+00 1634890835
1.352087 -0.531649 -2.278726 0.000000000000000e+00 1634890835
1.227743 -0.669413 -2.278726 0.000000000000000e+00 1634890835
1.163801 -0.734634 -2.278726 0.000000000000000e+00 1634890835
1.386713 -0.449370 -2.278726 0.000000000000000e+00 1634890835
1.326716 -0.521017 -2.278726 0.000000000000000e+00 1634890835
1.203274 -0.656813 -2.278726 0.000000000000000e+00 1634890835
1.139799 -0.721064 -2.278726 0.000000000000000e+00 1634890835
1.361180 -0.439844 -2.278726 0.000000000000000e+00 1634890835
1.301616 -0.510497 -2.278726 0.000000000000000e+00 1634890835
1.179066 -0.644345 -2.278726 0.000000000000000e+00 1634890835
1.116052 -0.707638 -2.278726 0.000000000000000e+00 1634890835
1.335914 -0.430417 -2.278726 0.000000000000000e+00 1634890835
1.276778 -0.500088 -2.278726 0.000000000000000e+00 1634890835
1.155109 -0.632009 -2.278726 0.000000000000000e+00 1634890835
1.092553 -0.694350 -2.278726 0.000000000000000e+00 1634890835
1.310909 -0.421088 -2.278726 0.000000000000000e+00 1634890835
1.252195 -0.489786 -2.278726 0.000000000000000e+00 1634890835
1.131397 -0.619796 -2.278726 0.000000000000000e+00 1634890835
1.069292 -0.681200 -2.278726 0.000000000000000e+00 1634890835
1.286155 -0.411854 -2.278726 0.000000000000000e+00 1634890835
1.227859 -0.479588 -2.278726 0.000000000000000e+00 1634890835
1.107924 -0.607707 -2.278726 0.000000000000000e+00 1634890835
1.046265 -0.668181 -2.278726 0.000000000000000e+00 1634890835
1.261647 -0.402710 -2.278726 0.000000000000000e+00 1634890835
1.203763 -0.469490 -2.278726 0.000000000000000e+00 1634890835
1.084679 -0.595737 -2.278726 0.000000000000000e+00 1634890835
1.023464 -0.655289 -2.278726 0.000000000000000e+00 1634890835
1.237375 -0.393656 -2.278726 0.000000000000000e+00 1634890835
1.179899 -0.459490 -2.278726 0.000000000000000e+00 1634890835
1.061658 -0.583882 -2.278726 0.000000000000000e+00 1634890835
1.000880 -0.642521 -2.278726 0.000000000000000e+00 1634890835
1.213336 -0.384687 -2.278726 0.000000000000000e+00 1634890835
1.156262 -0.449584 -2.278726 0.000000000000000e+00 1634890835
1.038854 -0.572138 -2.278726 0.000000000000000e+00 1634890835
0.978510 -0.629874 -2.278726 0.000000000000000e+00 1634890835
1.189520 -0.375802 -2.278726 0.000000000000000e+00 1634890835
1.132843 -0.439770 -2.278726 0.000000000000000e+00 1634890835
1.016260 -0.560501 -2.278726 0.000000000000000e+00 1634890835
0.956343 -0.617343 -2.278726 0.000000000000000e+00 1634890835
1.165920 -0.366999 -2.278726 0.000000000000000e+00 1634890835
1.109637 -0.430046 -2.278726 0.000000000000000e+00 1634890835
0.993868 -0.548970 -2.278726 0.000000000000000e+00 1634890835
0.934376 -0.604923 -2.278726 0.000000000000000e+00 1634890835
1.142532 -0.358274 -2.278726 0.000000000000000e+00 1634890835
1.086637 -0.420407 -2.278726 0.000000000000000e+00 1634890835
0.971676 -0.537541 -2.278726 0.000000000000000e+00 1634890835
0.912604 -0.592614 -2.278726 0.000000000000000e+00 1634890835
1.119349 -0.349625 -2.278726 0.000000000000000e+00 1634890835
1.063838 -0.410853 -2.278726 0.000000000000000e+00 1634890835
0.949674 -0.526211 -2.278726 0.000000000000000e+00 1634890835
0.891017 -0.580410 -2.278726 0.000000000000000e+00 1634890835
1.096363 -0.341051 -2.278726 0.000000000000000e+00 1634890835
1.041233 -0.401379 -2.278726 0.000000000000000e+00 1634890835
0.927858 -0.514976 -2.278726 0.000000000000000e+00 1634890835
0.869613 -0.568309 -2.278726 0.000000000000000e+00 1634890835
1.073571 -0.332549 -2.278726 0.000000000000000e+00 1634890835
1.018816 -0.391985 -2.278726 0.000000000000000e+00 1634890835
0.906222 -0.503834 -2.278726 0.000000000000000e+00 1634890835
0.848384 -0.556308 -2.278726 0.000000000000000e+00 1634890835
1.050966 -0.324117 -2.278726 0.000000000000000e+00 1634890835
0.996582 -0.382668 -2.278726 0.000000000000000e+00 1634890835
0.884761 -0.492782 -2.278726 0.000000000000000e+00 1634890835
0.827326 -0.544404 -2.278726 0.000000000000000e+00 1634890835
1.028542 -0.315752 -2.278726 0.000000000000000e+00 1634890835
0.974526 -0.373425 -2.278726 0.000000000000000e+00 1634890835
0.863469 -0.481816 -2.278726 0.000000000000000e+00 1634890835
0.451011 -0.297861 -1.274414 0.000000000000000e+00 1936876886
1.006294 -0.307453 -2.278726 0.000000000000000e+00 1634890835
0.952641 -0.364254 -2.278726 0.000000000000000e+00 1634890835
0.842340 -0.470936 -2.278726 0.000000000000000e+00 1634890835
0.433314 -0.287261 -1.256717 0.000000000000000e+00 1936876886
0.984217 -0.299218 -2.278726 0.000000000000000e+00 1634890835
0.930922 -0.355153 -2.278726 0.000000000000000e+00 1634890835
0.821371 -0.460137 -2.278726 0.000000000000000e+00 1634890835
0.421236 -0.280360 -1.254547 0.000000000000000e+00 1936876886
0.962305 -0.291044 -2.278726 0.000000000000000e+00 1634890835
0.909366 -0.346118 -2.278726 0.000000000000000e+00 1634890835
0.445942 -0.250344 -1.269346 0.000000000000000e+00 1936876886
0.335127 -0.223970 -1.025470 0.000000000000000e+00 1953264973
0.940553 -0.282931 -2.278726 0.000000000000000e+00 1634890835
0.887965 -0.337151 -2.278726 0.000000000000000e+00 1634890835
0.428906 -0.241308 -1.253205 0.000000000000000e+00 1936876886
0.306471 -0.205703 -0.964043 0.000000000000000e+00 1953264973
0.495092 -0.148090 -1.227673 0.000000000000000e+00 1936876886
0.866717 -0.328247 -2.278726 0.000000000000000e+00 1634890835
0.358554 -0.202188 -1.075959 0.000000000000000e+00 1953264973
0.281222 -0.189608 -0.909918 0.000000000000000e+00 1953264973
0.483539 -0.143780 -1.227674 0.000000000000000e+00 1936876886
0.845615 -0.319403 -2.278726 0.000000000000000e+00 1634890835
0.326694 -0.184663 -1.007392 0.000000000000000e+00 1953264973
0.258801 -0.175315 -0.861855 0.000000000000000e+00 1953264973
0.472063 -0.139500 -1.227673 0.000000000000000e+00 1936876886
0.824655 -0.310620 -2.278726 0.000000000000000e+00 1634890835
0.299053 -0.169463 -0.948141 0.000000000000000e+00 1953264973
0.238755 -0.162537 -0.818883 0.000000000000000e+00 1953264973
