# .PCD v0.7 - Point Cloud Data file format
VERSION 0.7
FIELDS x y z rgb label
SIZE 4 4 4 4 4
TYPE F F F F U
COUNT 1 1 1 1 1
WIDTH 537
HEIGHT 1
VIEWPOINT 0 0 0 1 0 0 0
POINTS 537
DATA ascii
40.491055 -17.129944 9.808590 0.000000000000000e+00 1954047316
32.800400 -12.194679 -2.083948 0.000000000000000e+00 1851878480
31.952541 -13.365590 -1.947900 0.000000000000000e+00 1851878480
29.425062 -15.184668 -1.591171 0.000000000000000e+00 1851878480
27.854673 -15.814904 -1.383250 0.000000000000000e+00 1851878480
29.069216 -10.799286 -2.110973 0.000000000000000e+00 1851878480
28.309660 -11.837666 -1.990848 0.000000000000000e+00 1851878480
26.813303 -13.841172 -1.717568 0.000000000000000e+00 1851878480
25.904171 -14.716157 -1.553925 0.000000000000000e+00 1851878480
26.484829 -9.831703 -2.164119 0.000000000000000e+00 1851878480
26.132824 -10.923578 -2.082651 0.000000000000000e+00 1851878480
24.964190 -12.890642 -1.848584 0.000000000000000e+00 1851878480
24.524479 -13.940565 -1.724779 0.000000000000000e+00 1851878480
24.178453 -8.968710 -2.195746 0.000000000000000e+00 1851878480
24.398809 -10.195174 -2.173361 0.000000000000000e+00 1851878480
23.630493 -12.205741 -1.986280 0.000000000000000e+00 1851878480
23.403275 -13.311111 -1.888305 0.000000000000000e+00 1851878480
22.213898 -8.233706 -2.219778 0.000000000000000e+00 1851878480
22.454569 -9.379473 -2.211100 0.000000000000000e+00 1851878480
22.207600 -11.474353 -2.089222 0.000000000000000e+00 1851878480
21.879789 -12.451960 -1.992341 0.000000000000000e+00 1851878480
20.456940 -7.576701 -2.230884 0.000000000000000e+00 1851878480
20.698921 -8.643071 -2.232930 0.000000000000000e+00 1851878480
20.836142 -10.769076 -2.169338 0.000000000000000e+00 1851878480
20.466152 -11.654361 -2.076284 0.000000000000000e+00 1851878480
18.970146 -7.020664 -2.242113 0.000000000000000e+00 1851878480
19.084805 -7.966269 -2.238616 0.000000000000000e+00 1851878480
19.444691 -10.053047 -2.219994 0.000000000000000e+00 1851878480
19.080872 -10.871966 -2.134406 0.000000000000000e+00 1851878480
17.619858 -6.515939 -2.243811 0.000000000000000e+00 1851878480
17.654667 -7.366703 -2.237488 0.000000000000000e+00 1851878480
17.899124 -9.256864 -2.223874 0.000000000000000e+00 1851878480
17.889732 -10.199344 -2.187810 0.000000000000000e+00 1851878480
16.431387 -6.071773 -2.243147 0.000000000000000e+00 1851878480
16.435629 -6.855617 -2.238405 0.000000000000000e+00 1851878480
16.565165 -8.569663 -2.225390 0.000000000000000e+00 1851878480
16.635317 -9.489831 -2.208355 0.000000000000000e+00 1851878480
15.353219 -5.669009 -2.237024 0.000000000000000e+00 1851878480
15.402505 -6.422394 -2.243639 0.000000000000000e+00 1851878480
15.416347 -7.977841 -2.227059 0.000000000000000e+00 1851878480
15.462158 -8.825861 -2.214687 0.000000000000000e+00 1851878480
14.468028 -5.338037 -2.241254 0.000000000000000e+00 1851878480
14.442489 -6.019954 -2.240936 0.000000000000000e+00 1851878480
14.421932 -7.465585 -2.229700 0.000000000000000e+00 1851878480
14.435050 -8.244520 -2.219266 0.000000000000000e+00 1851878480
13.685991 -5.045604 -2.246396 0.000000000000000e+00 1851878480
13.569493 -5.654058 -2.234632 0.000000000000000e+00 1851878480
13.597176 -7.040865 -2.240475 0.000000000000000e+00 1851878480
13.565912 -7.752770 -2.228595 0.000000000000000e+00 1851878480
12.888930 -4.748072 -2.234784 0.000000000000000e+00 1851878480
12.846933 -5.351068 -2.238219 0.000000000000000e+00 1851878480
12.866344 -6.664530 -2.251266 0.000000000000000e+00 1851878480
12.774184 -7.304703 -2.233530 0.000000000000000e+00 1851878480
12.289402 -4.523694 -2.244794 0.000000000000000e+00 1851878480
12.247091 -5.099397 -2.250881 0.000000000000000e+00 1851878480
12.132767 -6.286543 -2.247005 0.000000000000000e+00 1851878480
12.087795 -6.916386 -2.241657 0.000000000000000e+00 1851878480
6.666752 -2.452100 -1.279741 1.880790849211783e-38 1684957512
6.649375 -2.767645 -1.285872 1.880790849211783e-38 1684957512
6.587932 -3.414593 -1.287681 1.880790849211783e-38 1684957512
11.420894 -6.538751 -2.239439 0.000000000000000e+00 1851878480
6.335069 -2.328280 -1.275139 1.880790849211783e-38 1684957512
6.286464 -2.615646 -1.276178 1.880790849211783e-38 1684957512
6.261267 -3.246310 -1.288274 1.880790849211783e-38 1684957512
10.837182 -6.208334 -2.240626 0.000000000000000e+00 1851878480
6.098060 -2.239416 -1.284461 1.880790849211783e-38 1684957512
6.030876 -2.508394 -1.282500 1.880790849211783e-38 1684957512
5.957448 -3.089774 -1.287287 1.880790849211783e-38 1684957512
5.918088 -3.392384 -1.286962 1.880790849211783e-38 1684957512
5.793509 -2.125901 -1.274663 1.880790849211783e-38 1684957512
5.770568 -2.399253 -1.283022 1.880790849211783e-38 1684957512
5.680676 -2.947178 -1.286358 1.880790849211783e-38 1684957512
5.641518 -3.235827 -1.287459 1.880790849211783e-38 1684957512
5.604852 -2.055048 -1.285907 1.880790849211783e-38 1684957512
5.511359 -2.290647 -1.278938 1.880790849211783e-38 1684957512
5.403617 -2.804339 -1.279831 1.880790849211783e-38 1684957512
5.339699 -3.064594 -1.276199 1.880790849211783e-38 1684957512
5.372945 -1.968457 -1.283445 1.880790849211783e-38 1684957512
5.308082 -2.205353 -1.283525 1.880790849211783e-38 1684957512
5.197749 -2.698370 -1.285351 1.880790849211783e-38 1684957512
5.161924 -2.964392 -1.289636 1.880790849211783e-38 1684957512
5.168518 -1.892053 -1.283600 1.880790849211783e-38 1684957512
5.114081 -2.123971 -1.286666 1.880790849211783e-38 1684957512
4.997468 -2.595236 -1.288222 1.880790849211783e-38 1684957512
4.899970 -2.815698 -1.277503 1.880790849211783e-38 1684957512
4.986189 -1.823851 -1.285755 1.880790849211783e-38 1684957512
4.880076 -2.026038 -1.275739 1.880790849211783e-38 1684957512
4.805156 -2.496180 -1.289244 1.880790849211783e-38 1684957512
4.754759 -2.733955 -1.291605 1.880790849211783e-38 1684957512
4.847117 -1.771559 -1.296187 1.880790849211783e-38 1684957512
4.803018 -1.993308 -1.302976 1.880790849211783e-38 1684957512
4.834175 -2.512077 -1.348153 1.880790849211783e-38 1684957512
4.724085 -2.718016 -1.335134 1.880790849211783e-38 1684957512
4.764786 -1.740063 -1.319862 1.880790849211783e-38 1684957512
4.790799 -1.987499 -1.347121 1.880790849211783e-38 1684957512
4.752771 -2.470585 -1.375942 1.880790849211783e-38 1684957512
4.746140 -2.732418 -1.393718 1.880790849211783e-38 1684957512
4.773317 -1.741764 -1.368191 1.880790849211783e-38 1684957512
4.744909 -1.967727 -1.381426 1.880790849211783e-38 1684957512
4.777853 -2.484445 -1.434199 1.880790849211783e-38 1684957512
4.773451 -2.749873 -1.454648 1.880790849211783e-38 1684957512
4.768372 -1.738544 -1.412891 1.880790849211783e-38 1684957512
4.808332 -1.993279 -1.447946 1.880790849211783e-38 1684957512
4.831602 -2.513227 -1.502154 1.880790849211783e-38 1684957512
4.778385 -2.754462 -1.509385 1.880790849211783e-38 1684957512
4.756986 -1.732974 -1.455733 1.880790849211783e-38 1684957512
4.764471 -1.974353 -1.482579 1.880790849211783e-38 1684957512
4.769292 -2.481641 -1.534192 1.880790849211783e-38 1684957512
4.806304 -2.772317 -1.572029 1.880790849211783e-38 1684957512
4.781542 -1.740491 -1.509921 1.880790849211783e-38 1684957512
4.762895 -1.972952 -1.530145 1.880790849211783e-38 1684957512
4.744596 -2.469618 -1.577660 1.880790849211783e-38 1684957512
4.742921 -2.737510 -1.604705 1.880790849211783e-38 1684957512
4.834808 -1.758425 -1.574161 1.880790849211783e-38 1684957512
4.744594 -1.964622 -1.572376 1.880790849211783e-38 1684957512
4.810896 -2.504970 -1.652115 1.880790849211783e-38 1684957512
4.775746 -2.758231 -1.669886 1.880790849211783e-38 1684957512
4.770426 -1.733568 -1.600220 1.880790849211783e-38 1684957512
4.736536 -1.960535 -1.617983 1.880790849211783e-38 1684957512
4.768610 -2.483797 -1.689832 1.880790849211783e-38 1684957512
4.772193 -2.757961 -1.722991 1.880790849211783e-38 1684957512
4.736732 -1.719886 -1.635848 1.880790849211783e-38 1684957512
4.765057 -1.971581 -1.676552 1.880790849211783e-38 1684957512
4.766496 -2.483540 -1.741596 1.880790849211783e-38 1684957512
4.760597 -2.753053 -1.773343 1.880790849211783e-38 1684957512
4.749127 -1.722940 -1.687433 1.880790849211783e-38 1684957512
4.809677 -1.989274 -1.741805 1.880790849211783e-38 1684957512
4.822889 -2.513783 -1.815650 1.880790849211783e-38 1684957512
4.799968 -2.777638 -1.843336 1.880790849211783e-38 1684957512
4.758940 -1.725040 -1.738581 1.880790849211783e-38 1684957512
4.763429 -1.969375 -1.774413 1.880790849211783e-38 1684957512
4.768267 -2.486169 -1.848252 1.880790849211783e-38 1684957512
4.751874 -2.751619 -1.879987 1.880790849211783e-38 1684957512
4.763827 -1.725344 -1.788345 1.880790849211783e-38 1684957512
4.746011 -1.961407 -1.817386 1.880790849211783e-38 1684957512
4.797085 -2.502062 -1.913242 1.880790849211783e-38 1684957512
4.741773 -2.747587 -1.931349 1.880790849211783e-38 1684957512
4.752704 -1.719845 -1.832314 1.880790849211783e-38 1684957512
4.776399 -1.973189 -1.879099 1.880790849211783e-38 1684957512
4.823012 -2.516461 -1.978042 1.880790849211783e-38 1684957512
4.721255 -2.737525 -1.978479 1.880790849211783e-38 1684957512
4.746329 -1.716059 -1.878222 1.880790849211783e-38 1684957512
4.755147 -1.963630 -1.920899 1.880790849211783e-38 1684957512
4.789875 -2.500050 -2.018893 1.880790849211783e-38 1684957512
4.735365 -2.747548 -2.040427 1.880790849211783e-38 1684957512
4.781065 -1.727121 -1.940987 1.880790849211783e-38 1684957512
4.751028 -1.961144 -1.969669 1.880790849211783e-38 1684957512
4.766140 -2.488540 -2.063428 1.880790849211783e-38 1684957512
4.747628 -2.756529 -2.102287 1.880790849211783e-38 1684957512
4.780065 -1.725254 -1.989900 1.880790849211783e-38 1684957512
4.778464 -1.971680 -2.032101 1.880790849211783e-38 1684957512
4.783166 -2.498320 -2.125917 1.880790849211783e-38 1684957512
4.762394 -2.766984 -2.165989 1.880790849211783e-38 1684957512
4.746651 -1.711689 -2.025280 1.880790849211783e-38 1684957512
4.793444 -1.977059 -2.090029 1.880790849211783e-38 1684957512
4.738574 -2.475914 -2.161089 1.880790849211783e-38 1684957512
4.736928 -2.754076 -2.211685 1.880790849211783e-38 1684957512
4.744427 -1.709375 -2.073925 1.880790849211783e-38 1684957512
4.752944 -1.959557 -2.123842 1.880790849211783e-38 1684957512
4.821161 -2.519977 -2.255115 1.880790849211783e-38 1684957512
4.659351 -2.710841 -2.232233 0.000000000000000e+00 1851878480
4.771483 -1.717592 -2.135967 1.880790849211783e-38 1684957512
4.769747 -1.965677 -2.183366 1.880790849211783e-38 1684957512
4.753242 -2.485375 -2.279329 0.000000000000000e+00 1851878480
4.550473 -2.649339 -2.235946 0.000000000000000e+00 1851878480
4.780770 -1.719393 -2.190789 1.880790849211783e-38 1684957512
4.733844 -1.950076 -2.218928 1.880790849211783e-38 1684957512
4.591482 -2.401675 -2.256255 0.000000000000000e+00 1851878480
4.438108 -2.585731 -2.235663 0.000000000000000e+00 1851878480
4.715772 -1.694481 -2.211337 1.880790849211783e-38 1684957512
4.676437 -1.925625 -2.243765 0.000000000000000e+00 1851878480
4.502144 -2.355814 -2.266212 0.000000000000000e+00 1851878480
4.344491 -2.532975 -2.242717 0.000000000000000e+00 1851878480
4.706967 -1.689777 -2.257815 0.000000000000000e+00 1851878480
4.613335 -1.898843 -2.264919 0.000000000000000e+00 1851878480
4.363415 -2.284072 -2.248999 0.000000000000000e+00 1851878480
4.228265 -2.466969 -2.235921 0.000000000000000e+00 1851878480
4.600886 -1.650177 -2.256767 0.000000000000000e+00 1851878480
4.490676 -1.847575 -2.255151 0.000000000000000e+00 1851878480
4.262417 -2.232040 -2.248767 0.000000000000000e+00 1851878480
4.138340 -2.416238 -2.240886 0.000000000000000e+00 1851878480
4.495163 -1.610768 -2.253975 0.000000000000000e+00 1851878480
4.390726 -1.805683 -2.254676 0.000000000000000e+00 1851878480
4.208733 -2.204760 -2.272050 0.000000000000000e+00 1851878480
4.072506 -2.379523 -2.257373 0.000000000000000e+00 1851878480
4.396969 -1.574109 -2.253109 0.000000000000000e+00 1851878480
4.300856 -1.767962 -2.257623 0.000000000000000e+00 1851878480
4.069592 -2.132683 -2.247267 0.000000000000000e+00 1851878480
4.022944 -2.352280 -2.281865 0.000000000000000e+00 1851878480
4.296438 -1.536672 -2.249239 0.000000000000000e+00 1851878480
4.211262 -1.730382 -2.259063 0.000000000000000e+00 1851878480
4.001263 -2.097683 -2.259459 0.000000000000000e+00 1851878480
3.864013 -2.261018 -2.242086 0.000000000000000e+00 1851878480
4.166010 -1.488606 -2.227535 0.000000000000000e+00 1851878480
4.098250 -1.683209 -2.246008 0.000000000000000e+00 1851878480
3.889724 -2.039999 -2.245446 0.000000000000000e+00 1851878480
3.767282 -2.206054 -2.235525 0.000000000000000e+00 1851878480
4.122682 -1.471714 -2.250846 0.000000000000000e+00 1851878480
4.008371 -1.645568 -2.243678 0.000000000000000e+00 1851878480
3.842206 -2.015868 -2.266834 0.000000000000000e+00 1851878480
3.704798 -2.171096 -2.247659 0.000000000000000e+00 1851878480
4.018260 -1.433050 -2.239526 0.000000000000000e+00 1851878480
3.949049 -1.620493 -2.257115 0.000000000000000e+00 1851878480
3.785787 -1.987052 -2.282105 0.000000000000000e+00 1851878480
3.593529 -2.107485 -2.228354 0.000000000000000e+00 1851878480
4.013484 -1.429951 -2.282900 0.000000000000000e+00 1634890835
3.868639 -1.586782 -2.257260 0.000000000000000e+00 1851878480
3.693548 -1.939413 -2.274333 0.000000000000000e+00 1851878480
3.508792 -2.059364 -2.223344 0.000000000000000e+00 1851878480
3.899752 -1.388060 -2.263340 0.000000000000000e+00 1634890835
3.782223 -1.550635 -2.252331 0.000000000000000e+00 1851878480
3.592769 -1.887252 -2.259262 0.000000000000000e+00 1851878480
3.467352 -2.036614 -2.244540 0.000000000000000e+00 1851878480
3.866594 -1.374889 -2.289251 0.000000000000000e+00 1634890835
3.679909 -1.507996 -2.236079 0.000000000000000e+00 1851878480
3.546696 -1.863809 -2.277137 0.000000000000000e+00 1851878480
3.440805 -2.022599 -2.274936 0.000000000000000e+00 1851878480
3.787607 -1.345451 -2.287133 0.000000000000000e+00 1634890835
3.629522 -1.486662 -2.249951 0.000000000000000e+00 1851878480
3.437721 -1.807286 -2.253045 0.000000000000000e+00 1851878480
3.326750 -1.957096 -2.246020 0.000000000000000e+00 1851878480
3.712295 -1.317360 -2.285831 0.000000000000000e+00 1634890835
3.571593 -1.462251 -2.258248 0.000000000000000e+00 1851878480
3.433497 -1.805815 -2.296575 0.000000000000000e+00 1851878480
3.277749 -1.929808 -2.259243 0.000000000000000e+00 1851878480
3.624473 -1.284878 -2.275306 0.000000000000000e+00 1634890835
3.459766 -1.415797 -2.230795 0.000000000000000e+00 1851878480
3.308661 -1.740888 -2.258168 0.000000000000000e+00 1851878480
3.178949 -1.873144 -2.236552 0.000000000000000e+00 1851878480
3.567394 -1.263333 -2.282761 0.000000000000000e+00 1634890835
3.499362 -1.431319 -2.300521 0.000000000000000e+00 1634890835
3.244400 -1.707800 -2.259008 0.000000000000000e+00 1851878480
3.136454 -1.849608 -2.251961 0.000000000000000e+00 1851878480
3.490375 -1.234762 -2.276258 0.000000000000000e+00 1634890835
3.408713 -1.393567 -2.284424 0.000000000000000e+00 1634890835
3.189073 -1.679394 -2.264909 0.000000000000000e+00 1851878480
3.089006 -1.823127 -2.263029 0.000000000000000e+00 1851878480
3.433156 -1.213236 -2.281455 0.000000000000000e+00 1634890835
3.314109 -1.354230 -2.263763 0.000000000000000e+00 1634890835
3.117314 -1.642317 -2.257862 0.000000000000000e+00 1851878480
3.006987 -1.776196 -2.247395 0.000000000000000e+00 1851878480
3.377014 -1.192120 -2.286404 0.000000000000000e+00 1634890835
3.390388 -1.384719 -2.360064 0.000000000000000e+00 1634890835
3.064198 -1.615041 -2.263059 0.000000000000000e+00 1851878480
2.978476 -1.760836 -2.270646 0.000000000000000e+00 1851878480
3.295840 -1.162202 -2.273130 0.000000000000000e+00 1634890835
3.227736 -1.317629 -2.289382 0.000000000000000e+00 1634890835
3.047408 -1.606903 -2.294600 0.000000000000000e+00 1851878480
2.927676 -1.732278 -2.276254 0.000000000000000e+00 1851878480
3.235192 -1.139568 -2.272665 0.000000000000000e+00 1634890835
3.160436 -1.289506 -2.283771 0.000000000000000e+00 1634890835
2.958915 -1.560941 -2.271147 0.000000000000000e+00 1851878480
2.821222 -1.670728 -2.236741 0.000000000000000e+00 1851878480
3.177613 -1.118046 -2.273296 0.000000000000000e+00 1634890835
3.160898 -1.289036 -2.326717 0.000000000000000e+00 1634890835
2.893171 -1.526950 -2.263420 0.000000000000000e+00 1851878480
2.772096 -1.643069 -2.240836 0.000000000000000e+00 1851878480
3.138162 -1.102926 -2.286100 0.000000000000000e+00 1634890835
3.064288 -1.248994 -2.297395 0.000000000000000e+00 1634890835
2.848542 -1.504088 -2.271106 0.000000000000000e+00 1851878480
2.707234 -1.606040 -2.230981 0.000000000000000e+00 1851878480
3.102498 -1.089154 -2.301150 0.000000000000000e+00 1634890835
2.975917 -1.212339 -2.272211 0.000000000000000e+00 1634890835
2.821944 -1.490735 -2.292642 0.000000000000000e+00 1851878480
0.834312 -0.495391 -0.700836 0.000000000000000e+00 1886740808
3.016386 -1.057705 -2.277643 0.000000000000000e+00 1634890835
2.972931 -1.210482 -2.311459 0.000000000000000e+00 1634890835
2.716837 -1.435888 -2.248932 0.000000000000000e+00 1851878480
0.843835 -0.501498 -0.722463 0.000000000000000e+00 1886740808
2.980976 -1.044073 -2.291271 0.000000000000000e+00 1634890835
2.896292 -1.178647 -2.292830 0.000000000000000e+00 1634890835
0.877481 -0.463982 -0.739998 0.000000000000000e+00 1886740808
0.822094 -0.489026 -0.717307 0.000000000000000e+00 1886740808
2.901785 -1.015137 -2.270175 0.000000000000000e+00 1634890835
2.838410 -1.154462 -2.287650 0.000000000000000e+00 1634890835
0.872897 -0.461781 -0.749884 0.000000000000000e+00 1886740808
0.772631 -0.460030 -0.686973 0.000000000000000e+00 1886740808
2.849542 -0.995669 -2.268846 0.000000000000000e+00 1634890835
2.756077 -1.120360 -2.261263 0.000000000000000e+00 1634890835
0.835314 -0.442116 -0.730937 0.000000000000000e+00 1886740808
0.754899 -0.449896 -0.683915 0.000000000000000e+00 1886740808
2.820284 -0.984253 -2.285182 0.000000000000000e+00 1634890835
2.720156 -1.105142 -2.271755 0.000000000000000e+00 1634890835
0.770640 -0.408087 -0.686822 0.000000000000000e+00 1886740808
0.738705 -0.440666 -0.681859 0.000000000000000e+00 1886740808
2.761230 -0.962459 -2.276635 0.000000000000000e+00 1634890835
0.886023 -0.359769 -0.753158 0.000000000000000e+00 1886740808
0.810564 -0.429445 -0.735716 0.000000000000000e+00 1886740808
0.776334 -0.463562 -0.730046 0.000000000000000e+00 1886740808
0.909158 -0.316503 -0.762712 0.000000000000000e+00 1886740808
0.834017 -0.338458 -0.721534 0.000000000000000e+00 1886740808
0.798535 -0.423287 -0.738101 0.000000000000000e+00 1886740808
0.735771 -0.439772 -0.704843 0.000000000000000e+00 1886740808
0.856101 -0.297656 -0.730711 0.000000000000000e+00 1886740808
0.834787 -0.338573 -0.734970 0.000000000000000e+00 1886740808
0.762800 -0.404554 -0.717967 0.000000000000000e+00 1886740808
0.738839 -0.442046 -0.720977 0.000000000000000e+00 1886740808
0.840302 -0.291789 -0.729673 0.000000000000000e+00 1886740808
0.774323 -0.313865 -0.693747 0.000000000000000e+00 1886740808
0.728462 -0.386546 -0.698147 0.000000000000000e+00 1886740808
0.769708 -0.460981 -0.765059 0.000000000000000e+00 1886740808
0.843704 -0.292589 -0.745296 0.000000000000000e+00 1886740808
0.797708 -0.323151 -0.727248 0.000000000000000e+00 1886740808
0.758141 -0.402510 -0.739800 0.000000000000000e+00 1886740808
0.761980 -0.456822 -0.771417 0.000000000000000e+00 1886740808
0.816717 -0.282857 -0.733894 0.000000000000000e+00 1886740808
0.808435 -0.327298 -0.749931 0.000000000000000e+00 1886740808
0.791248 -0.420314 -0.786104 0.000000000000000e+00 1886740808
0.773664 -0.464311 -0.797729 0.000000000000000e+00 1886740808
0.808278 -0.279558 -0.738796 0.000000000000000e+00 1886740808
0.786718 -0.318309 -0.742528 0.000000000000000e+00 1886740808
0.775907 -0.412391 -0.784808 0.000000000000000e+00 1886740808
0.706388 -0.424384 -0.741802 0.000000000000000e+00 1886740808
0.768473 -0.265429 -0.714456 0.000000000000000e+00 1886740808
0.742110 -0.300073 -0.712627 0.000000000000000e+00 1886740808
0.794899 -0.422721 -0.818534 0.000000000000000e+00 1886740808
0.748054 -0.449900 -0.800030 0.000000000000000e+00 1886740808
0.767145 -0.264604 -0.725422 0.000000000000000e+00 1886740808
0.754026 -0.304697 -0.736656 0.000000000000000e+00 1886740808
0.734484 -0.390814 -0.769956 0.000000000000000e+00 1886740808
2.071433 -1.247179 -2.256116 0.000000000000000e+00 1634890835
0.733695 -0.252711 -0.705637 0.000000000000000e+00 1886740808
0.750280 -0.302987 -0.745716 0.000000000000000e+00 1886740808
0.770280 -0.410097 -0.822017 0.000000000000000e+00 1886740808
2.056248 -1.239412 -2.280738 0.000000000000000e+00 1634890835
0.721831 -0.248269 -0.706059 0.000000000000000e+00 1886740808
0.747061 -0.301489 -0.755383 0.000000000000000e+00 1886740808
2.128856 -1.134066 -2.312706 0.000000000000000e+00 1634890835
2.032343 -1.226389 -2.295626 0.000000000000000e+00 1634890835
0.744681 -0.255756 -0.740808 0.000000000000000e+00 1886740808
0.755620 -0.304740 -0.777261 0.000000000000000e+00 1886740808
2.102412 -1.120647 -2.325027 0.000000000000000e+00 1634890835
0.815398 -0.492606 -0.937939 0.000000000000000e+00 1886740808
0.772283 -0.264844 -0.781329 0.000000000000000e+00 1886740808
0.759534 -0.306111 -0.794796 0.000000000000000e+00 1886740808
2.026469 -1.080821 -2.281307 0.000000000000000e+00 1634890835
0.768079 -0.464562 -0.899728 0.000000000000000e+00 1886740808
0.777604 -0.266268 -0.800078 0.000000000000000e+00 1886740808
0.806263 -0.324719 -0.858277 0.000000000000000e+00 1886740808
2.028762 -1.082711 -2.324920 0.000000000000000e+00 1634890835
0.773784 -0.468570 -0.923055 0.000000000000000e+00 1886740808
0.747713 -0.255642 -0.782387 0.000000000000000e+00 1886740808
2.105304 -0.847306 -2.279844 0.000000000000000e+00 1634890835
0.836346 -0.446622 -0.975660 0.000000000000000e+00 1886740808
0.780112 -0.472974 -0.947703 0.000000000000000e+00 1886740808
0.761800 -0.260052 -0.810659 0.000000000000000e+00 1886740808
2.080008 -0.836528 -2.291371 0.000000000000000e+00 1634890835
0.846469 -0.452317 -1.005226 0.000000000000000e+00 1886740808
0.781033 -0.474118 -0.966272 0.000000000000000e+00 1886740808
0.725704 -0.247337 -0.785359 0.000000000000000e+00 1886740808
2.080004 -0.835917 -2.330972 0.000000000000000e+00 1634890835
0.798900 -0.427175 -0.965811 0.000000000000000e+00 1886740808
1.833969 -1.114689 -2.310714 0.000000000000000e+00 1634890835
2.100611 -0.714781 -2.311897 0.000000000000000e+00 1634890835
2.009168 -0.806850 -2.290531 0.000000000000000e+00 1634890835
0.778692 -0.416647 -0.958346 0.000000000000000e+00 1886740808
1.790579 -1.089710 -2.297652 0.000000000000000e+00 1634890835
1.995274 -0.677821 -2.233286 0.000000000000000e+00 1634890835
1.992089 -0.799386 -2.310376 0.000000000000000e+00 1634890835
0.802041 -0.429429 -1.004897 0.000000000000000e+00 1886740808
0.770471 -0.469505 -1.006929 0.000000000000000e+00 1886740808
2.030808 -0.688733 -2.311727 0.000000000000000e+00 1634890835
1.916194 -0.768339 -2.260876 0.000000000000000e+00 1634890835
0.792676 -0.424707 -1.011123 0.000000000000000e+00 1886740808
1.705123 -1.040442 -2.269696 0.000000000000000e+00 1634890835
1.944816 -0.658440 -2.251547 0.000000000000000e+00 1634890835
0.795112 -0.318567 -0.954421 0.000000000000000e+00 1886740808
1.785401 -0.957270 -2.318698 0.000000000000000e+00 1634890835
1.720078 -1.050992 -2.332115 0.000000000000000e+00 1634890835
1.941128 -0.656044 -2.285612 0.000000000000000e+00 1634890835
0.778106 -0.311503 -0.950251 0.000000000000000e+00 1886740808
0.771211 -0.413792 -1.019767 0.000000000000000e+00 1886740808
1.640345 -1.003662 -2.265425 0.000000000000000e+00 1634890835
1.924310 -0.649202 -2.304532 0.000000000000000e+00 1634890835
0.791281 -0.316519 -0.983184 0.000000000000000e+00 1886740808
1.694594 -0.909895 -2.281575 0.000000000000000e+00 1634890835
1.592692 -0.975884 -2.240708 0.000000000000000e+00 1634890835
0.815778 -0.274717 -0.993698 0.000000000000000e+00 1886740808
0.751828 -0.300486 -0.950483 0.000000000000000e+00 1886740808
1.665389 -0.894882 -2.283239 0.000000000000000e+00 1634890835
1.574362 -0.966045 -2.256447 0.000000000000000e+00 1634890835
0.809202 -0.271997 -1.002610 0.000000000000000e+00 1886740808
0.775644 -0.309741 -0.997772 0.000000000000000e+00 1886740808
1.645413 -0.884821 -2.297228 0.000000000000000e+00 1634890835
1.584119 -0.973467 -2.313168 0.000000000000000e+00 1634890835
0.787832 -0.264311 -0.992935 0.000000000000000e+00 1886740808
0.788812 -0.314725 -1.032542 0.000000000000000e+00 1886740808
1.611214 -0.867105 -2.290899 0.000000000000000e+00 1634890835
1.554019 -0.956409 -2.312110 0.000000000000000e+00 1634890835
0.780645 -0.261391 -1.000865 0.000000000000000e+00 1886740808
1.732130 -0.690483 -2.307310 0.000000000000000e+00 1634890835
1.600387 -0.861962 -2.317576 0.000000000000000e+00 1634890835
1.489561 -0.918151 -2.258295 0.000000000000000e+00 1634890835
0.780279 -0.260751 -1.017726 0.000000000000000e+00 1886740808
1.709530 -0.680855 -2.317505 0.000000000000000e+00 1634890835
1.583907 -0.853780 -2.336308 0.000000000000000e+00 1634890835
1.486610 -0.917776 -2.296835 0.000000000000000e+00 1634890835
0.764988 -0.255122 -1.015130 0.000000000000000e+00 1886740808
0.737124 -0.293302 -1.017029 0.000000000000000e+00 1886740808
1.529427 -0.825099 -2.298049 0.000000000000000e+00 1634890835
1.448814 -0.895884 -2.281389 0.000000000000000e+00 1634890835
1.722233 -0.573169 -2.325273 0.000000000000000e+00 1634890835
1.645873 -0.654270 -2.311377 0.000000000000000e+00 1634890835
1.508236 -0.814358 -2.308720 0.000000000000000e+00 1634890835
1.444322 -0.894580 -2.318201 0.000000000000000e+00 1634890835
0.735896 -0.244390 -1.010987 0.000000000000000e+00 1886740808
1.620846 -0.643695 -2.317037 0.000000000000000e+00 1634890835
1.470577 -0.794718 -2.293535 0.000000000000000e+00 1634890835
1.392502 -0.863942 -2.278417 0.000000000000000e+00 1634890835
1.627802 -0.539414 -2.275678 0.000000000000000e+00 1634890835
1.579677 -0.626719 -2.298867 0.000000000000000e+00 1634890835
1.478102 -0.799496 -2.349009 0.000000000000000e+00 1634890835
1.371212 -0.852205 -2.287415 0.000000000000000e+00 1634890835
1.609640 -0.532208 -2.290107 0.000000000000000e+00 1634890835
1.555824 -0.616627 -2.305162 0.000000000000000e+00 1634890835
1.442547 -0.780977 -2.336273 0.000000000000000e+00 1634890835
1.365505 -0.850163 -2.322701 0.000000000000000e+00 1634890835
1.587978 -0.523846 -2.299472 0.000000000000000e+00 1634890835
1.519191 -0.601478 -2.291882 0.000000000000000e+00 1634890835
1.361672 -0.737882 -2.247674 0.000000000000000e+00 1634890835
1.343243 -0.837823 -2.330099 0.000000000000000e+00 1634890835
1.578449 -0.519481 -2.326550 0.000000000000000e+00 1634890835
1.488275 -0.588606 -2.286377 0.000000000000000e+00 1634890835
1.368231 -0.742149 -2.302207 0.000000000000000e+00 1634890835
1.307889 -0.817293 -2.314057 0.000000000000000e+00 1634890835
1.519668 -0.498932 -2.280201 0.000000000000000e+00 1634890835
1.469246 -0.580440 -2.298757 0.000000000000000e+00 1634890835
1.374103 -0.746068 -2.357157 0.000000000000000e+00 1634890835
1.272202 -0.796515 -2.296203 0.000000000000000e+00 1634890835
1.503744 -0.492483 -2.297142 0.000000000000000e+00 1634890835
1.452620 -0.573225 -2.314924 0.000000000000000e+00 1634890835
1.320150 -0.717499 -2.309091 0.000000000000000e+00 1634890835
1.248089 -0.782954 -2.298382 0.000000000000000e+00 1634890835
1.456451 -0.475786 -2.265429 0.000000000000000e+00 1634890835
1.427828 -0.562789 -2.317939 0.000000000000000e+00 1634890835
1.286714 -0.700052 -2.295175 0.000000000000000e+00 1634890835
1.203275 -0.756366 -2.261202 0.000000000000000e+00 1634890835
1.425202 -0.464364 -2.257481 0.000000000000000e+00 1634890835
1.410402 -0.555259 -2.332754 0.000000000000000e+00 1634890835
1.289956 -0.702565 -2.346910 0.000000000000000e+00 1634890835
1.221301 -0.769288 -2.342472 0.000000000000000e+00 1634890835
1.443687 -0.469125 -2.329003 0.000000000000000e+00 1634890835
1.377889 -0.541795 -2.322212 0.000000000000000e+00 1634890835
1.219228 -0.664770 -2.262922 0.000000000000000e+00 1634890835
1.150397 -0.726173 -2.252482 0.000000000000000e+00 1634890835
1.403876 -0.454932 -2.306930 0.000000000000000e+00 1634890835
1.327726 -0.521413 -2.280460 0.000000000000000e+00 1634890835
1.238574 -0.676082 -2.345575 0.000000000000000e+00 1634890835
1.153221 -0.729555 -2.305560 0.000000000000000e+00 1634890835
1.354714 -0.437755 -2.267901 0.000000000000000e+00 1634890835
1.326081 -0.520092 -2.321555 0.000000000000000e+00 1634890835
1.174843 -0.642038 -2.270566 0.000000000000000e+00 1634890835
1.132960 -0.718358 -2.313249 0.000000000000000e+00 1634890835
1.366034 -0.440121 -2.330101 0.000000000000000e+00 1634890835
1.314036 -0.514682 -2.345222 0.000000000000000e+00 1634890835
1.171012 -0.640710 -2.310099 0.000000000000000e+00 1634890835
1.123338 -0.713915 -2.342934 0.000000000000000e+00 1634890835
1.304566 -0.419051 -2.267701 0.000000000000000e+00 1634890835
1.243551 -0.486405 -2.262996 0.000000000000000e+00 1634890835
1.159382 -0.635127 -2.335090 0.000000000000000e+00 1634890835
1.078188 -0.686867 -2.297682 0.000000000000000e+00 1634890835
1.287876 -0.412405 -2.281775 0.000000000000000e+00 1634890835
1.248671 -0.487717 -2.317350 0.000000000000000e+00 1634890835
1.130527 -0.620105 -2.325216 0.000000000000000e+00 1634890835
1.057352 -0.675261 -2.302873 0.000000000000000e+00 1634890835
1.270675 -0.405592 -2.295032 0.000000000000000e+00 1634890835
1.187200 -0.463030 -2.247372 0.000000000000000e+00 1634890835
1.125456 -0.618133 -2.364392 0.000000000000000e+00 1634890835
1.029327 -0.659043 -2.291780 0.000000000000000e+00 1634890835
1.242661 -0.395338 -2.288459 0.000000000000000e+00 1634890835
1.211214 -0.471685 -2.339204 0.000000000000000e+00 1634890835
1.077860 -0.592792 -2.313501 0.000000000000000e+00 1634890835
1.016266 -0.652398 -2.313756 0.000000000000000e+00 1634890835
1.196409 -0.379321 -2.246935 0.000000000000000e+00 1634890835
1.163517 -0.452405 -2.293025 0.000000000000000e+00 1634890835
1.081940 -0.595867 -2.373236 0.000000000000000e+00 1634890835
0.996149 -0.641228 -2.319804 0.000000000000000e+00 1634890835
1.212177 -0.382960 -2.322130 0.000000000000000e+00 1634890835
1.159767 -0.450222 -2.332883 0.000000000000000e+00 1634890835
1.037987 -0.572484 -2.327443 0.000000000000000e+00 1634890835
0.957671 -0.618200 -2.281890 0.000000000000000e+00 1634890835
1.182781 -0.372306 -2.311681 0.000000000000000e+00 1634890835
1.157336 -0.448532 -2.376681 0.000000000000000e+00 1634890835
1.019976 -0.563391 -2.338584 0.000000000000000e+00 1634890835
0.929445 -0.601731 -2.266701 0.000000000000000e+00 1634890835
1.151376 -0.361047 -2.296364 0.000000000000000e+00 1634890835
1.096954 -0.424398 -2.300360 0.000000000000000e+00 1634890835
0.986181 -0.545565 -2.312742 0.000000000000000e+00 1634890835
0.935161 -0.607262 -2.335052 0.000000000000000e+00 1634890835
1.124596 -0.351265 -2.289409 0.000000000000000e+00 1634890835
1.073876 -0.414729 -2.300226 0.000000000000000e+00 1634890835
0.961227 -0.532612 -2.306447 0.000000000000000e+00 1634890835
0.896759 -0.584150 -2.293409 0.000000000000000e+00 1634890835
1.112659 -0.346120 -2.312595 0.000000000000000e+00 1634890835
1.051427 -0.405309 -2.301036 0.000000000000000e+00 1634890835
0.952600 -0.528708 -2.339491 0.000000000000000e+00 1634890835
0.895729 -0.585377 -2.347162 0.000000000000000e+00 1634890835
1.100290 -0.340826 -2.335439 0.000000000000000e+00 1634890835
1.042878 -0.401242 -2.332542 0.000000000000000e+00 1634890835
0.912542 -0.507348 -2.294618 0.000000000000000e+00 1634890835
0.863134 -0.565980 -2.318344 0.000000000000000e+00 1634890835
1.046714 -0.322806 -2.269507 0.000000000000000e+00 1634890835
1.009133 -0.387487 -2.307423 0.000000000000000e+00 1634890835
0.892570 -0.497131 -2.298840 0.000000000000000e+00 1634890835
0.831181 -0.546940 -2.289343 0.000000000000000e+00 1634890835
1.021211 -0.313502 -2.262485 0.000000000000000e+00 1634890835
0.983080 -0.376702 -2.298727 0.000000000000000e+00 1634890835
0.860676 -0.480258 -2.271355 0.000000000000000e+00 1634890835
0.447670 -0.295654 -1.264974 0.000000000000000e+00 1936876886
1.016517 -0.310576 -2.301876 0.000000000000000e+00 1634890835
0.949567 -0.363079 -2.271373 0.000000000000000e+00 1634890835
0.838266 -0.468659 -2.267706 0.000000000000000e+00 1634890835
0.449267 -0.297837 -1.302986 0.000000000000000e+00 1936876886
0.985794 -0.299698 -2.282377 0.000000000000000e+00 1634890835
0.935814 -0.357019 -2.290700 0.000000000000000e+00 1634890835
0.835957 -0.468308 -2.319192 0.000000000000000e+00 1634890835
0.420823 -0.280085 -1.253316 0.000000000000000e+00 1936876886
0.961556 -0.290817 -2.276953 0.000000000000000e+00 1634890835
0.932911 -0.355080 -2.337728 0.000000000000000e+00 1634890835
0.456491 -0.256266 -1.299371 0.000000000000000e+00 1936876886
0.357117 -0.238667 -1.092759 0.000000000000000e+00 1953264973
0.946882 -0.284835 -2.294061 0.000000000000000e+00 1634890835
0.906796 -0.344301 -2.327050 0.000000000000000e+00 1634890835
0.437357 -0.246062 -1.277898 0.000000000000000e+00 1936876886
0.311721 -0.209227 -0.980555 0.000000000000000e+00 1953264973
0.504270 -0.150835 -1.250431 0.000000000000000e+00 1936876886
0.867989 -0.328728 -2.282071 0.000000000000000e+00 1634890835
0.375199 -0.211574 -1.125908 0.000000000000000e+00 1953264973
0.280229 -0.188938 -0.906706 0.000000000000000e+00 1953264973
0.487396 -0.144927 -1.237468 0.000000000000000e+00 1936876886
0.868002 -0.327859 -2.339054 0.000000000000000e+00 1634890835
0.328729 -0.185813 -1.013669 0.000000000000000e+00 1953264973
0.270740 -0.183403 -0.901614 0.000000000000000e+00 1953264973
0.486250 -0.143692 -1.264568 0.000000000000000e+00 1936876886
0.855173 -0.322115 -2.363057 0.000000000000000e+00 1634890835
0.313822 -0.177832 -0.994966 0.000000000000000e+00 1953264973
0.248164 -0.168942 -0.851153 0.000000000000000e+00 1953264973
