# .PCD v0.7 - Point Cloud Data file format
VERSION 0.7
FIELDS x y z rgb label
SIZE 4 4 4 4 4
TYPE F F F F U
COUNT 1 1 1 1 1
WIDTH 536
HEIGHT 1
VIEWPOINT 0 0 0 1 0 0 0
POINTS 536
DATA ascii
34.246796 -12.732424 -2.175844 0.000000000000000e+00 1851878480
36.982738 -15.469696 -2.254552 0.000000000000000e+00 1851878480
30.110987 -15.538635 -1.628262 0.000000000000000e+00 1851878480
28.601061 -16.238676 -1.420315 0.000000000000000e+00 1851878480
29.095272 -10.808966 -2.112865 0.000000000000000e+00 1851878480
28.580441 -11.950892 -2.009890 0.000000000000000e+00 1851878480
26.797075 -13.832796 -1.716528 0.000000000000000e+00 1851878480
25.871187 -14.697419 -1.551946 0.000000000000000e+00 1851878480
26.594427 -9.872389 -2.173074 0.000000000000000e+00 1851878480
26.073853 -10.898928 -2.077952 0.000000000000000e+00 1851878480
24.937859 -12.877046 -1.846635 0.000000000000000e+00 1851878480
24.346724 -13.839523 -1.712277 0.000000000000000e+00 1851878480
24.132441 -8.951642 -2.191568 0.000000000000000e+00 1851878480
24.276873 -10.144222 -2.162499 0.000000000000000e+00 1851878480
23.411020 -12.092379 -1.967832 0.000000000000000e+00 1851878480
23.177528 -13.182713 -1.870089 0.000000000000000e+00 1851878480
22.249575 -8.246929 -2.223344 0.000000000000000e+00 1851878480
22.401049 -9.357116 -2.205829 0.000000000000000e+00 1851878480
22.139959 -11.439404 -2.082858 0.000000000000000e+00 1851878480
21.845560 -12.432479 -1.989224 0.000000000000000e+00 1851878480
20.530497 -7.603944 -2.238905 0.000000000000000e+00 1851878480
20.655222 -8.624824 -2.228216 0.000000000000000e+00 1851878480
20.772314 -10.736088 -2.162692 0.000000000000000e+00 1851878480
20.430277 -11.633930 -2.072644 0.000000000000000e+00 1851878480
18.968372 -7.020008 -2.241904 0.000000000000000e+00 1851878480
19.049780 -7.951649 -2.234507 0.000000000000000e+00 1851878480
19.474953 -10.068692 -2.223449 0.000000000000000e+00 1851878480
19.164568 -10.919653 -2.143769 0.000000000000000e+00 1851878480
17.577766 -6.500373 -2.238451 0.000000000000000e+00 1851878480
17.667734 -7.372157 -2.239144 0.000000000000000e+00 1851878480
17.932604 -9.274179 -2.228034 0.000000000000000e+00 1851878480
17.909836 -10.210805 -2.190269 0.000000000000000e+00 1851878480
16.420038 -6.067580 -2.241597 0.000000000000000e+00 1851878480
16.431286 -6.853805 -2.237815 0.000000000000000e+00 1851878480
16.588312 -8.581638 -2.228500 0.000000000000000e+00 1851878480
16.685787 -9.518622 -2.215055 0.000000000000000e+00 1851878480
15.381808 -5.679565 -2.241189 0.000000000000000e+00 1851878480
15.396863 -6.420043 -2.242818 0.000000000000000e+00 1851878480
15.491578 -8.016773 -2.237928 0.000000000000000e+00 1851878480
15.452989 -8.820627 -2.213374 0.000000000000000e+00 1851878480
14.500324 -5.349953 -2.246257 0.000000000000000e+00 1851878480
14.487444 -6.038692 -2.247911 0.000000000000000e+00 1851878480
14.486907 -7.499218 -2.239745 0.000000000000000e+00 1851878480
14.467123 -8.262838 -2.224196 0.000000000000000e+00 1851878480
13.621809 -5.021942 -2.235862 0.000000000000000e+00 1851878480
13.618574 -5.674509 -2.242715 0.000000000000000e+00 1851878480
13.609949 -7.047480 -2.242580 0.000000000000000e+00 1851878480
13.601390 -7.773046 -2.234423 0.000000000000000e+00 1851878480
12.907711 -4.754990 -2.238041 0.000000000000000e+00 1851878480
12.887263 -5.367866 -2.245246 0.000000000000000e+00 1851878480
12.883913 -6.673631 -2.254340 0.000000000000000e+00 1851878480
12.806980 -7.323457 -2.239264 0.000000000000000e+00 1851878480
12.284241 -4.521794 -2.243851 0.000000000000000e+00 1851878480
12.174719 -5.069263 -2.237580 0.000000000000000e+00 1851878480
12.050097 -6.243709 -2.231694 0.000000000000000e+00 1851878480
12.118534 -6.933974 -2.247358 0.000000000000000e+00 1851878480
11.713740 -4.308434 -2.248554 0.000000000000000e+00 1851878480
11.641845 -4.845642 -2.251329 0.000000000000000e+00 1851878480
11.514880 -5.968281 -2.250705 0.000000000000000e+00 1851878480
11.460629 -6.561502 -2.247231 0.000000000000000e+00 1851878480
11.166565 -4.103964 -2.247636 0.000000000000000e+00 1851878480
11.058634 -4.601231 -2.244949 0.000000000000000e+00 1851878480
10.914142 -5.658709 -2.245617 0.000000000000000e+00 1851878480
10.847815 -6.214424 -2.242825 0.000000000000000e+00 1851878480
10.623036 -3.901142 -2.237576 0.000000000000000e+00 1851878480
10.587663 -4.403677 -2.251527 0.000000000000000e+00 1851878480
10.434568 -5.411790 -2.254704 0.000000000000000e+00 1851878480
5.891343 -3.377052 -1.281145 1.880790849211783e-38 1684957512
5.806437 -2.130644 -1.277507 1.880790849211783e-38 1684957512
5.739051 -2.386149 -1.276015 1.880790849211783e-38 1684957512
5.704382 -2.959477 -1.291726 1.880790849211783e-38 1684957512
5.655075 -3.243603 -1.290552 1.880790849211783e-38 1684957512
5.576434 -2.044629 -1.279387 1.880790849211783e-38 1684957512
5.513265 -2.291439 -1.279381 1.880790849211783e-38 1684957512
5.456789 -2.831933 -1.292424 1.880790849211783e-38 1684957512
5.391572 -3.094365 -1.288596 1.880790849211783e-38 1684957512
5.359248 -1.963439 -1.280173 1.880790849211783e-38 1684957512
5.326651 -2.213068 -1.288015 1.880790849211783e-38 1684957512
5.229491 -2.714849 -1.293200 1.880790849211783e-38 1684957512
5.118332 -2.939358 -1.278746 1.880790849211783e-38 1684957512
5.179843 -1.896199 -1.286413 1.880790849211783e-38 1684957512
5.135499 -2.132866 -1.292055 1.880790849211783e-38 1684957512
5.023251 -2.608626 -1.294868 1.880790849211783e-38 1684957512
4.977497 -2.860247 -1.297716 1.880790849211783e-38 1684957512
4.940629 -1.807186 -1.274007 1.880790849211783e-38 1684957512
4.919735 -2.042503 -1.286107 1.880790849211783e-38 1684957512
4.836143 -2.512277 -1.297557 1.880790849211783e-38 1684957512
4.758541 -2.736130 -1.292632 1.880790849211783e-38 1684957512
4.826835 -1.764146 -1.290763 1.880790849211783e-38 1684957512
4.690290 -1.946524 -1.272394 1.880790849211783e-38 1684957512
4.610861 -2.396033 -1.285875 1.880790849211783e-38 1684957512
4.518805 -2.599908 -1.277117 1.880790849211783e-38 1684957512
4.613439 -1.684792 -1.277939 1.880790849211783e-38 1684957512
4.615529 -1.914787 -1.297837 1.880790849211783e-38 1684957512
4.461361 -2.319104 -1.291578 1.880790849211783e-38 1684957512
4.355846 -2.507720 -1.279107 1.880790849211783e-38 1684957512
4.469777 -1.631003 -1.281186 1.880790849211783e-38 1684957512
4.409647 -1.828692 -1.283818 1.880790849211783e-38 1684957512
4.337665 -2.255550 -1.302065 1.880790849211783e-38 1684957512
4.200485 -2.419801 -1.280044 1.880790849211783e-38 1684957512
4.410871 -1.608200 -1.306962 1.880790849211783e-38 1684957512
4.251541 -1.762463 -1.280278 1.880790849211783e-38 1684957512
4.131827 -2.149229 -1.284593 1.880790849211783e-38 1684957512
4.075193 -2.349113 -1.287263 1.880790849211783e-38 1684957512
4.172427 -1.520019 -1.276846 1.880790849211783e-38 1684957512
4.126480 -1.709975 -1.284052 1.880790849211783e-38 1684957512
4.019338 -2.091412 -1.292946 1.880790849211783e-38 1684957512
3.900937 -2.250094 -1.275905 1.880790849211783e-38 1684957512
4.131374 -1.503829 -1.304610 1.880790849211783e-38 1684957512
4.022688 -1.666334 -1.292344 1.880790849211783e-38 1684957512
3.906791 -2.033531 -1.299075 1.880790849211783e-38 1684957512
3.901088 -2.251622 -1.319882 1.880790849211783e-38 1684957512
3.917929 -1.424955 -1.275635 1.880790849211783e-38 1684957512
4.036855 -1.671564 -1.337829 1.880790849211783e-38 1684957512
3.983291 -2.074047 -1.367906 1.880790849211783e-38 1684957512
3.910750 -2.258653 -1.367432 1.880790849211783e-38 1684957512
3.999240 -1.453319 -1.341529 1.880790849211783e-38 1684957512
3.923693 -1.624085 -1.340319 1.880790849211783e-38 1684957512
3.944493 -2.054544 -1.397793 1.880790849211783e-38 1684957512
3.946131 -2.280561 -1.424743 1.880790849211783e-38 1684957512
3.959531 -1.437688 -1.367439 1.880790849211783e-38 1684957512
3.928853 -1.625595 -1.382339 1.880790849211783e-38 1684957512
3.955000 -2.060717 -1.445089 1.880790849211783e-38 1684957512
3.944123 -2.280885 -1.469203 1.880790849211783e-38 1684957512
3.996538 -1.449907 -1.420027 1.880790849211783e-38 1684957512
3.929553 -1.625256 -1.423072 1.880790849211783e-38 1684957512
3.918432 -2.042363 -1.475154 1.880790849211783e-38 1684957512
3.902659 -2.258384 -1.498742 1.880790849211783e-38 1684957512
4.005386 -1.451889 -1.463285 1.880790849211783e-38 1684957512
3.934000 -1.626459 -1.465445 1.880790849211783e-38 1684957512
3.904061 -2.035573 -1.513273 1.880790849211783e-38 1684957512
3.935332 -2.278792 -1.556938 1.880790849211783e-38 1684957512
3.952429 -1.431475 -1.483745 1.880790849211783e-38 1684957512
3.935587 -1.626480 -1.507051 1.880790849211783e-38 1684957512
3.966006 -2.068588 -1.581779 1.880790849211783e-38 1684957512
3.938277 -2.282007 -1.604080 1.880790849211783e-38 1684957512
4.039256 -1.461672 -1.557257 1.880790849211783e-38 1684957512
3.951393 -1.632369 -1.554531 1.880790849211783e-38 1684957512
3.932826 -2.051997 -1.612953 1.880790849211783e-38 1684957512
3.916820 -2.271089 -1.641374 1.880790849211783e-38 1684957512
4.029629 -1.456933 -1.594609 1.880790849211783e-38 1684957512
3.991572 -1.648313 -1.612444 1.880790849211783e-38 1684957512
3.957643 -2.065671 -1.668114 1.880790849211783e-38 1684957512
3.923893 -2.276717 -1.690771 1.880790849211783e-38 1684957512
3.998978 -1.444598 -1.623480 1.880790849211783e-38 1684957512
3.998434 -1.650486 -1.657661 1.880790849211783e-38 1684957512
3.946813 -2.060746 -1.708713 1.880790849211783e-38 1684957512
3.929478 -2.281501 -1.740004 1.880790849211783e-38 1684957512
4.000603 -1.443926 -1.665417 1.880790849211783e-38 1684957512
3.887932 -1.604230 -1.653391 1.880790849211783e-38 1684957512
3.876690 -2.024853 -1.723026 1.880790849211783e-38 1684957512
3.926896 -2.281554 -1.785995 1.880790849211783e-38 1684957512
4.064732 -1.465783 -1.734322 1.880790849211783e-38 1684957512
3.913497 -1.614125 -1.706356 1.880790849211783e-38 1684957512
3.957668 -2.067889 -1.804947 1.880790849211783e-38 1684957512
3.909845 -2.273206 -1.825518 1.880790849211783e-38 1684957512
4.030259 -1.452066 -1.761742 1.880790849211783e-38 1684957512
4.000911 -1.649507 -1.787797 1.880790849211783e-38 1684957512
3.969195 -2.074661 -1.856605 1.880790849211783e-38 1684957512
3.936701 -2.290399 -1.886021 1.880790849211783e-38 1684957512
4.021313 -1.447554 -1.800152 1.880790849211783e-38 1684957512
3.921843 -1.616245 -1.795236 1.880790849211783e-38 1684957512
3.996541 -2.089712 -1.916467 1.880790849211783e-38 1684957512
3.961771 -2.306590 -1.946678 1.880790849211783e-38 1684957512
4.021127 -1.446189 -1.842682 1.880790849211783e-38 1684957512
3.891517 -1.603085 -1.824098 1.880790849211783e-38 1684957512
3.946667 -2.064391 -1.939393 1.880790849211783e-38 1684957512
3.964141 -2.309588 -1.996906 1.880790849211783e-38 1684957512
4.036068 -1.450248 -1.892608 1.880790849211783e-38 1684957512
3.927233 -1.617124 -1.884295 1.880790849211783e-38 1684957512
3.908787 -2.045331 -1.967538 1.880790849211783e-38 1684957512
3.939200 -2.296678 -2.033497 1.880790849211783e-38 1684957512
4.044621 -1.451998 -1.940104 1.880790849211783e-38 1684957512
3.949623 -1.625660 -1.939070 1.880790849211783e-38 1684957512
3.959594 -2.072688 -2.040861 1.880790849211783e-38 1684957512
3.935896 -2.296387 -2.081316 1.880790849211783e-38 1684957512
4.015782 -1.440320 -1.969770 1.880790849211783e-38 1684957512
3.946486 -1.623682 -1.981866 1.880790849211783e-38 1684957512
3.911331 -2.048192 -2.063541 1.880790849211783e-38 1684957512
3.932432 -2.296015 -2.129389 1.880790849211783e-38 1684957512
4.001496 -1.433870 -2.006439 1.880790849211783e-38 1684957512
3.944849 -1.622316 -2.025714 1.880790849211783e-38 1684957512
3.919143 -2.053057 -2.115717 1.880790849211783e-38 1684957512
3.910439 -2.284829 -2.167541 1.880790849211783e-38 1684957512
4.086489 -1.462957 -2.094012 1.880790849211783e-38 1684957512
3.919282 -1.611108 -2.057325 1.880790849211783e-38 1684957512
3.942575 -2.066119 -2.177127 1.880790849211783e-38 1684957512
3.948684 -2.308859 -2.239744 1.880790849211783e-38 1684957512
4.074841 -1.457416 -2.133231 1.880790849211783e-38 1684957512
3.901500 -1.603103 -2.092896 1.880790849211783e-38 1684957512
3.947484 -2.069489 -2.229091 1.880790849211783e-38 1684957512
3.861677 -2.259651 -2.240730 0.000000000000000e+00 1851878480
4.074290 -1.455833 -2.178493 1.880790849211783e-38 1684957512
3.932943 -1.615315 -2.155413 1.880790849211783e-38 1684957512
3.946511 -2.069781 -2.278227 0.000000000000000e+00 1851878480
3.803894 -2.227494 -2.257251 0.000000000000000e+00 1851878480
4.058404 -1.448768 -2.215753 1.880790849211783e-38 1684957512
3.956241 -1.624167 -2.214499 1.880790849211783e-38 1684957512
3.833817 -2.011467 -2.261885 0.000000000000000e+00 1851878480
3.727246 -2.184251 -2.261278 0.000000000000000e+00 1851878480
4.007874 -1.429346 -2.233737 0.000000000000000e+00 1851878480
3.895487 -1.598514 -2.226501 1.880790849211783e-38 1684957512
3.738386 -1.962172 -2.253531 0.000000000000000e+00 1851878480
3.631550 -2.129783 -2.251931 0.000000000000000e+00 1851878480
3.997635 -1.424304 -2.273884 0.000000000000000e+00 1634890835
3.878572 -1.590857 -2.263056 0.000000000000000e+00 1851878480
3.668277 -1.926143 -2.258772 0.000000000000000e+00 1851878480
3.558784 -2.088705 -2.255022 0.000000000000000e+00 1851878480
3.949199 -1.405660 -2.292038 0.000000000000000e+00 1634890835
3.801874 -1.558691 -2.264033 0.000000000000000e+00 1851878480
3.599616 -1.890849 -2.263567 0.000000000000000e+00 1851878480
3.473231 -2.040068 -2.248346 0.000000000000000e+00 1851878480
3.844755 -1.367124 -2.276322 0.000000000000000e+00 1634890835
3.693869 -1.513717 -2.244561 0.000000000000000e+00 1851878480
3.484563 -1.831158 -2.237245 0.000000000000000e+00 1851878480
3.420574 -2.010707 -2.261560 0.000000000000000e+00 1851878480
3.788118 -1.345633 -2.287442 0.000000000000000e+00 1634890835
3.651174 -1.495530 -2.263372 0.000000000000000e+00 1851878480
3.454848 -1.816290 -2.264270 0.000000000000000e+00 1851878480
3.335464 -1.962223 -2.251903 0.000000000000000e+00 1851878480
3.741658 -1.327780 -2.303911 0.000000000000000e+00 1634890835
3.566387 -1.460120 -2.254957 0.000000000000000e+00 1851878480
3.363563 -1.769034 -2.249798 0.000000000000000e+00 1851878480
3.240959 -1.908148 -2.233886 0.000000000000000e+00 1851878480
3.641174 -1.290798 -2.285789 0.000000000000000e+00 1634890835
3.536681 -1.447272 -2.280388 0.000000000000000e+00 1851878480
3.287505 -1.729756 -2.243729 0.000000000000000e+00 1851878480
3.184961 -1.876686 -2.240781 0.000000000000000e+00 1851878480
3.565642 -1.262712 -2.281640 0.000000000000000e+00 1634890835
3.473964 -1.420930 -2.283823 0.000000000000000e+00 1634890835
3.275839 -1.724349 -2.280898 0.000000000000000e+00 1851878480
3.165747 -1.866883 -2.272993 0.000000000000000e+00 1851878480
3.522789 -1.246229 -2.297396 0.000000000000000e+00 1634890835
3.405169 -1.392118 -2.282049 0.000000000000000e+00 1634890835
3.226236 -1.698965 -2.291303 0.000000000000000e+00 1851878480
3.077848 -1.816541 -2.254854 0.000000000000000e+00 1851878480
3.423633 -1.209871 -2.275127 0.000000000000000e+00 1634890835
3.367887 -1.376205 -2.300496 0.000000000000000e+00 1634890835
3.119975 -1.643719 -2.259789 0.000000000000000e+00 1851878480
3.009879 -1.777905 -2.249556 0.000000000000000e+00 1851878480
3.386214 -1.195367 -2.292633 0.000000000000000e+00 1634890835
3.303972 -1.349424 -2.299909 0.000000000000000e+00 1634890835
3.100886 -1.634378 -2.290155 0.000000000000000e+00 1851878480
2.970709 -1.756245 -2.264724 0.000000000000000e+00 1851878480
3.339918 -1.177746 -2.303530 0.000000000000000e+00 1634890835
3.230503 -1.318759 -2.291345 0.000000000000000e+00 1634890835
2.996346 -1.579978 -2.256153 0.000000000000000e+00 1851878480
2.881584 -1.705005 -2.240417 0.000000000000000e+00 1851878480
3.261977 -1.149003 -2.291480 0.000000000000000e+00 1634890835
3.165480 -1.291564 -2.287416 0.000000000000000e+00 1634890835
2.912828 -1.536628 -2.235772 0.000000000000000e+00 1851878480
2.824767 -1.672827 -2.239552 0.000000000000000e+00 1851878480
3.216295 -1.131656 -2.300969 0.000000000000000e+00 1634890835
3.111763 -1.268999 -2.290549 0.000000000000000e+00 1634890835
2.903711 -1.532512 -2.271665 0.000000000000000e+00 1851878480
2.767178 -1.640154 -2.236860 0.000000000000000e+00 1851878480
3.144018 -1.104984 -2.290365 0.000000000000000e+00 1634890835
3.052919 -1.244360 -2.288871 0.000000000000000e+00 1634890835
2.873365 -1.517195 -2.290898 0.000000000000000e+00 1851878480
2.735055 -1.622545 -2.253908 0.000000000000000e+00 1851878480
3.085738 -1.083270 -2.288720 0.000000000000000e+00 1634890835
2.997252 -1.221031 -2.288501 0.000000000000000e+00 1634890835
2.763287 -1.459748 -2.244986 0.000000000000000e+00 1851878480
0.848740 -0.503957 -0.712955 0.000000000000000e+00 1886740808
3.059676 -1.072885 -2.310331 0.000000000000000e+00 1634890835
2.929766 -1.192907 -2.277899 0.000000000000000e+00 1634890835
2.764745 -1.461208 -2.288589 0.000000000000000e+00 1851878480
0.813948 -0.483736 -0.696874 0.000000000000000e+00 1886740808
2.992681 -1.048172 -2.300268 0.000000000000000e+00 1634890835
2.884117 -1.173692 -2.283191 0.000000000000000e+00 1634890835
0.881635 -0.466179 -0.743501 0.000000000000000e+00 1886740808
0.820717 -0.488207 -0.716105 0.000000000000000e+00 1886740808
2.897131 -1.013510 -2.266534 0.000000000000000e+00 1634890835
2.853856 -1.160745 -2.300099 0.000000000000000e+00 1634890835
0.837366 -0.442985 -0.719360 0.000000000000000e+00 1886740808
0.813506 -0.484368 -0.723317 0.000000000000000e+00 1886740808
2.905642 -1.015271 -2.313513 0.000000000000000e+00 1634890835
2.792968 -1.135356 -2.291530 0.000000000000000e+00 1634890835
0.812067 -0.429812 -0.710594 0.000000000000000e+00 1886740808
0.772293 -0.460262 -0.699673 0.000000000000000e+00 1886740808
2.858286 -0.997516 -2.315974 0.000000000000000e+00 1634890835
2.755348 -1.119439 -2.301146 0.000000000000000e+00 1634890835
0.865790 -0.458474 -0.771624 0.000000000000000e+00 1886740808
0.779099 -0.464763 -0.719145 0.000000000000000e+00 1886740808
2.775825 -0.967546 -2.288669 0.000000000000000e+00 1634890835
0.868192 -0.352529 -0.738001 0.000000000000000e+00 1886740808
0.826872 -0.438085 -0.750518 0.000000000000000e+00 1886740808
0.749245 -0.447386 -0.704572 0.000000000000000e+00 1886740808
0.859473 -0.299206 -0.721030 0.000000000000000e+00 1886740808
0.840210 -0.340971 -0.726893 0.000000000000000e+00 1886740808
0.783029 -0.415068 -0.723769 0.000000000000000e+00 1886740808
0.758510 -0.453364 -0.726627 0.000000000000000e+00 1886740808
0.857202 -0.298039 -0.731651 0.000000000000000e+00 1886740808
0.793647 -0.321888 -0.698749 0.000000000000000e+00 1886740808
0.798903 -0.423702 -0.751948 0.000000000000000e+00 1886740808
0.767698 -0.459313 -0.749139 0.000000000000000e+00 1886740808
0.817291 -0.283799 -0.709691 0.000000000000000e+00 1886740808
0.823351 -0.333738 -0.737672 0.000000000000000e+00 1886740808
0.775808 -0.411669 -0.743522 0.000000000000000e+00 1886740808
0.766521 -0.459073 -0.761892 0.000000000000000e+00 1886740808
0.775161 -0.268819 -0.684748 0.000000000000000e+00 1886740808
0.799633 -0.323931 -0.729003 0.000000000000000e+00 1886740808
0.792101 -0.420539 -0.772938 0.000000000000000e+00 1886740808
0.759688 -0.455448 -0.769097 0.000000000000000e+00 1886740808
0.797011 -0.276032 -0.716187 0.000000000000000e+00 1886740808
0.816068 -0.330388 -0.757011 0.000000000000000e+00 1886740808
0.800636 -0.425301 -0.795431 0.000000000000000e+00 1886740808
0.769731 -0.461950 -0.793674 0.000000000000000e+00 1886740808
0.790857 -0.273533 -0.722872 0.000000000000000e+00 1886740808
0.742286 -0.300332 -0.700591 0.000000000000000e+00 1886740808
0.741676 -0.394197 -0.750184 0.000000000000000e+00 1886740808
0.724703 -0.435387 -0.761035 0.000000000000000e+00 1886740808
0.789221 -0.272596 -0.733745 0.000000000000000e+00 1886740808
0.747498 -0.302251 -0.717800 0.000000000000000e+00 1886740808
0.757726 -0.402953 -0.780257 0.000000000000000e+00 1886740808
0.751790 -0.452147 -0.804026 0.000000000000000e+00 1886740808
0.778515 -0.268526 -0.736174 0.000000000000000e+00 1886740808
0.766475 -0.309728 -0.748818 0.000000000000000e+00 1886740808
0.781570 -0.415868 -0.819316 0.000000000000000e+00 1886740808
2.101144 -1.265068 -2.288476 0.000000000000000e+00 1634890835
0.724084 -0.249400 -0.696393 0.000000000000000e+00 1886740808
0.772732 -0.312054 -0.768031 0.000000000000000e+00 1886740808
0.820255 -0.436704 -0.875349 0.000000000000000e+00 1886740808
2.057968 -1.240449 -2.282647 0.000000000000000e+00 1634890835
0.710336 -0.244316 -0.694815 0.000000000000000e+00 1886740808
0.751006 -0.303082 -0.759372 0.000000000000000e+00 1886740808
2.130209 -1.134787 -2.314176 0.000000000000000e+00 1634890835
2.008834 -1.212203 -2.269072 0.000000000000000e+00 1634890835
0.768212 -0.263838 -0.764216 0.000000000000000e+00 1886740808
0.711329 -0.286877 -0.731701 0.000000000000000e+00 1886740808
2.085958 -1.111877 -2.306831 0.000000000000000e+00 1634890835
0.809058 -0.488775 -0.930646 0.000000000000000e+00 1886740808
0.752412 -0.258030 -0.761226 0.000000000000000e+00 1886740808
0.760145 -0.306357 -0.795436 0.000000000000000e+00 1886740808
2.070449 -1.104278 -2.330817 0.000000000000000e+00 1634890835
0.803693 -0.486103 -0.941446 0.000000000000000e+00 1886740808
0.745230 -0.255183 -0.766768 0.000000000000000e+00 1886740808
0.777477 -0.313126 -0.827633 0.000000000000000e+00 1886740808
2.028737 -1.082697 -2.324892 0.000000000000000e+00 1634890835
0.773880 -0.468628 -0.923169 0.000000000000000e+00 1886740808
0.757928 -0.259134 -0.793075 0.000000000000000e+00 1886740808
2.166090 -0.871770 -2.345670 0.000000000000000e+00 1634890835
0.863492 -0.461119 -1.007329 0.000000000000000e+00 1886740808
0.766276 -0.464586 -0.930895 0.000000000000000e+00 1886740808
0.762979 -0.260455 -0.811914 0.000000000000000e+00 1886740808
2.082896 -0.837689 -2.294553 0.000000000000000e+00 1634890835
0.790415 -0.422364 -0.938660 0.000000000000000e+00 1886740808
0.799706 -0.485452 -0.989373 0.000000000000000e+00 1886740808
0.736260 -0.250935 -0.796783 0.000000000000000e+00 1886740808
2.039652 -0.819700 -2.285751 0.000000000000000e+00 1634890835
0.827119 -0.442264 -0.999926 0.000000000000000e+00 1886740808
1.834213 -1.114837 -2.311021 0.000000000000000e+00 1634890835
2.078298 -0.707189 -2.287340 0.000000000000000e+00 1634890835
2.042486 -0.820230 -2.328515 0.000000000000000e+00 1634890835
0.792085 -0.423813 -0.974829 0.000000000000000e+00 1886740808
1.796292 -1.093187 -2.304983 0.000000000000000e+00 1634890835
2.047518 -0.695569 -2.291763 0.000000000000000e+00 1634890835
2.011823 -0.807305 -2.333263 0.000000000000000e+00 1634890835
0.797560 -0.427030 -0.999283 0.000000000000000e+00 1886740808
0.751428 -0.457901 -0.982041 0.000000000000000e+00 1886740808
2.012280 -0.682449 -2.290636 0.000000000000000e+00 1634890835
1.944659 -0.779752 -2.294461 0.000000000000000e+00 1634890835
0.818269 -0.438419 -1.043769 0.000000000000000e+00 1886740808
1.724588 -1.052319 -2.295606 0.000000000000000e+00 1634890835
1.976897 -0.669302 -2.288688 0.000000000000000e+00 1634890835
0.841170 -0.337021 -1.009708 0.000000000000000e+00 1886740808
1.744023 -0.935085 -2.264961 0.000000000000000e+00 1634890835
1.668415 -1.019426 -2.262070 0.000000000000000e+00 1634890835
1.915468 -0.647372 -2.255398 0.000000000000000e+00 1634890835
0.796442 -0.318844 -0.972644 0.000000000000000e+00 1886740808
0.764553 -0.410220 -1.010964 0.000000000000000e+00 1886740808
1.677727 -1.026535 -2.317053 0.000000000000000e+00 1634890835
1.887767 -0.636874 -2.260768 0.000000000000000e+00 1634890835
0.799610 -0.319851 -0.993533 0.000000000000000e+00 1886740808
1.755461 -0.942577 -2.363527 0.000000000000000e+00 1634890835
1.620033 -0.992636 -2.279172 0.000000000000000e+00 1634890835
0.817376 -0.275255 -0.995645 0.000000000000000e+00 1886740808
0.778283 -0.311060 -0.983929 0.000000000000000e+00 1886740808
1.705298 -0.916327 -2.337955 0.000000000000000e+00 1634890835
1.602217 -0.983138 -2.296371 0.000000000000000e+00 1634890835
0.792303 -0.266316 -0.981673 0.000000000000000e+00 1886740808
0.797242 -0.318366 -1.025555 0.000000000000000e+00 1886740808
1.665149 -0.895434 -2.324782 0.000000000000000e+00 1634890835
1.581052 -0.971583 -2.308690 0.000000000000000e+00 1634890835
0.793988 -0.266376 -1.000695 0.000000000000000e+00 1886740808
0.783722 -0.312695 -1.025880 0.000000000000000e+00 1886740808
1.627569 -0.875907 -2.314154 0.000000000000000e+00 1634890835
1.543867 -0.950161 -2.297006 0.000000000000000e+00 1634890835
0.778261 -0.260593 -0.997809 0.000000000000000e+00 1886740808
1.696966 -0.676465 -2.260470 0.000000000000000e+00 1634890835
1.590341 -0.856551 -2.303028 0.000000000000000e+00 1634890835
1.506245 -0.928435 -2.283589 0.000000000000000e+00 1634890835
0.757226 -0.253047 -0.987658 0.000000000000000e+00 1886740808
1.711080 -0.681472 -2.319606 0.000000000000000e+00 1634890835
1.598727 -0.861768 -2.358168 0.000000000000000e+00 1634890835
1.481138 -0.914398 -2.288381 0.000000000000000e+00 1634890835
0.807745 -0.269382 -1.071868 0.000000000000000e+00 1886740808
0.786483 -0.312942 -1.085130 0.000000000000000e+00 1886740808
1.546760 -0.834449 -2.324092 0.000000000000000e+00 1634890835
1.442598 -0.892040 -2.271600 0.000000000000000e+00 1634890835
1.716401 -0.571228 -2.317399 0.000000000000000e+00 1634890835
1.648476 -0.655305 -2.315033 0.000000000000000e+00 1634890835
1.497348 -0.808480 -2.292054 0.000000000000000e+00 1634890835
1.449433 -0.897745 -2.326404 0.000000000000000e+00 1634890835
0.744351 -0.247198 -1.022602 0.000000000000000e+00 1886740808
1.634278 -0.649029 -2.336237 0.000000000000000e+00 1634890835
1.528615 -0.826083 -2.384053 0.000000000000000e+00 1634890835
1.406782 -0.872802 -2.301782 0.000000000000000e+00 1634890835
1.610276 -0.533607 -2.251177 0.000000000000000e+00 1634890835
1.558271 -0.618227 -2.267715 0.000000000000000e+00 1634890835
1.441606 -0.779756 -2.291010 0.000000000000000e+00 1634890835
1.399253 -0.869632 -2.334190 0.000000000000000e+00 1634890835
1.614083 -0.533677 -2.296427 0.000000000000000e+00 1634890835
1.566911 -0.621021 -2.321589 0.000000000000000e+00 1634890835
1.441018 -0.780150 -2.333798 0.000000000000000e+00 1634890835
1.336107 -0.831859 -2.272694 0.000000000000000e+00 1634890835
1.587877 -0.523812 -2.299325 0.000000000000000e+00 1634890835
1.527350 -0.604709 -2.304191 0.000000000000000e+00 1634890835
1.405676 -0.761728 -2.320310 0.000000000000000e+00 1634890835
1.336339 -0.833517 -2.318124 0.000000000000000e+00 1634890835
1.562572 -0.514255 -2.303146 0.000000000000000e+00 1634890835
1.507392 -0.596166 -2.315747 0.000000000000000e+00 1634890835
1.361251 -0.738363 -2.290461 0.000000000000000e+00 1634890835
1.299302 -0.811927 -2.298863 0.000000000000000e+00 1634890835
1.529329 -0.502104 -2.294696 0.000000000000000e+00 1634890835
1.467424 -0.579720 -2.295906 0.000000000000000e+00 1634890835
1.346161 -0.730897 -2.309226 0.000000000000000e+00 1634890835
1.265717 -0.792454 -2.284497 0.000000000000000e+00 1634890835
1.524242 -0.499196 -2.328456 0.000000000000000e+00 1634890835
1.452035 -0.572994 -2.313991 0.000000000000000e+00 1634890835
1.334629 -0.725368 -2.334415 0.000000000000000e+00 1634890835
1.245695 -0.781452 -2.293973 0.000000000000000e+00 1634890835
1.496831 -0.488977 -2.328238 0.000000000000000e+00 1634890835
1.423164 -0.560951 -2.310368 0.000000000000000e+00 1634890835
1.303191 -0.709017 -2.324566 0.000000000000000e+00 1634890835
1.241849 -0.780613 -2.333690 0.000000000000000e+00 1634890835
1.469870 -0.478918 -2.328233 0.000000000000000e+00 1634890835
1.374584 -0.541158 -2.273513 0.000000000000000e+00 1634890835
1.272105 -0.692842 -2.314431 0.000000000000000e+00 1634890835
1.179228 -0.742786 -2.261775 0.000000000000000e+00 1634890835
1.405910 -0.456850 -2.268060 0.000000000000000e+00 1634890835
1.352922 -0.531977 -2.280133 0.000000000000000e+00 1634890835
1.242307 -0.677354 -2.305758 0.000000000000000e+00 1634890835
1.164578 -0.735124 -2.280247 0.000000000000000e+00 1634890835
1.384271 -0.448579 -2.274713 0.000000000000000e+00 1634890835
1.351707 -0.530831 -2.321649 0.000000000000000e+00 1634890835
1.230755 -0.671814 -2.330768 0.000000000000000e+00 1634890835
1.154031 -0.730068 -2.307180 0.000000000000000e+00 1634890835
1.358059 -0.438836 -2.273502 0.000000000000000e+00 1634890835
1.346385 -0.528056 -2.357102 0.000000000000000e+00 1634890835
1.201010 -0.656337 -2.321137 0.000000000000000e+00 1634890835
1.131584 -0.717486 -2.310440 0.000000000000000e+00 1634890835
1.317893 -0.424610 -2.247986 0.000000000000000e+00 1634890835
1.277144 -0.500232 -2.279379 0.000000000000000e+00 1634890835
1.169416 -0.639837 -2.306951 0.000000000000000e+00 1634890835
1.116628 -0.709650 -2.328938 0.000000000000000e+00 1634890835
1.297409 -0.416751 -2.255260 0.000000000000000e+00 1634890835
1.275661 -0.498964 -2.321428 0.000000000000000e+00 1634890835
1.141544 -0.625355 -2.299163 0.000000000000000e+00 1634890835
1.062987 -0.677183 -2.265289 0.000000000000000e+00 1634890835
1.287961 -0.412432 -2.281924 0.000000000000000e+00 1634890835
1.250322 -0.488361 -2.320414 0.000000000000000e+00 1634890835
1.139016 -0.624762 -2.342675 0.000000000000000e+00 1634890835
1.045952 -0.667981 -2.278044 0.000000000000000e+00 1634890835
1.252771 -0.399877 -2.262694 0.000000000000000e+00 1634890835
1.217516 -0.474853 -2.304760 0.000000000000000e+00 1634890835
1.108046 -0.608570 -2.327815 0.000000000000000e+00 1634890835
1.020251 -0.653232 -2.271572 0.000000000000000e+00 1634890835
1.242373 -0.395246 -2.287930 0.000000000000000e+00 1634890835
1.216591 -0.473778 -2.349588 0.000000000000000e+00 1634890835
1.080430 -0.594206 -2.319019 0.000000000000000e+00 1634890835
1.014952 -0.651555 -2.310765 0.000000000000000e+00 1634890835
1.192758 -0.378163 -2.240079 0.000000000000000e+00 1634890835
1.168339 -0.454280 -2.302528 0.000000000000000e+00 1634890835
1.035353 -0.570210 -2.271047 0.000000000000000e+00 1634890835
0.993533 -0.639545 -2.313712 0.000000000000000e+00 1634890835
1.204997 -0.380692 -2.308375 0.000000000000000e+00 1634890835
1.150600 -0.446663 -2.314444 0.000000000000000e+00 1634890835
1.047295 -0.577618 -2.348314 0.000000000000000e+00 1634890835
0.940749 -0.607276 -2.241569 0.000000000000000e+00 1634890835
1.167155 -0.367387 -2.281140 0.000000000000000e+00 1634890835
1.133547 -0.439312 -2.327827 0.000000000000000e+00 1634890835
1.001570 -0.553224 -2.296383 0.000000000000000e+00 1634890835
0.956604 -0.619313 -2.332933 0.000000000000000e+00 1634890835
1.123515 -0.352310 -2.240797 0.000000000000000e+00 1634890835
1.098350 -0.424938 -2.303287 0.000000000000000e+00 1634890835
0.998583 -0.552427 -2.341829 0.000000000000000e+00 1634890835
0.923241 -0.599521 -2.305285 0.000000000000000e+00 1634890835
1.110391 -0.346828 -2.260490 0.000000000000000e+00 1634890835
1.078721 -0.416600 -2.310603 0.000000000000000e+00 1634890835
0.951741 -0.527356 -2.283685 0.000000000000000e+00 1634890835
0.897749 -0.584796 -2.295942 0.000000000000000e+00 1634890835
1.105229 -0.343809 -2.297153 0.000000000000000e+00 1634890835
1.049802 -0.404682 -2.297479 0.000000000000000e+00 1634890835
0.941433 -0.522510 -2.312065 0.000000000000000e+00 1634890835
0.880513 -0.575433 -2.307289 0.000000000000000e+00 1634890835
1.089131 -0.337369 -2.311754 0.000000000000000e+00 1634890835
1.023399 -0.393748 -2.288976 0.000000000000000e+00 1634890835
0.911381 -0.506702 -2.291698 0.000000000000000e+00 1634890835
0.859866 -0.563837 -2.309568 0.000000000000000e+00 1634890835
1.063897 -0.328105 -2.306764 0.000000000000000e+00 1634890835
1.020331 -0.391787 -2.333030 0.000000000000000e+00 1634890835
0.898284 -0.500314 -2.313556 0.000000000000000e+00 1634890835
0.837918 -0.551374 -2.307901 0.000000000000000e+00 1634890835
1.034680 -0.317636 -2.292325 0.000000000000000e+00 1634890835
0.989619 -0.379208 -2.314017 0.000000000000000e+00 1634890835
0.881892 -0.492096 -2.327345 0.000000000000000e+00 1634890835
0.454620 -0.300244 -1.284611 0.000000000000000e+00 1936876886
1.015344 -0.310218 -2.299219 0.000000000000000e+00 1634890835
0.997937 -0.381573 -2.387074 0.000000000000000e+00 1634890835
0.844359 -0.472065 -2.284189 0.000000000000000e+00 1634890835
0.438746 -0.290862 -1.272473 0.000000000000000e+00 1936876886
1.005090 -0.305564 -2.327052 0.000000000000000e+00 1634890835
0.941170 -0.359062 -2.303810 0.000000000000000e+00 1634890835
0.850982 -0.476726 -2.360876 0.000000000000000e+00 1634890835
0.426881 -0.284117 -1.271358 0.000000000000000e+00 1936876886
0.987092 -0.298541 -2.337422 0.000000000000000e+00 1634890835
0.915407 -0.348418 -2.293864 0.000000000000000e+00 1634890835
0.440505 -0.247292 -1.253869 0.000000000000000e+00 1936876886
0.341043 -0.227924 -1.043573 0.000000000000000e+00 1953264973
0.927930 -0.279134 -2.248145 0.000000000000000e+00 1634890835
0.905372 -0.343760 -2.323396 0.000000000000000e+00 1634890835
0.431489 -0.242761 -1.260753 0.000000000000000e+00 1936876886
0.328083 -0.220209 -1.032026 0.000000000000000e+00 1953264973
0.491320 -0.146961 -1.218318 0.000000000000000e+00 1936876886
0.884273 -0.334895 -2.324884 0.000000000000000e+00 1634890835
0.362330 -0.204318 -1.087291 0.000000000000000e+00 1953264973
0.277152 -0.186864 -0.896749 0.000000000000000e+00 1953264973
0.516860 -0.153688 -1.312274 0.000000000000000e+00 1936876886
0.850697 -0.321322 -2.292420 0.000000000000000e+00 1634890835
0.353206 -0.199649 -1.089146 0.000000000000000e+00 1953264973
0.248118 -0.168078 -0.826278 0.000000000000000e+00 1953264973
0.484207 -0.143088 -1.259254 0.000000000000000e+00 1936876886
0.829682 -0.312513 -2.292618 0.000000000000000e+00 1634890835
0.312170 -0.176896 -0.989728 0.000000000000000e+00 1953264973
0.237059 -0.161382 -0.813065 0.000000000000000e+00 1953264973
