# .PCD v0.7 - Point Cloud Data file format
VERSION 0.7
FIELDS x y z rgb label
SIZE 4 4 4 4 4
TYPE F F F F U
COUNT 1 1 1 1 1
WIDTH 539
HEIGHT 1
VIEWPOINT 0 0 0 1 0 0 0
POINTS 539
DATA ascii
35.013130 -14.650955 -1.806972 0.000000000000000e+00 1851878480
31.032970 -16.009483 -1.368690 0.000000000000000e+00 1851878480
30.151884 -17.109087 -1.186270 0.000000000000000e+00 1851878480
31.658251 -11.770045 -2.011382 0.000000000000000e+00 1851878480
30.583872 -12.793082 -1.864463 0.000000000000000e+00 1851878480
28.654234 -14.786884 -1.549486 0.000000000000000e+00 1851878480
27.829180 -15.800430 -1.381984 0.000000000000000e+00 1851878480
28.934708 -10.749316 -2.101204 0.000000000000000e+00 1851878480
28.162304 -11.776048 -1.980486 0.000000000000000e+00 1851878480
27.151583 -14.015795 -1.739236 0.000000000000000e+00 1851878480
26.389225 -14.991714 -1.583023 0.000000000000000e+00 1851878480
26.707527 -9.914373 -2.182316 0.000000000000000e+00 1851878480
26.416368 -11.042100 -2.105248 0.000000000000000e+00 1851878480
25.752218 -13.297553 -1.906938 0.000000000000000e+00 1851878480
24.974081 -14.196135 -1.756400 0.000000000000000e+00 1851878480
24.474691 -9.078595 -2.222649 0.000000000000000e+00 1851878480
24.694300 -10.318645 -2.199682 0.000000000000000e+00 1851878480
23.953892 -12.372786 -2.013462 0.000000000000000e+00 1851878480
23.526299 -13.381083 -1.898230 0.000000000000000e+00 1851878480
22.353914 -8.285603 -2.233769 0.000000000000000e+00 1851878480
22.582371 -9.432857 -2.223685 0.000000000000000e+00 1851878480
22.215998 -11.478692 -2.090011 0.000000000000000e+00 1851878480
21.934118 -12.482879 -1.997289 0.000000000000000e+00 1851878480
20.424955 -7.564855 -2.227396 0.000000000000000e+00 1851878480
20.620909 -8.610497 -2.224515 0.000000000000000e+00 1851878480
20.612814 -10.653650 -2.146086 0.000000000000000e+00 1851878480
20.115311 -11.454576 -2.040691 0.000000000000000e+00 1851878480
18.921738 -7.002748 -2.236392 0.000000000000000e+00 1851878480
19.033495 -7.944851 -2.232597 0.000000000000000e+00 1851878480
19.207378 -9.930355 -2.192899 0.000000000000000e+00 1851878480
18.773916 -10.697067 -2.100069 0.000000000000000e+00 1851878480
17.606853 -6.511129 -2.242155 0.000000000000000e+00 1851878480
17.664755 -7.370913 -2.238766 0.000000000000000e+00 1851878480
17.764315 -9.187145 -2.207125 0.000000000000000e+00 1851878480
17.652985 -10.064368 -2.158857 0.000000000000000e+00 1851878480
16.481003 -6.090107 -2.249920 0.000000000000000e+00 1851878480
16.445293 -6.859648 -2.239722 0.000000000000000e+00 1851878480
16.525759 -8.549278 -2.220096 0.000000000000000e+00 1851878480
16.534868 -9.432528 -2.195020 0.000000000000000e+00 1851878480
8.822335 -3.257551 -1.285448 1.880790849211783e-38 1684957512
15.405252 -6.423540 -2.244040 0.000000000000000e+00 1851878480
15.405149 -7.972047 -2.225442 0.000000000000000e+00 1851878480
15.413984 -8.798363 -2.207787 0.000000000000000e+00 1851878480
8.264174 -3.049100 -1.280210 1.880790849211783e-38 1684957512
8.286759 -3.454107 -1.285796 1.880790849211783e-38 1684957512
14.490530 -7.501094 -2.240305 0.000000000000000e+00 1851878480
14.460797 -8.259225 -2.223224 0.000000000000000e+00 1851878480
7.841660 -2.890979 -1.287117 1.880790849211783e-38 1684957512
7.806613 -3.252815 -1.285598 1.880790849211783e-38 1684957512
13.624875 -7.055209 -2.245039 0.000000000000000e+00 1851878480
13.594748 -7.769249 -2.233331 0.000000000000000e+00 1851878480
7.663543 -2.823124 -1.328765 1.880790849211783e-38 1684957512
7.721741 -3.216297 -1.345297 1.880790849211783e-38 1684957512
12.854346 -6.658316 -2.249166 0.000000000000000e+00 1851878480
12.838423 -7.341437 -2.244762 0.000000000000000e+00 1851878480
7.628395 -2.807991 -1.393410 1.880790849211783e-38 1684957512
7.690446 -3.202119 -1.413419 1.880790849211783e-38 1684957512
12.109191 -6.274328 -2.242639 0.000000000000000e+00 1851878480
12.055746 -6.898048 -2.235713 0.000000000000000e+00 1851878480
7.684017 -2.826261 -1.475014 1.880790849211783e-38 1684957512
7.704853 -3.206963 -1.489983 1.880790849211783e-38 1684957512
11.482139 -5.951311 -2.244306 0.000000000000000e+00 1851878480
11.416085 -6.535998 -2.238497 0.000000000000000e+00 1851878480
7.702016 -2.830664 -1.550282 1.880790849211783e-38 1684957512
7.690875 -3.199987 -1.561280 1.880790849211783e-38 1684957512
10.875069 -5.638452 -2.237578 0.000000000000000e+00 1851878480
10.877958 -6.231693 -2.249057 0.000000000000000e+00 1851878480
7.736430 -2.841081 -1.629558 1.880790849211783e-38 1684957512
7.749725 -3.223307 -1.648023 1.880790849211783e-38 1684957512
10.381838 -5.384441 -2.243309 0.000000000000000e+00 1851878480
10.326057 -5.919131 -2.245529 0.000000000000000e+00 1851878480
7.716964 -2.831703 -1.697853 1.880790849211783e-38 1684957512
7.704681 -3.203407 -1.713051 1.880790849211783e-38 1684957512
9.915396 -5.144182 -2.245287 0.000000000000000e+00 1851878480
9.759298 -5.597678 -2.227183 0.000000000000000e+00 1851878480
7.676500 -2.814629 -1.761200 1.880790849211783e-38 1684957512
7.709709 -3.204331 -1.789076 1.880790849211783e-38 1684957512
9.470994 -4.915202 -2.243177 0.000000000000000e+00 1851878480
9.383941 -5.385690 -2.242780 0.000000000000000e+00 1851878480
7.637905 -2.798258 -1.824480 1.880790849211783e-38 1684957512
7.720973 -3.207839 -1.866976 1.880790849211783e-38 1684957512
9.111643 -4.730237 -2.253217 0.000000000000000e+00 1851878480
8.956957 -5.143806 -2.237774 0.000000000000000e+00 1851878480
7.639947 -2.796776 -1.897379 1.880790849211783e-38 1684957512
7.686216 -3.192225 -1.933797 1.880790849211783e-38 1684957512
8.695376 -4.515598 -2.241450 0.000000000000000e+00 1851878480
8.603259 -4.943740 -2.243012 0.000000000000000e+00 1851878480
7.720586 -2.824040 -1.990856 1.880790849211783e-38 1684957512
7.683472 -3.189910 -2.008597 1.880790849211783e-38 1684957512
8.399974 -4.363614 -2.253749 0.000000000000000e+00 1851878480
8.277876 -4.759724 -2.248641 0.000000000000000e+00 1851878480
7.710144 -2.817958 -2.061800 1.880790849211783e-38 1684957512
7.673293 -3.184505 -2.081631 1.880790849211783e-38 1684957512
8.048864 -4.182590 -2.244664 0.000000000000000e+00 1851878480
7.931841 -4.563608 -2.241718 0.000000000000000e+00 1851878480
7.708041 -2.814917 -2.135154 1.880790849211783e-38 1684957512
7.707752 -3.197618 -2.167336 1.880790849211783e-38 1684957512
7.782356 -4.045423 -2.253016 0.000000000000000e+00 1851878480
7.621427 -4.387760 -2.238055 0.000000000000000e+00 1851878480
7.669012 -2.798391 -2.198193 1.880790849211783e-38 1684957512
7.689371 -3.188802 -2.238672 1.880790849211783e-38 1684957512
7.513469 -3.906942 -2.255367 0.000000000000000e+00 1851878480
7.327830 -4.221391 -2.233062 0.000000000000000e+00 1851878480
7.563314 -2.757578 -2.241046 0.000000000000000e+00 1851878480
7.473283 -3.098026 -2.250450 0.000000000000000e+00 1851878480
7.260987 -3.776906 -2.257454 0.000000000000000e+00 1851878480
7.114727 -4.101229 -2.247384 0.000000000000000e+00 1851878480
7.333139 -2.671470 -2.244088 0.000000000000000e+00 1851878480
7.242165 -3.001087 -2.253572 0.000000000000000e+00 1851878480
6.992647 -3.638535 -2.249403 0.000000000000000e+00 1851878480
6.877489 -3.966995 -2.249466 0.000000000000000e+00 1851878480
7.108045 -2.587343 -2.244587 0.000000000000000e+00 1851878480
7.014709 -2.905730 -2.253571 0.000000000000000e+00 1851878480
6.805669 -3.542431 -2.263002 0.000000000000000e+00 1851878480
6.663135 -3.845815 -2.254384 0.000000000000000e+00 1851878480
6.826581 -2.482835 -2.222660 0.000000000000000e+00 1851878480
6.729342 -2.786458 -2.230129 0.000000000000000e+00 1851878480
6.567618 -3.419672 -2.255393 0.000000000000000e+00 1851878480
6.410018 -3.702105 -2.241325 0.000000000000000e+00 1851878480
6.717370 -2.441085 -2.253315 0.000000000000000e+00 1851878480
6.602184 -2.732759 -2.255281 0.000000000000000e+00 1851878480
6.360278 -3.312839 -2.253865 0.000000000000000e+00 1851878480
6.223012 -3.596423 -2.246807 0.000000000000000e+00 1851878480
6.518608 -2.366877 -2.251226 0.000000000000000e+00 1851878480
6.340257 -2.623332 -2.230774 0.000000000000000e+00 1851878480
6.189776 -3.225127 -2.261639 0.000000000000000e+00 1851878480
6.050378 -3.498933 -2.253792 0.000000000000000e+00 1851878480
6.343666 -2.301423 -2.253995 0.000000000000000e+00 1851878480
6.215228 -2.570607 -2.250820 0.000000000000000e+00 1851878480
6.035797 -3.145975 -2.272268 0.000000000000000e+00 1851878480
5.853542 -3.387319 -2.247941 0.000000000000000e+00 1851878480
6.144123 -2.227147 -2.244629 0.000000000000000e+00 1851878480
6.069209 -2.509233 -2.260826 0.000000000000000e+00 1851878480
5.749782 -2.997929 -2.228702 0.000000000000000e+00 1851878480
5.676621 -3.287103 -2.245845 0.000000000000000e+00 1851878480
5.957539 -2.157678 -2.236465 0.000000000000000e+00 1851878480
5.892564 -2.435249 -2.256435 0.000000000000000e+00 1851878480
5.656611 -2.950373 -2.256051 0.000000000000000e+00 1851878480
5.536471 -3.208069 -2.255033 0.000000000000000e+00 1851878480
5.828724 -2.109220 -2.247153 0.000000000000000e+00 1851878480
5.696208 -2.353173 -2.240965 0.000000000000000e+00 1851878480
5.476054 -2.857194 -2.245871 0.000000000000000e+00 1851878480
5.315380 -3.082016 -2.227452 0.000000000000000e+00 1851878480
5.702995 -2.061946 -2.256795 0.000000000000000e+00 1851878480
5.617905 -2.319904 -2.269421 0.000000000000000e+00 1851878480
5.375869 -2.805907 -2.265885 0.000000000000000e+00 1851878480
5.204113 -3.019525 -2.242407 0.000000000000000e+00 1851878480
5.453770 -1.970130 -2.214088 0.000000000000000e+00 1851878480
5.453741 -2.251212 -2.260998 0.000000000000000e+00 1851878480
5.276690 -2.755113 -2.284463 0.000000000000000e+00 1851878480
5.051041 -2.932694 -2.236641 0.000000000000000e+00 1851878480
5.422174 -1.957009 -2.257205 0.000000000000000e+00 1851878480
5.306765 -2.189666 -2.256767 0.000000000000000e+00 1851878480
5.025754 -2.625027 -2.233737 0.000000000000000e+00 1851878480
4.949317 -2.875588 -2.251004 0.000000000000000e+00 1851878480
5.227365 -1.885040 -2.230389 0.000000000000000e+00 1851878480
5.134751 -2.117831 -2.238845 0.000000000000000e+00 1851878480
4.930540 -2.576217 -2.248638 0.000000000000000e+00 1851878480
4.823597 -2.804466 -2.252151 0.000000000000000e+00 1851878480
5.142429 -1.852771 -2.247903 0.000000000000000e+00 1851878480
5.015023 -2.067608 -2.240951 0.000000000000000e+00 1851878480
4.835325 -2.527380 -2.261740 0.000000000000000e+00 1851878480
4.736081 -2.755483 -2.268993 0.000000000000000e+00 1851878480
4.992953 -1.797315 -2.235109 0.000000000000000e+00 1851878480
4.922468 -2.028615 -2.253274 0.000000000000000e+00 1851878480
4.690214 -2.452420 -2.249105 0.000000000000000e+00 1851878480
4.574034 -2.663057 -2.247523 0.000000000000000e+00 1851878480
4.893981 -1.760109 -2.242668 0.000000000000000e+00 1851878480
4.749547 -1.956544 -2.226288 0.000000000000000e+00 1851878480
4.593235 -2.402591 -2.257116 0.000000000000000e+00 1851878480
4.481525 -2.611026 -2.257534 0.000000000000000e+00 1851878480
4.805876 -1.726857 -2.253589 0.000000000000000e+00 1851878480
4.700573 -1.935564 -2.255345 0.000000000000000e+00 1851878480
4.490121 -2.349522 -2.260160 0.000000000000000e+00 1851878480
4.363146 -2.543852 -2.252347 0.000000000000000e+00 1851878480
4.693038 -1.684776 -2.251133 0.000000000000000e+00 1851878480
4.595678 -1.891576 -2.256250 0.000000000000000e+00 1851878480
4.429685 -2.318762 -2.283156 0.000000000000000e+00 1851878480
4.263394 -2.487465 -2.254498 0.000000000000000e+00 1851878480
4.612934 -1.654498 -2.262676 0.000000000000000e+00 1851878480
4.436461 -1.825270 -2.227925 0.000000000000000e+00 1851878480
4.271058 -2.236565 -2.253326 0.000000000000000e+00 1851878480
4.156845 -2.427042 -2.250907 0.000000000000000e+00 1851878480
4.431756 -1.588047 -2.222181 0.000000000000000e+00 1851878480
4.365623 -1.795359 -2.241785 0.000000000000000e+00 1851878480
4.122028 -2.159340 -2.225243 0.000000000000000e+00 1851878480
4.059709 -2.372046 -2.250280 0.000000000000000e+00 1851878480
4.371619 -1.565034 -2.240119 0.000000000000000e+00 1851878480
4.252074 -1.747909 -2.232016 0.000000000000000e+00 1851878480
4.091969 -2.144410 -2.259624 0.000000000000000e+00 1851878480
3.980443 -2.327429 -2.257758 0.000000000000000e+00 1851878480
4.323761 -1.546445 -2.263543 0.000000000000000e+00 1851878480
4.182467 -1.718550 -2.243616 0.000000000000000e+00 1851878480
3.963910 -2.078100 -2.238366 0.000000000000000e+00 1851878480
3.862207 -2.259961 -2.241038 0.000000000000000e+00 1851878480
4.214029 -1.505764 -2.253210 0.000000000000000e+00 1851878480
4.092943 -1.681029 -2.243099 0.000000000000000e+00 1851878480
3.912195 -2.051785 -2.258418 0.000000000000000e+00 1851878480
3.755996 -2.199445 -2.228827 0.000000000000000e+00 1851878480
4.098475 -1.463073 -2.237631 0.000000000000000e+00 1851878480
4.016062 -1.648726 -2.247983 0.000000000000000e+00 1851878480
3.799268 -1.993340 -2.241501 0.000000000000000e+00 1851878480
3.762286 -2.204785 -2.282537 0.000000000000000e+00 1851878480
4.033378 -1.438442 -2.247951 0.000000000000000e+00 1851878480
3.997033 -1.640183 -2.284541 0.000000000000000e+00 1851878480
3.734174 -1.959961 -2.250992 0.000000000000000e+00 1851878480
3.612019 -2.118329 -2.239820 0.000000000000000e+00 1851878480
4.026723 -1.434668 -2.290430 0.000000000000000e+00 1634890835
3.886974 -1.594303 -2.267958 0.000000000000000e+00 1851878480
3.656405 -1.919910 -2.251462 0.000000000000000e+00 1851878480
3.582603 -2.102685 -2.270115 0.000000000000000e+00 1851878480
3.953183 -1.407078 -2.294350 0.000000000000000e+00 1634890835
3.785586 -1.552013 -2.254333 0.000000000000000e+00 1851878480
3.593611 -1.887695 -2.259792 0.000000000000000e+00 1851878480
3.478771 -2.043322 -2.251933 0.000000000000000e+00 1851878480
3.903480 -1.388005 -2.311090 0.000000000000000e+00 1634890835
3.710713 -1.520620 -2.254797 0.000000000000000e+00 1851878480
3.509820 -1.844430 -2.253461 0.000000000000000e+00 1851878480
3.373858 -1.983246 -2.230673 0.000000000000000e+00 1851878480
3.756301 -1.334330 -2.268229 0.000000000000000e+00 1634890835
3.604126 -1.476260 -2.234208 0.000000000000000e+00 1851878480
3.461388 -1.819728 -2.268556 0.000000000000000e+00 1851878480
3.322964 -1.954869 -2.243464 0.000000000000000e+00 1851878480
3.687755 -1.308652 -2.270721 0.000000000000000e+00 1634890835
3.573692 -1.463110 -2.259576 0.000000000000000e+00 1851878480
3.371614 -1.773268 -2.255183 0.000000000000000e+00 1851878480
3.273026 -1.927027 -2.255988 0.000000000000000e+00 1851878480
3.649254 -1.293662 -2.290862 0.000000000000000e+00 1634890835
3.535456 -1.446770 -2.279598 0.000000000000000e+00 1851878480
3.312613 -1.742967 -2.260865 0.000000000000000e+00 1851878480
3.190256 -1.879806 -2.244507 0.000000000000000e+00 1851878480
3.591833 -1.271987 -2.298399 0.000000000000000e+00 1634890835
3.490329 -1.427624 -2.294582 0.000000000000000e+00 1634890835
3.267998 -1.720222 -2.275439 0.000000000000000e+00 1851878480
3.161104 -1.864145 -2.269660 0.000000000000000e+00 1851878480
3.491010 -1.234987 -2.276672 0.000000000000000e+00 1634890835
3.403243 -1.391331 -2.280758 0.000000000000000e+00 1634890835
3.140772 -1.653959 -2.230605 0.000000000000000e+00 1851878480
3.054792 -1.802934 -2.237964 0.000000000000000e+00 1851878480
3.487402 -1.232406 -2.317504 0.000000000000000e+00 1634890835
3.307215 -1.351413 -2.259053 0.000000000000000e+00 1634890835
3.151372 -1.660260 -2.282530 0.000000000000000e+00 1851878480
3.021712 -1.784894 -2.258400 0.000000000000000e+00 1851878480
3.418013 -1.206593 -2.314163 0.000000000000000e+00 1634890835
3.295770 -1.346074 -2.294199 0.000000000000000e+00 1634890835
3.069972 -1.618084 -2.267323 0.000000000000000e+00 1851878480
2.983437 -1.763769 -2.274427 0.000000000000000e+00 1851878480
3.321738 -1.171335 -2.290992 0.000000000000000e+00 1634890835
3.247051 -1.325514 -2.303082 0.000000000000000e+00 1634890835
3.024749 -1.594955 -2.277539 0.000000000000000e+00 1851878480
2.863939 -1.694565 -2.226698 0.000000000000000e+00 1851878480
3.269620 -1.151695 -2.296849 0.000000000000000e+00 1634890835
3.184690 -1.299402 -2.301297 0.000000000000000e+00 1634890835
2.971746 -1.567710 -2.280995 0.000000000000000e+00 1851878480
2.797524 -1.656694 -2.217953 0.000000000000000e+00 1851878480
3.213403 -1.130638 -2.298900 0.000000000000000e+00 1634890835
3.098831 -1.263725 -2.281029 0.000000000000000e+00 1634890835
2.868529 -1.513944 -2.244141 0.000000000000000e+00 1851878480
2.774283 -1.644365 -2.242603 0.000000000000000e+00 1851878480
3.125779 -1.098574 -2.277079 0.000000000000000e+00 1634890835
3.071008 -1.251733 -2.302433 0.000000000000000e+00 1634890835
2.841057 -1.500136 -2.265139 0.000000000000000e+00 1851878480
2.730366 -1.619763 -2.250044 0.000000000000000e+00 1851878480
3.101511 -1.088807 -2.300418 0.000000000000000e+00 1634890835
3.003325 -1.223505 -2.293138 0.000000000000000e+00 1634890835
2.767563 -1.462007 -2.248460 0.000000000000000e+00 1851878480
0.865353 -0.513821 -0.726911 0.000000000000000e+00 1886740808
3.030307 -1.062587 -2.288154 0.000000000000000e+00 1634890835
2.967742 -1.208369 -2.307425 0.000000000000000e+00 1634890835
2.709062 -1.431779 -2.242496 0.000000000000000e+00 1851878480
0.820036 -0.487354 -0.702087 0.000000000000000e+00 1886740808
2.996325 -1.049449 -2.303069 0.000000000000000e+00 1634890835
2.920043 -1.188312 -2.311631 0.000000000000000e+00 1634890835
0.879778 -0.465197 -0.741935 0.000000000000000e+00 1886740808
0.850048 -0.505654 -0.741698 0.000000000000000e+00 1886740808
2.925222 -1.023336 -2.288511 0.000000000000000e+00 1634890835
2.865214 -1.165364 -2.309253 0.000000000000000e+00 1634890835
0.782329 -0.413869 -0.672079 0.000000000000000e+00 1886740808
0.816667 -0.486249 -0.726127 0.000000000000000e+00 1886740808
2.869554 -1.002662 -2.284780 0.000000000000000e+00 1634890835
2.787679 -1.133206 -2.287191 0.000000000000000e+00 1634890835
0.835910 -0.442432 -0.731458 0.000000000000000e+00 1886740808
0.813649 -0.484909 -0.737141 0.000000000000000e+00 1886740808
2.848762 -0.994192 -2.308257 0.000000000000000e+00 1634890835
2.735832 -1.111511 -2.284847 0.000000000000000e+00 1634890835
0.856229 -0.453411 -0.763103 0.000000000000000e+00 1886740808
0.788111 -0.470139 -0.727464 0.000000000000000e+00 1886740808
2.776284 -0.967706 -2.289047 0.000000000000000e+00 1634890835
0.850839 -0.345483 -0.723250 0.000000000000000e+00 1886740808
0.790218 -0.418666 -0.717249 0.000000000000000e+00 1886740808
0.755779 -0.451288 -0.710717 0.000000000000000e+00 1886740808
0.821495 -0.285985 -0.689169 0.000000000000000e+00 1886740808
0.867636 -0.352101 -0.750620 0.000000000000000e+00 1886740808
0.804858 -0.426639 -0.743946 0.000000000000000e+00 1886740808
0.785472 -0.469479 -0.752455 0.000000000000000e+00 1886740808
0.819486 -0.284926 -0.699459 0.000000000000000e+00 1886740808
0.784617 -0.318225 -0.690799 0.000000000000000e+00 1886740808
0.759982 -0.403060 -0.715314 0.000000000000000e+00 1886740808
0.765492 -0.457993 -0.746986 0.000000000000000e+00 1886740808
0.791700 -0.274912 -0.687469 0.000000000000000e+00 1886740808
0.797103 -0.323099 -0.714156 0.000000000000000e+00 1886740808
0.770179 -0.408682 -0.738128 0.000000000000000e+00 1886740808
0.749701 -0.448999 -0.745173 0.000000000000000e+00 1886740808
0.813993 -0.282285 -0.719051 0.000000000000000e+00 1886740808
0.788303 -0.319341 -0.718674 0.000000000000000e+00 1886740808
0.756429 -0.401600 -0.738128 0.000000000000000e+00 1886740808
0.739894 -0.443581 -0.749057 0.000000000000000e+00 1886740808
0.731802 -0.253448 -0.657590 0.000000000000000e+00 1886740808
0.797549 -0.322890 -0.739833 0.000000000000000e+00 1886740808
0.767520 -0.407710 -0.762531 0.000000000000000e+00 1886740808
0.727939 -0.436869 -0.750583 0.000000000000000e+00 1886740808
0.782289 -0.270569 -0.715041 0.000000000000000e+00 1886740808
0.755713 -0.305764 -0.713265 0.000000000000000e+00 1886740808
0.743340 -0.395082 -0.751867 0.000000000000000e+00 1886740808
0.771740 -0.463646 -0.810430 0.000000000000000e+00 1886740808
0.787319 -0.271939 -0.731977 0.000000000000000e+00 1886740808
0.767457 -0.310322 -0.736967 0.000000000000000e+00 1886740808
0.749312 -0.398478 -0.771592 0.000000000000000e+00 1886740808
0.753645 -0.453262 -0.806009 0.000000000000000e+00 1886740808
0.757791 -0.261378 -0.716576 0.000000000000000e+00 1886740808
0.802423 -0.324254 -0.783938 0.000000000000000e+00 1886740808
0.757918 -0.403283 -0.794522 0.000000000000000e+00 1886740808
2.100517 -1.264690 -2.287794 0.000000000000000e+00 1634890835
0.713195 -0.245650 -0.685920 0.000000000000000e+00 1886740808
0.765434 -0.309107 -0.760777 0.000000000000000e+00 1886740808
0.777188 -0.413775 -0.829389 0.000000000000000e+00 1886740808
2.085814 -1.257233 -2.313532 0.000000000000000e+00 1634890835
0.727421 -0.250192 -0.711527 0.000000000000000e+00 1886740808
0.752544 -0.303702 -0.760926 0.000000000000000e+00 1886740808
2.140038 -1.140023 -2.324853 0.000000000000000e+00 1634890835
2.040104 -1.231072 -2.304393 0.000000000000000e+00 1634890835
0.750540 -0.257768 -0.746637 0.000000000000000e+00 1886740808
0.777694 -0.313642 -0.799966 0.000000000000000e+00 1886740808
2.073132 -1.105040 -2.292647 0.000000000000000e+00 1634890835
0.825727 -0.498846 -0.949821 0.000000000000000e+00 1886740808
0.787241 -0.269974 -0.796463 0.000000000000000e+00 1886740808
0.742211 -0.299129 -0.776670 0.000000000000000e+00 1886740808
2.044890 -1.090646 -2.302044 0.000000000000000e+00 1634890835
0.781601 -0.472741 -0.915569 0.000000000000000e+00 1886740808
0.757944 -0.259536 -0.779849 0.000000000000000e+00 1886740808
0.703462 -0.283316 -0.748844 0.000000000000000e+00 1886740808
2.026225 -1.081357 -2.322013 0.000000000000000e+00 1634890835
0.795949 -0.481992 -0.949496 0.000000000000000e+00 1886740808
0.765197 -0.261619 -0.800681 0.000000000000000e+00 1886740808
2.161596 -0.869962 -2.340804 0.000000000000000e+00 1634890835
0.804953 -0.429858 -0.939038 0.000000000000000e+00 1886740808
0.761160 -0.461484 -0.924680 0.000000000000000e+00 1886740808
0.764348 -0.260922 -0.813370 0.000000000000000e+00 1886740808
2.091499 -0.841149 -2.304030 0.000000000000000e+00 1634890835
0.795606 -0.425138 -0.944824 0.000000000000000e+00 1886740808
0.776170 -0.471165 -0.960255 0.000000000000000e+00 1886740808
0.761604 -0.259573 -0.824211 0.000000000000000e+00 1886740808
2.071310 -0.832423 -2.321229 0.000000000000000e+00 1634890835
0.801363 -0.428492 -0.968789 0.000000000000000e+00 1886740808
1.795956 -1.091585 -2.262820 0.000000000000000e+00 1634890835
2.081619 -0.708319 -2.290995 0.000000000000000e+00 1634890835
2.008177 -0.806452 -2.289401 0.000000000000000e+00 1634890835
0.786441 -0.420793 -0.967883 0.000000000000000e+00 1886740808
1.784341 -1.085914 -2.289647 0.000000000000000e+00 1634890835
2.060689 -0.700043 -2.306504 0.000000000000000e+00 1634890835
1.975204 -0.792610 -2.290793 0.000000000000000e+00 1634890835
0.771538 -0.413097 -0.966679 0.000000000000000e+00 1886740808
0.757279 -0.461466 -0.989688 0.000000000000000e+00 1886740808
2.029316 -0.688227 -2.310029 0.000000000000000e+00 1634890835
1.941510 -0.778489 -2.290745 0.000000000000000e+00 1634890835
0.792642 -0.424688 -1.011080 0.000000000000000e+00 1886740808
1.748097 -1.066664 -2.326898 0.000000000000000e+00 1634890835
1.969461 -0.666784 -2.280079 0.000000000000000e+00 1634890835
0.820549 -0.328759 -0.984955 0.000000000000000e+00 1886740808
1.788612 -0.958992 -2.322869 0.000000000000000e+00 1634890835
1.650060 -1.008211 -2.237185 0.000000000000000e+00 1634890835
1.931545 -0.652805 -2.274328 0.000000000000000e+00 1634890835
0.805123 -0.322319 -0.983246 0.000000000000000e+00 1886740808
0.763786 -0.409809 -1.009949 0.000000000000000e+00 1886740808
1.681273 -1.028705 -2.321951 0.000000000000000e+00 1634890835
1.915612 -0.646268 -2.294116 0.000000000000000e+00 1634890835
0.841873 -0.336756 -1.046045 0.000000000000000e+00 1886740808
1.718869 -0.922930 -2.314260 0.000000000000000e+00 1634890835
1.647616 -1.009537 -2.317978 0.000000000000000e+00 1634890835
0.815098 -0.274488 -0.992870 0.000000000000000e+00 1886740808
0.766394 -0.306308 -0.968898 0.000000000000000e+00 1886740808
1.701049 -0.914043 -2.332129 0.000000000000000e+00 1634890835
1.624094 -0.996562 -2.327726 0.000000000000000e+00 1634890835
0.803227 -0.269988 -0.995206 0.000000000000000e+00 1886740808
0.773867 -0.309032 -0.995486 0.000000000000000e+00 1886740808
1.661734 -0.893598 -2.320015 0.000000000000000e+00 1634890835
1.568815 -0.964062 -2.290820 0.000000000000000e+00 1634890835
0.794655 -0.266600 -1.001535 0.000000000000000e+00 1886740808
0.795567 -0.317421 -1.041385 0.000000000000000e+00 1886740808
1.636487 -0.880706 -2.326833 0.000000000000000e+00 1634890835
1.545744 -0.951316 -2.299798 0.000000000000000e+00 1634890835
0.779904 -0.261144 -0.999916 0.000000000000000e+00 1886740808
1.701518 -0.678279 -2.266533 0.000000000000000e+00 1634890835
1.585470 -0.853928 -2.295974 0.000000000000000e+00 1634890835
1.521399 -0.937776 -2.306564 0.000000000000000e+00 1634890835
0.779288 -0.260420 -1.016433 0.000000000000000e+00 1886740808
1.688094 -0.672317 -2.288446 0.000000000000000e+00 1634890835
1.578751 -0.851001 -2.328703 0.000000000000000e+00 1634890835
1.494195 -0.922459 -2.308554 0.000000000000000e+00 1634890835
0.777797 -0.259394 -1.032127 0.000000000000000e+00 1886740808
0.772322 -0.307307 -1.065592 0.000000000000000e+00 1886740808
1.550123 -0.836264 -2.329146 0.000000000000000e+00 1634890835
1.445726 -0.893974 -2.276526 0.000000000000000e+00 1634890835
1.708949 -0.568748 -2.307337 0.000000000000000e+00 1634890835
1.663522 -0.661286 -2.336163 0.000000000000000e+00 1634890835
1.500780 -0.810332 -2.297307 0.000000000000000e+00 1634890835
1.421231 -0.880278 -2.281139 0.000000000000000e+00 1634890835
0.744759 -0.247334 -1.023162 0.000000000000000e+00 1886740808
1.610519 -0.639594 -2.302274 0.000000000000000e+00 1634890835
1.508420 -0.815169 -2.352556 0.000000000000000e+00 1634890835
1.404967 -0.871675 -2.298811 0.000000000000000e+00 1634890835
1.646879 -0.545736 -2.302348 0.000000000000000e+00 1634890835
1.585080 -0.628863 -2.306730 0.000000000000000e+00 1634890835
1.427473 -0.772111 -2.268549 0.000000000000000e+00 1634890835
1.386123 -0.861471 -2.312288 0.000000000000000e+00 1634890835
1.610705 -0.532560 -2.291622 0.000000000000000e+00 1634890835
1.537340 -0.609301 -2.277776 0.000000000000000e+00 1634890835
1.409264 -0.762958 -2.282370 0.000000000000000e+00 1634890835
1.345773 -0.837877 -2.289136 0.000000000000000e+00 1634890835
1.582335 -0.521984 -2.291300 0.000000000000000e+00 1634890835
1.540742 -0.610011 -2.324394 0.000000000000000e+00 1634890835
1.408329 -0.763165 -2.324688 0.000000000000000e+00 1634890835
1.327225 -0.827833 -2.302314 0.000000000000000e+00 1634890835
1.535889 -0.505474 -2.263817 0.000000000000000e+00 1634890835
1.497849 -0.592392 -2.301085 0.000000000000000e+00 1634890835
1.380617 -0.748867 -2.323046 0.000000000000000e+00 1634890835
1.298600 -0.811488 -2.297622 0.000000000000000e+00 1634890835
1.523101 -0.500059 -2.285352 0.000000000000000e+00 1634890835
1.479429 -0.584463 -2.314689 0.000000000000000e+00 1634890835
1.368464 -0.743006 -2.347484 0.000000000000000e+00 1634890835
1.271774 -0.796246 -2.295431 0.000000000000000e+00 1634890835
1.483634 -0.485897 -2.266423 0.000000000000000e+00 1634890835
1.442131 -0.569085 -2.298208 0.000000000000000e+00 1634890835
1.327424 -0.721452 -2.321812 0.000000000000000e+00 1634890835
1.254842 -0.787190 -2.310817 0.000000000000000e+00 1634890835
1.485325 -0.485218 -2.310341 0.000000000000000e+00 1634890835
1.438148 -0.566857 -2.334692 0.000000000000000e+00 1634890835
1.313455 -0.714602 -2.342875 0.000000000000000e+00 1634890835
1.223009 -0.768770 -2.298287 0.000000000000000e+00 1634890835
1.454264 -0.473833 -2.303514 0.000000000000000e+00 1634890835
1.365672 -0.537649 -2.258772 0.000000000000000e+00 1634890835
1.269726 -0.691547 -2.310103 0.000000000000000e+00 1634890835
1.181320 -0.744105 -2.265789 0.000000000000000e+00 1634890835
1.407973 -0.457520 -2.271388 0.000000000000000e+00 1634890835
1.370331 -0.538823 -2.309474 0.000000000000000e+00 1634890835
1.244598 -0.678603 -2.310010 0.000000000000000e+00 1634890835
1.167156 -0.736751 -2.285295 0.000000000000000e+00 1634890835
1.405890 -0.455585 -2.310240 0.000000000000000e+00 1634890835
1.359582 -0.533923 -2.335174 0.000000000000000e+00 1634890835
1.236967 -0.675205 -2.342533 0.000000000000000e+00 1634890835
1.142004 -0.722459 -2.283135 0.000000000000000e+00 1634890835
1.359165 -0.439193 -2.275353 0.000000000000000e+00 1634890835
1.315009 -0.515750 -2.302171 0.000000000000000e+00 1634890835
1.212765 -0.662761 -2.343856 0.000000000000000e+00 1634890835
1.127518 -0.714908 -2.302138 0.000000000000000e+00 1634890835
1.333729 -0.429712 -2.274997 0.000000000000000e+00 1634890835
1.271221 -0.497912 -2.268808 0.000000000000000e+00 1634890835
1.178987 -0.645073 -2.325831 0.000000000000000e+00 1634890835
1.109289 -0.704986 -2.313633 0.000000000000000e+00 1634890835
1.318449 -0.423510 -2.291833 0.000000000000000e+00 1634890835
1.282758 -0.501740 -2.334344 0.000000000000000e+00 1634890835
1.171239 -0.641622 -2.358970 0.000000000000000e+00 1634890835
1.066081 -0.679154 -2.271881 0.000000000000000e+00 1634890835
1.276747 -0.408841 -2.262057 0.000000000000000e+00 1634890835
1.226404 -0.479019 -2.276026 0.000000000000000e+00 1634890835
1.095257 -0.600760 -2.252675 0.000000000000000e+00 1634890835
1.053109 -0.672552 -2.293632 0.000000000000000e+00 1634890835
1.285666 -0.410377 -2.322108 0.000000000000000e+00 1634890835
1.235644 -0.481924 -2.339077 0.000000000000000e+00 1634890835
1.086608 -0.596796 -2.282779 0.000000000000000e+00 1634890835
1.037645 -0.664369 -2.310300 0.000000000000000e+00 1634890835
1.243009 -0.395449 -2.289101 0.000000000000000e+00 1634890835
1.212253 -0.472089 -2.341210 0.000000000000000e+00 1634890835
1.090920 -0.599975 -2.341533 0.000000000000000e+00 1634890835
1.018594 -0.653893 -2.319055 0.000000000000000e+00 1634890835
1.227736 -0.389253 -2.305770 0.000000000000000e+00 1634890835
1.164331 -0.452722 -2.294629 0.000000000000000e+00 1634890835
1.065626 -0.586882 -2.337451 0.000000000000000e+00 1634890835
0.985200 -0.634181 -2.294307 0.000000000000000e+00 1634890835
1.182022 -0.373434 -2.264363 0.000000000000000e+00 1634890835
1.146569 -0.445098 -2.306334 0.000000000000000e+00 1634890835
1.023704 -0.564607 -2.295418 0.000000000000000e+00 1634890835
0.964957 -0.622903 -2.299251 0.000000000000000e+00 1634890835
1.172005 -0.368914 -2.290620 0.000000000000000e+00 1634890835
1.117218 -0.432984 -2.294294 0.000000000000000e+00 1634890835
1.027115 -0.567334 -2.354953 0.000000000000000e+00 1634890835
0.934237 -0.604833 -2.278387 0.000000000000000e+00 1634890835
1.142245 -0.358184 -2.278154 0.000000000000000e+00 1634890835
1.099179 -0.425259 -2.305026 0.000000000000000e+00 1634890835
1.008427 -0.557872 -2.364914 0.000000000000000e+00 1634890835
0.930505 -0.604238 -2.323425 0.000000000000000e+00 1634890835
1.095533 -0.342187 -2.230242 0.000000000000000e+00 1634890835
1.093976 -0.422492 -2.343280 0.000000000000000e+00 1634890835
0.988019 -0.547458 -2.370734 0.000000000000000e+00 1634890835
0.907722 -0.591291 -2.321446 0.000000000000000e+00 1634890835
1.106009 -0.344051 -2.298774 0.000000000000000e+00 1634890835
1.065862 -0.410873 -2.332626 0.000000000000000e+00 1634890835
0.950074 -0.527306 -2.333286 0.000000000000000e+00 1634890835
0.893911 -0.584189 -2.342398 0.000000000000000e+00 1634890835
1.087442 -0.336846 -2.308167 0.000000000000000e+00 1634890835
1.030655 -0.396540 -2.305205 0.000000000000000e+00 1634890835
0.923074 -0.513204 -2.321102 0.000000000000000e+00 1634890835
0.872801 -0.572319 -2.344310 0.000000000000000e+00 1634890835
1.052278 -0.324522 -2.281572 0.000000000000000e+00 1634890835
0.993852 -0.381620 -2.272483 0.000000000000000e+00 1634890835
0.904757 -0.503919 -2.330228 0.000000000000000e+00 1634890835
0.843596 -0.555110 -2.323539 0.000000000000000e+00 1634890835
1.020872 -0.313397 -2.261733 0.000000000000000e+00 1634890835
0.993757 -0.380794 -2.323694 0.000000000000000e+00 1634890835
0.869153 -0.484988 -2.293728 0.000000000000000e+00 1634890835
0.456896 -0.301747 -1.291043 0.000000000000000e+00 1936876886
0.994460 -0.303837 -2.251927 0.000000000000000e+00 1634890835
0.962134 -0.367884 -2.301433 0.000000000000000e+00 1634890835
0.855820 -0.478473 -2.315193 0.000000000000000e+00 1634890835
0.438456 -0.290670 -1.271633 0.000000000000000e+00 1936876886
0.984437 -0.299285 -2.279236 0.000000000000000e+00 1634890835
0.922934 -0.352105 -2.259171 0.000000000000000e+00 1634890835
0.828203 -0.463965 -2.297682 0.000000000000000e+00 1634890835
0.442659 -0.294619 -1.318350 0.000000000000000e+00 1936876886
0.968641 -0.292960 -2.293730 0.000000000000000e+00 1634890835
0.927768 -0.353123 -2.324840 0.000000000000000e+00 1634890835
0.458413 -0.257345 -1.304842 0.000000000000000e+00 1936876886
0.337405 -0.225493 -1.032441 0.000000000000000e+00 1953264973
0.973869 -0.292953 -2.359443 0.000000000000000e+00 1634890835
0.896859 -0.340527 -2.301549 0.000000000000000e+00 1634890835
0.442970 -0.249220 -1.294299 0.000000000000000e+00 1936876886
0.303592 -0.203771 -0.954987 0.000000000000000e+00 1953264973
0.492508 -0.147317 -1.221266 0.000000000000000e+00 1936876886
0.886918 -0.335897 -2.331838 0.000000000000000e+00 1634890835
0.374536 -0.211201 -1.123920 0.000000000000000e+00 1953264973
0.268952 -0.181335 -0.870216 0.000000000000000e+00 1953264973
0.494639 -0.147081 -1.255857 0.000000000000000e+00 1936876886
0.851663 -0.321687 -2.295025 0.000000000000000e+00 1634890835
0.350499 -0.198119 -1.080799 0.000000000000000e+00 1953264973
0.275039 -0.186315 -0.915931 0.000000000000000e+00 1953264973
0.474881 -0.140333 -1.235003 0.000000000000000e+00 1936876886
0.835151 -0.314573 -2.307729 0.000000000000000e+00 1634890835
0.319415 -0.181002 -1.012698 0.000000000000000e+00 1953264973
0.262990 -0.179035 -0.902006 0.000000000000000e+00 1953264973
