# .PCD v0.7 - Point Cloud Data file format
VERSION 0.7
FIELDS x y z rgb label
SIZE 4 4 4 4 4
TYPE F F F F U
COUNT 1 1 1 1 1
WIDTH 539
HEIGHT 1
VIEWPOINT 0 0 0 1 0 0 0
POINTS 539
DATA ascii
39.553829 -22.059675 10.370420 0.000000000000000e+00 1954047316
31.802639 -16.406544 -1.402637 0.000000000000000e+00 1851878480
30.334934 -17.212955 -1.193471 0.000000000000000e+00 1851878480
31.804787 -11.824524 -2.020692 0.000000000000000e+00 1851878480
30.747000 -12.861319 -1.874407 0.000000000000000e+00 1851878480
28.619270 -14.768842 -1.547596 0.000000000000000e+00 1851878480
27.725836 -15.741755 -1.376853 0.000000000000000e+00 1851878480
28.843824 -10.715552 -2.094604 0.000000000000000e+00 1851878480
28.116858 -11.757045 -1.977289 0.000000000000000e+00 1851878480
27.018213 -13.946949 -1.730693 0.000000000000000e+00 1851878480
26.263407 -14.920239 -1.575475 0.000000000000000e+00 1851878480
26.666906 -9.899295 -2.178997 0.000000000000000e+00 1851878480
26.277943 -10.984238 -2.094217 0.000000000000000e+00 1851878480
25.684139 -13.262399 -1.901897 0.000000000000000e+00 1851878480
24.929733 -14.170926 -1.753281 0.000000000000000e+00 1851878480
24.448879 -9.069020 -2.220305 0.000000000000000e+00 1851878480
24.654301 -10.301933 -2.196119 0.000000000000000e+00 1851878480
23.963770 -12.377888 -2.014293 0.000000000000000e+00 1851878480
23.608700 -13.427950 -1.904878 0.000000000000000e+00 1851878480
22.344328 -8.282050 -2.232811 0.000000000000000e+00 1851878480
22.604406 -9.442060 -2.225854 0.000000000000000e+00 1851878480
22.250500 -11.496519 -2.093257 0.000000000000000e+00 1851878480
21.908400 -12.468243 -1.994946 0.000000000000000e+00 1851878480
20.477087 -7.584163 -2.233081 0.000000000000000e+00 1851878480
20.688974 -8.638918 -2.231858 0.000000000000000e+00 1851878480
20.651304 -10.673544 -2.150094 0.000000000000000e+00 1851878480
20.274879 -11.545442 -2.056879 0.000000000000000e+00 1851878480
18.955385 -7.015201 -2.240369 0.000000000000000e+00 1851878480
18.971849 -7.919119 -2.225366 0.000000000000000e+00 1851878480
19.288916 -9.972510 -2.202209 0.000000000000000e+00 1851878480
18.855433 -10.743513 -2.109188 0.000000000000000e+00 1851878480
17.613329 -6.513524 -2.242979 0.000000000000000e+00 1851878480
17.636921 -7.359299 -2.235238 0.000000000000000e+00 1851878480
17.788706 -9.199759 -2.210156 0.000000000000000e+00 1851878480
17.691204 -10.086158 -2.163531 0.000000000000000e+00 1851878480
16.445122 -6.076849 -2.245022 0.000000000000000e+00 1851878480
16.499029 -6.882062 -2.247040 0.000000000000000e+00 1851878480
16.507641 -8.539905 -2.217662 0.000000000000000e+00 1851878480
16.585876 -9.461626 -2.201792 0.000000000000000e+00 1851878480
8.800138 -3.249355 -1.282214 1.880790849211783e-38 1684957512
15.395546 -6.419493 -2.242626 0.000000000000000e+00 1851878480
15.430051 -7.984933 -2.229039 0.000000000000000e+00 1851878480
15.409648 -8.795887 -2.207166 0.000000000000000e+00 1851878480
8.256225 -3.046167 -1.278979 1.880790849211783e-38 1684957512
8.297682 -3.458660 -1.287491 1.880790849211783e-38 1684957512
14.502575 -7.507329 -2.242168 0.000000000000000e+00 1851878480
14.445562 -8.250525 -2.220882 0.000000000000000e+00 1851878480
7.801290 -2.876096 -1.280491 1.880790849211783e-38 1684957512
7.790781 -3.246218 -1.282990 1.880790849211783e-38 1684957512
13.636741 -7.061353 -2.246994 0.000000000000000e+00 1851878480
13.569345 -7.754732 -2.229158 0.000000000000000e+00 1851878480
7.396649 -2.724805 -1.282489 1.880790849211783e-38 1684957512
7.335157 -3.055275 -1.277946 1.880790849211783e-38 1684957512
12.829378 -6.645383 -2.244798 0.000000000000000e+00 1851878480
12.850874 -7.348557 -2.246939 0.000000000000000e+00 1851878480
7.173846 -2.640672 -1.310382 1.880790849211783e-38 1684957512
7.107352 -2.959332 -1.306253 1.880790849211783e-38 1684957512
12.137849 -6.289176 -2.247947 0.000000000000000e+00 1851878480
12.066602 -6.904260 -2.237727 0.000000000000000e+00 1851878480
7.100315 -2.611569 -1.362967 1.880790849211783e-38 1684957512
7.129341 -2.967419 -1.378689 1.880790849211783e-38 1684957512
11.463018 -5.941401 -2.240569 0.000000000000000e+00 1851878480
11.451862 -6.556481 -2.245512 0.000000000000000e+00 1851878480
7.115379 -2.615062 -1.432202 1.880790849211783e-38 1684957512
7.120204 -2.962545 -1.445431 1.880790849211783e-38 1684957512
10.902061 -5.652446 -2.243131 0.000000000000000e+00 1851878480
10.812105 -6.193968 -2.235442 0.000000000000000e+00 1851878480
7.138088 -2.621350 -1.503527 1.880790849211783e-38 1684957512
7.146461 -2.972394 -1.519736 1.880790849211783e-38 1684957512
10.443043 -5.416185 -2.256535 0.000000000000000e+00 1851878480
10.329627 -5.921178 -2.246305 0.000000000000000e+00 1851878480
7.143628 -2.621320 -1.571710 1.880790849211783e-38 1684957512
7.140766 -2.968946 -1.587671 1.880790849211783e-38 1684957512
9.894541 -5.133362 -2.240565 0.000000000000000e+00 1851878480
9.810540 -5.627069 -2.238877 0.000000000000000e+00 1851878480
7.120166 -2.610646 -1.633562 1.880790849211783e-38 1684957512
7.132418 -2.964396 -1.655113 1.880790849211783e-38 1684957512
9.522755 -4.942065 -2.255436 0.000000000000000e+00 1851878480
9.420067 -5.406425 -2.251415 0.000000000000000e+00 1851878480
7.101621 -2.601782 -1.696376 1.880790849211783e-38 1684957512
7.061564 -2.933874 -1.707527 1.880790849211783e-38 1684957512
9.077039 -4.712273 -2.244660 0.000000000000000e+00 1851878480
8.989925 -5.162738 -2.246010 0.000000000000000e+00 1851878480
7.113673 -2.604121 -1.766679 1.880790849211783e-38 1684957512
7.161522 -2.974310 -1.801787 1.880790849211783e-38 1684957512
8.724952 -4.530956 -2.249074 0.000000000000000e+00 1851878480
8.590909 -4.936643 -2.239792 0.000000000000000e+00 1851878480
7.133506 -2.609298 -1.839470 1.880790849211783e-38 1684957512
7.117227 -2.954825 -1.860570 1.880790849211783e-38 1684957512
8.384225 -4.355432 -2.249523 0.000000000000000e+00 1851878480
8.279348 -4.760571 -2.249041 0.000000000000000e+00 1851878480
7.116626 -2.601035 -1.903085 1.880790849211783e-38 1684957512
7.155231 -2.969503 -1.941090 1.880790849211783e-38 1684957512
8.076040 -4.196712 -2.252243 0.000000000000000e+00 1851878480
7.901561 -4.546186 -2.233160 0.000000000000000e+00 1851878480
7.111268 -2.596980 -1.969846 1.880790849211783e-38 1684957512
7.126029 -2.956287 -2.003762 1.880790849211783e-38 1684957512
7.775991 -4.042115 -2.251174 0.000000000000000e+00 1851878480
7.626572 -4.390722 -2.239566 0.000000000000000e+00 1851878480
7.139599 -2.605211 -2.046445 1.880790849211783e-38 1684957512
7.140317 -2.961108 -2.078821 1.880790849211783e-38 1684957512
7.471153 -3.884938 -2.242664 0.000000000000000e+00 1851878480
7.376906 -4.249663 -2.248017 0.000000000000000e+00 1851878480
7.101882 -2.589340 -2.104321 1.880790849211783e-38 1684957512
7.161870 -2.968931 -2.156674 1.880790849211783e-38 1684957512
7.250340 -3.771368 -2.254144 0.000000000000000e+00 1851878480
7.100600 -4.093085 -2.242921 0.000000000000000e+00 1851878480
7.096676 -2.585326 -2.171725 1.880790849211783e-38 1684957512
7.121640 -2.951143 -2.216068 1.880790849211783e-38 1684957512
6.968707 -3.626079 -2.241702 0.000000000000000e+00 1851878480
6.846637 -3.949199 -2.239375 0.000000000000000e+00 1851878480
7.085688 -2.579206 -2.237527 0.000000000000000e+00 1851878480
7.001926 -2.900435 -2.249465 0.000000000000000e+00 1851878480
6.780851 -3.529513 -2.254750 0.000000000000000e+00 1851878480
6.666634 -3.847835 -2.255567 0.000000000000000e+00 1851878480
6.960422 -2.531513 -2.266237 0.000000000000000e+00 1851878480
6.767351 -2.802197 -2.242725 0.000000000000000e+00 1851878480
6.586900 -3.429712 -2.262015 0.000000000000000e+00 1851878480
6.446265 -3.723038 -2.253999 0.000000000000000e+00 1851878480
6.695051 -2.432974 -2.245828 0.000000000000000e+00 1851878480
6.596138 -2.730257 -2.253216 0.000000000000000e+00 1851878480
6.350169 -3.307573 -2.250282 0.000000000000000e+00 1851878480
6.249309 -3.611620 -2.256301 0.000000000000000e+00 1851878480
6.489940 -2.356468 -2.241325 0.000000000000000e+00 1851878480
6.426379 -2.658966 -2.261076 0.000000000000000e+00 1851878480
6.149925 -3.204363 -2.247078 0.000000000000000e+00 1851878480
6.003469 -3.471805 -2.236319 0.000000000000000e+00 1851878480
6.334731 -2.298182 -2.250820 0.000000000000000e+00 1851878480
6.222801 -2.573739 -2.253563 0.000000000000000e+00 1851878480
5.992382 -3.123346 -2.255924 0.000000000000000e+00 1851878480
5.851395 -3.386076 -2.247117 0.000000000000000e+00 1851878480
6.159151 -2.232594 -2.250119 0.000000000000000e+00 1851878480
6.050517 -2.501505 -2.253863 0.000000000000000e+00 1851878480
5.839635 -3.044779 -2.263530 0.000000000000000e+00 1851878480
5.681152 -3.289726 -2.247638 0.000000000000000e+00 1851878480
5.972600 -2.163133 -2.242119 0.000000000000000e+00 1851878480
5.898978 -2.437900 -2.258891 0.000000000000000e+00 1851878480
5.696709 -2.971287 -2.272043 0.000000000000000e+00 1851878480
5.476782 -3.173483 -2.230722 0.000000000000000e+00 1851878480
5.823965 -2.107498 -2.245318 0.000000000000000e+00 1851878480
5.711436 -2.359464 -2.246955 0.000000000000000e+00 1851878480
5.552792 -2.897232 -2.277343 0.000000000000000e+00 1851878480
5.319145 -3.084199 -2.229030 0.000000000000000e+00 1851878480
5.648076 -2.042090 -2.235063 0.000000000000000e+00 1851878480
5.581005 -2.304667 -2.254514 0.000000000000000e+00 1851878480
5.321710 -2.777639 -2.243057 0.000000000000000e+00 1851878480
5.213964 -3.025240 -2.246651 0.000000000000000e+00 1851878480
5.500822 -1.987127 -2.233190 0.000000000000000e+00 1851878480
5.391732 -2.225616 -2.235291 0.000000000000000e+00 1851878480
5.213377 -2.722055 -2.257053 0.000000000000000e+00 1851878480
5.058599 -2.937082 -2.239987 0.000000000000000e+00 1851878480
5.396190 -1.947631 -2.246388 0.000000000000000e+00 1851878480
5.267777 -2.173579 -2.240187 0.000000000000000e+00 1851878480
5.034657 -2.629677 -2.237694 0.000000000000000e+00 1851878480
4.907661 -2.851385 -2.232058 0.000000000000000e+00 1851878480
5.261177 -1.897232 -2.244815 0.000000000000000e+00 1851878480
5.177153 -2.135320 -2.257332 0.000000000000000e+00 1851878480
4.954341 -2.588654 -2.259493 0.000000000000000e+00 1851878480
4.878466 -2.836367 -2.277770 0.000000000000000e+00 1851878480
5.161585 -1.859673 -2.256276 0.000000000000000e+00 1851878480
5.090672 -2.098796 -2.274754 0.000000000000000e+00 1851878480
4.811379 -2.514863 -2.250539 0.000000000000000e+00 1851878480
4.633520 -2.695813 -2.219857 0.000000000000000e+00 1851878480
5.046031 -1.816422 -2.258870 0.000000000000000e+00 1851878480
4.899256 -2.019049 -2.242649 0.000000000000000e+00 1851878480
4.718516 -2.467218 -2.262677 0.000000000000000e+00 1851878480
4.540483 -2.643523 -2.231037 0.000000000000000e+00 1851878480
4.880170 -1.755142 -2.236339 0.000000000000000e+00 1851878480
4.791183 -1.973696 -2.245804 0.000000000000000e+00 1851878480
4.634658 -2.424259 -2.277472 0.000000000000000e+00 1851878480
4.487611 -2.614572 -2.260600 0.000000000000000e+00 1851878480
4.774930 -1.715737 -2.239078 0.000000000000000e+00 1851878480
4.707136 -1.938266 -2.258494 0.000000000000000e+00 1851878480
4.444794 -2.325804 -2.237344 0.000000000000000e+00 1851878480
4.329997 -2.524525 -2.235235 0.000000000000000e+00 1851878480
4.635128 -1.663987 -2.223356 0.000000000000000e+00 1851878480
4.587433 -1.888182 -2.252203 0.000000000000000e+00 1851878480
4.380954 -2.293253 -2.258039 0.000000000000000e+00 1851878480
4.288250 -2.501967 -2.267642 0.000000000000000e+00 1851878480
4.596865 -1.648734 -2.254795 0.000000000000000e+00 1851878480
4.482422 -1.844180 -2.251006 0.000000000000000e+00 1851878480
4.260556 -2.231066 -2.247786 0.000000000000000e+00 1851878480
4.150665 -2.423434 -2.247561 0.000000000000000e+00 1851878480
4.452496 -1.595479 -2.232581 0.000000000000000e+00 1851878480
4.372601 -1.798229 -2.245368 0.000000000000000e+00 1851878480
4.171302 -2.185152 -2.251843 0.000000000000000e+00 1851878480
4.049605 -2.366142 -2.244680 0.000000000000000e+00 1851878480
4.393788 -1.572970 -2.251480 0.000000000000000e+00 1851878480
4.296536 -1.766186 -2.255355 0.000000000000000e+00 1851878480
4.125255 -2.161854 -2.278005 0.000000000000000e+00 1851878480
3.985198 -2.330209 -2.260455 0.000000000000000e+00 1851878480
4.286724 -1.533198 -2.244154 0.000000000000000e+00 1851878480
4.239720 -1.742075 -2.274329 0.000000000000000e+00 1851878480
3.954151 -2.072984 -2.232856 0.000000000000000e+00 1851878480
3.850299 -2.252993 -2.234128 0.000000000000000e+00 1851878480
4.193018 -1.498257 -2.241976 0.000000000000000e+00 1851878480
4.167985 -1.711850 -2.284226 0.000000000000000e+00 1851878480
3.901246 -2.046042 -2.252097 0.000000000000000e+00 1851878480
3.812035 -2.232261 -2.262082 0.000000000000000e+00 1851878480
4.136201 -1.476540 -2.258227 0.000000000000000e+00 1851878480
4.009059 -1.645851 -2.244064 0.000000000000000e+00 1851878480
3.815008 -2.001598 -2.250787 0.000000000000000e+00 1851878480
3.689617 -2.162199 -2.238449 0.000000000000000e+00 1851878480
4.037266 -1.439829 -2.250118 0.000000000000000e+00 1851878480
3.948214 -1.620151 -2.256638 0.000000000000000e+00 1851878480
3.734954 -1.960371 -2.251462 0.000000000000000e+00 1851878480
3.625417 -2.126186 -2.248128 0.000000000000000e+00 1851878480
3.988292 -1.420975 -2.268570 0.000000000000000e+00 1634890835
3.879436 -1.591211 -2.263560 0.000000000000000e+00 1851878480
3.664573 -1.924198 -2.256491 0.000000000000000e+00 1851878480
3.564538 -2.092082 -2.258667 0.000000000000000e+00 1851878480
3.952217 -1.406734 -2.293790 0.000000000000000e+00 1634890835
3.755713 -1.539766 -2.236544 0.000000000000000e+00 1851878480
3.620878 -1.902018 -2.276938 0.000000000000000e+00 1851878480
3.507144 -2.059988 -2.270299 0.000000000000000e+00 1851878480
3.862428 -1.373408 -2.286785 0.000000000000000e+00 1634890835
3.711740 -1.521041 -2.255421 0.000000000000000e+00 1851878480
3.529648 -1.854850 -2.266192 0.000000000000000e+00 1851878480
3.389169 -1.992246 -2.240796 0.000000000000000e+00 1851878480
3.813696 -1.354718 -2.302887 0.000000000000000e+00 1634890835
3.607946 -1.477824 -2.236575 0.000000000000000e+00 1851878480
3.473116 -1.825894 -2.276243 0.000000000000000e+00 1851878480
3.296587 -1.939352 -2.225656 0.000000000000000e+00 1851878480
3.733821 -1.324999 -2.299086 0.000000000000000e+00 1634890835
3.535154 -1.447332 -2.235209 0.000000000000000e+00 1851878480
3.372983 -1.773988 -2.256099 0.000000000000000e+00 1851878480
3.245782 -1.910987 -2.237210 0.000000000000000e+00 1851878480
3.666371 -1.299730 -2.301607 0.000000000000000e+00 1634890835
3.503542 -1.433711 -2.259021 0.000000000000000e+00 1851878480
3.323357 -1.748620 -2.268198 0.000000000000000e+00 1851878480
3.206722 -1.889508 -2.256091 0.000000000000000e+00 1851878480
3.559987 -1.260710 -2.278021 0.000000000000000e+00 1634890835
3.500117 -1.431627 -2.301017 0.000000000000000e+00 1634890835
3.203005 -1.686010 -2.230185 0.000000000000000e+00 1851878480
3.113307 -1.835958 -2.235342 0.000000000000000e+00 1851878480
3.533063 -1.249863 -2.304096 0.000000000000000e+00 1634890835
3.422450 -1.399183 -2.293630 0.000000000000000e+00 1634890835
3.202619 -1.686528 -2.274529 0.000000000000000e+00 1851878480
3.075670 -1.815256 -2.253259 0.000000000000000e+00 1851878480
3.393208 -1.199119 -2.254908 0.000000000000000e+00 1634890835
3.349714 -1.368780 -2.288083 0.000000000000000e+00 1634890835
3.118864 -1.643134 -2.258985 0.000000000000000e+00 1851878480
2.995670 -1.769511 -2.238936 0.000000000000000e+00 1851878480
3.402550 -1.201134 -2.303694 0.000000000000000e+00 1634890835
3.316087 -1.354373 -2.308342 0.000000000000000e+00 1634890835
3.072600 -1.619470 -2.269264 0.000000000000000e+00 1851878480
2.963194 -1.751802 -2.258995 0.000000000000000e+00 1851878480
3.337770 -1.176988 -2.302048 0.000000000000000e+00 1634890835
3.266963 -1.333643 -2.317205 0.000000000000000e+00 1634890835
2.963951 -1.562896 -2.231761 0.000000000000000e+00 1851878480
2.905568 -1.719196 -2.259065 0.000000000000000e+00 1851878480
3.233508 -1.138975 -2.271481 0.000000000000000e+00 1634890835
3.179644 -1.297343 -2.297651 0.000000000000000e+00 1634890835
2.901810 -1.530816 -2.227315 0.000000000000000e+00 1851878480
2.802495 -1.659638 -2.221895 0.000000000000000e+00 1851878480
3.176985 -1.117825 -2.272846 0.000000000000000e+00 1634890835
3.138545 -1.279920 -2.310263 0.000000000000000e+00 1634890835
2.920611 -1.541432 -2.284887 0.000000000000000e+00 1851878480
2.798895 -1.658953 -2.262498 0.000000000000000e+00 1851878480
3.153926 -1.108466 -2.297584 0.000000000000000e+00 1634890835
3.052967 -1.244379 -2.288907 0.000000000000000e+00 1634890835
2.835456 -1.497178 -2.260674 0.000000000000000e+00 1851878480
2.708390 -1.606726 -2.231935 0.000000000000000e+00 1851878480
3.053719 -1.072029 -2.264971 0.000000000000000e+00 1634890835
2.988165 -1.217329 -2.281563 0.000000000000000e+00 1634890835
2.810882 -1.484891 -2.283654 0.000000000000000e+00 1851878480
0.879959 -0.522494 -0.739180 0.000000000000000e+00 1886740808
3.034177 -1.063944 -2.291077 0.000000000000000e+00 1634890835
2.974337 -1.211055 -2.312552 0.000000000000000e+00 1634890835
2.802935 -1.481392 -2.320202 0.000000000000000e+00 1851878480
0.818297 -0.486320 -0.700598 0.000000000000000e+00 1886740808
2.989483 -1.047052 -2.297810 0.000000000000000e+00 1634890835
2.893579 -1.177543 -2.290682 0.000000000000000e+00 1634890835
0.854527 -0.451845 -0.720641 0.000000000000000e+00 1886740808
0.785083 -0.467010 -0.685014 0.000000000000000e+00 1886740808
2.917650 -1.020688 -2.282587 0.000000000000000e+00 1634890835
2.838003 -1.154297 -2.287321 0.000000000000000e+00 1634890835
0.845062 -0.447056 -0.725971 0.000000000000000e+00 1886740808
0.790722 -0.470801 -0.703058 0.000000000000000e+00 1886740808
2.877514 -1.005443 -2.291117 0.000000000000000e+00 1634890835
2.818875 -1.145887 -2.312786 0.000000000000000e+00 1634890835
0.869032 -0.459962 -0.760442 0.000000000000000e+00 1886740808
0.816662 -0.486705 -0.739871 0.000000000000000e+00 1886740808
2.840059 -0.991155 -2.301205 0.000000000000000e+00 1634890835
2.746598 -1.115884 -2.293838 0.000000000000000e+00 1634890835
0.820067 -0.434262 -0.730874 0.000000000000000e+00 1886740808
0.779457 -0.464976 -0.719475 0.000000000000000e+00 1886740808
2.781347 -0.969471 -2.293222 0.000000000000000e+00 1634890835
0.833717 -0.338530 -0.708696 0.000000000000000e+00 1886740808
0.816402 -0.432538 -0.741015 0.000000000000000e+00 1886740808
0.774077 -0.462214 -0.727924 0.000000000000000e+00 1886740808
0.803518 -0.279727 -0.674088 0.000000000000000e+00 1886740808
0.848651 -0.344397 -0.734195 0.000000000000000e+00 1886740808
0.808864 -0.428763 -0.747649 0.000000000000000e+00 1886740808
0.775467 -0.463499 -0.742871 0.000000000000000e+00 1886740808
0.842157 -0.292808 -0.718810 0.000000000000000e+00 1886740808
0.805486 -0.326690 -0.709173 0.000000000000000e+00 1886740808
0.807641 -0.428336 -0.760173 0.000000000000000e+00 1886740808
0.825014 -0.493605 -0.805069 0.000000000000000e+00 1886740808
0.800176 -0.277856 -0.694829 0.000000000000000e+00 1886740808
0.844278 -0.342220 -0.756421 0.000000000000000e+00 1886740808
0.745617 -0.395649 -0.714588 0.000000000000000e+00 1886740808
0.754743 -0.452019 -0.750184 0.000000000000000e+00 1886740808
0.835754 -0.289832 -0.738274 0.000000000000000e+00 1886740808
0.773853 -0.313488 -0.705500 0.000000000000000e+00 1886740808
0.770376 -0.409005 -0.751738 0.000000000000000e+00 1886740808
0.776890 -0.465761 -0.786511 0.000000000000000e+00 1886740808
0.819419 -0.283793 -0.736322 0.000000000000000e+00 1886740808
0.755304 -0.305787 -0.700645 0.000000000000000e+00 1886740808
0.761746 -0.404643 -0.756795 0.000000000000000e+00 1886740808
0.762110 -0.457377 -0.785817 0.000000000000000e+00 1886740808
0.739541 -0.255784 -0.675967 0.000000000000000e+00 1886740808
0.749477 -0.303241 -0.707379 0.000000000000000e+00 1886740808
0.761613 -0.404794 -0.770351 0.000000000000000e+00 1886740808
0.751340 -0.451391 -0.789008 0.000000000000000e+00 1886740808
0.759899 -0.262468 -0.706485 0.000000000000000e+00 1886740808
0.775486 -0.313568 -0.744677 0.000000000000000e+00 1886740808
0.773911 -0.411560 -0.796923 0.000000000000000e+00 1886740808
0.767360 -0.461511 -0.820677 0.000000000000000e+00 1886740808
0.765440 -0.264016 -0.723810 0.000000000000000e+00 1886740808
0.744998 -0.301049 -0.727835 0.000000000000000e+00 1886740808
0.772427 -0.411003 -0.809732 0.000000000000000e+00 1886740808
2.092669 -1.259964 -2.279245 0.000000000000000e+00 1634890835
0.744323 -0.256371 -0.715858 0.000000000000000e+00 1886740808
0.751241 -0.303376 -0.746671 0.000000000000000e+00 1886740808
0.747031 -0.397720 -0.797207 0.000000000000000e+00 1886740808
2.100669 -1.266187 -2.330010 0.000000000000000e+00 1634890835
0.765986 -0.263456 -0.749250 0.000000000000000e+00 1886740808
0.803324 -0.324195 -0.812272 0.000000000000000e+00 1886740808
2.157030 -1.149075 -2.343313 0.000000000000000e+00 1634890835
2.061000 -1.243681 -2.327996 0.000000000000000e+00 1634890835
0.755241 -0.259383 -0.751314 0.000000000000000e+00 1886740808
0.791016 -0.319015 -0.813670 0.000000000000000e+00 1886740808
2.078441 -1.107870 -2.298518 0.000000000000000e+00 1634890835
0.804976 -0.486309 -0.925951 0.000000000000000e+00 1886740808
0.764829 -0.262288 -0.773787 0.000000000000000e+00 1886740808
0.753240 -0.303574 -0.788211 0.000000000000000e+00 1886740808
2.067624 -1.102771 -2.327637 0.000000000000000e+00 1634890835
0.785577 -0.475146 -0.920226 0.000000000000000e+00 1886740808
0.753029 -0.257853 -0.774793 0.000000000000000e+00 1886740808
0.755333 -0.304207 -0.804061 0.000000000000000e+00 1886740808
2.021297 -1.078727 -2.316366 0.000000000000000e+00 1634890835
0.800924 -0.485004 -0.955430 0.000000000000000e+00 1886740808
0.727978 -0.248894 -0.761736 0.000000000000000e+00 1886740808
2.125387 -0.855389 -2.301593 0.000000000000000e+00 1634890835
0.816414 -0.435978 -0.952408 0.000000000000000e+00 1886740808
0.808770 -0.490349 -0.982518 0.000000000000000e+00 1886740808
0.768914 -0.262480 -0.818229 0.000000000000000e+00 1886740808
2.106134 -0.847035 -2.320152 0.000000000000000e+00 1634890835
0.797006 -0.425886 -0.946487 0.000000000000000e+00 1886740808
0.782008 -0.474709 -0.967478 0.000000000000000e+00 1886740808
0.767137 -0.261459 -0.830198 0.000000000000000e+00 1886740808
2.069431 -0.831668 -2.319124 0.000000000000000e+00 1634890835
0.797942 -0.426663 -0.964654 0.000000000000000e+00 1886740808
1.797984 -1.092817 -2.265374 0.000000000000000e+00 1634890835
2.102687 -0.715488 -2.314182 0.000000000000000e+00 1634890835
2.020319 -0.811327 -2.303243 0.000000000000000e+00 1634890835
0.781952 -0.418391 -0.962358 0.000000000000000e+00 1886740808
1.793895 -1.091728 -2.301907 0.000000000000000e+00 1634890835
2.005445 -0.681276 -2.244670 0.000000000000000e+00 1634890835
2.001736 -0.803257 -2.321564 0.000000000000000e+00 1634890835
0.812386 -0.434968 -1.017859 0.000000000000000e+00 1886740808
0.743470 -0.453052 -0.971641 0.000000000000000e+00 1886740808
2.005514 -0.680155 -2.282934 0.000000000000000e+00 1634890835
1.973134 -0.791170 -2.328058 0.000000000000000e+00 1634890835
0.763332 -0.408984 -0.973692 0.000000000000000e+00 1886740808
1.709363 -1.043028 -2.275339 0.000000000000000e+00 1634890835
1.983908 -0.671675 -2.296805 0.000000000000000e+00 1634890835
0.803105 -0.321770 -0.964016 0.000000000000000e+00 1886740808
1.760127 -0.943719 -2.285875 0.000000000000000e+00 1634890835
1.703430 -1.040820 -2.309544 0.000000000000000e+00 1634890835
1.922252 -0.649665 -2.263386 0.000000000000000e+00 1634890835
0.816565 -0.326900 -0.997219 0.000000000000000e+00 1886740808
0.797391 -0.427840 -1.054385 0.000000000000000e+00 1886740808
1.675749 -1.025325 -2.314322 0.000000000000000e+00 1634890835
1.928252 -0.650532 -2.309252 0.000000000000000e+00 1634890835
0.794138 -0.317662 -0.986734 0.000000000000000e+00 1886740808
1.705797 -0.915911 -2.296660 0.000000000000000e+00 1634890835
1.640497 -1.005175 -2.307963 0.000000000000000e+00 1634890835
0.810556 -0.272959 -0.987337 0.000000000000000e+00 1886740808
0.778085 -0.310980 -0.983678 0.000000000000000e+00 1886740808
1.690629 -0.908445 -2.317844 0.000000000000000e+00 1634890835
1.573345 -0.965421 -2.254990 0.000000000000000e+00 1634890835
0.775713 -0.260740 -0.961117 0.000000000000000e+00 1886740808
0.782259 -0.312383 -1.006281 0.000000000000000e+00 1886740808
1.644985 -0.884591 -2.296631 0.000000000000000e+00 1634890835
1.568847 -0.964082 -2.290868 0.000000000000000e+00 1634890835
0.769522 -0.258168 -0.969858 0.000000000000000e+00 1886740808
0.764854 -0.305167 -1.001182 0.000000000000000e+00 1886740808
1.615074 -0.869182 -2.296387 0.000000000000000e+00 1634890835
1.568944 -0.965594 -2.334315 0.000000000000000e+00 1634890835
0.779376 -0.260966 -0.999238 0.000000000000000e+00 1886740808
1.722712 -0.686728 -2.294765 0.000000000000000e+00 1634890835
1.588796 -0.855719 -2.300790 0.000000000000000e+00 1634890835
1.498909 -0.923913 -2.272468 0.000000000000000e+00 1634890835
0.758263 -0.253394 -0.989011 0.000000000000000e+00 1886740808
1.698233 -0.676355 -2.302191 0.000000000000000e+00 1634890835
1.576888 -0.849997 -2.325956 0.000000000000000e+00 1634890835
1.478830 -0.912973 -2.284816 0.000000000000000e+00 1634890835
0.791138 -0.263843 -1.049831 0.000000000000000e+00 1886740808
0.753828 -0.299949 -1.040076 0.000000000000000e+00 1886740808
1.552283 -0.837429 -2.332392 0.000000000000000e+00 1634890835
1.458737 -0.902019 -2.297013 0.000000000000000e+00 1634890835
1.698716 -0.565343 -2.293522 0.000000000000000e+00 1634890835
1.653405 -0.657264 -2.321954 0.000000000000000e+00 1634890835
1.522901 -0.822276 -2.331168 0.000000000000000e+00 1634890835
1.431258 -0.886488 -2.297232 0.000000000000000e+00 1634890835
0.789474 -0.262183 -1.084593 0.000000000000000e+00 1886740808
1.626469 -0.645928 -2.325075 0.000000000000000e+00 1634890835
1.498255 -0.809676 -2.336702 0.000000000000000e+00 1634890835
1.418695 -0.880193 -2.321274 0.000000000000000e+00 1634890835
1.647567 -0.545964 -2.303310 0.000000000000000e+00 1634890835
1.582896 -0.627996 -2.303552 0.000000000000000e+00 1634890835
1.451365 -0.785034 -2.306518 0.000000000000000e+00 1634890835
1.385341 -0.860985 -2.310983 0.000000000000000e+00 1634890835
1.586395 -0.524522 -2.257035 0.000000000000000e+00 1634890835
1.561275 -0.618788 -2.313239 0.000000000000000e+00 1634890835
1.457522 -0.789085 -2.360526 0.000000000000000e+00 1634890835
1.369353 -0.852558 -2.329245 0.000000000000000e+00 1634890835
1.571875 -0.518534 -2.276153 0.000000000000000e+00 1634890835
1.533209 -0.607028 -2.313030 0.000000000000000e+00 1634890835
1.431908 -0.775943 -2.363611 0.000000000000000e+00 1634890835
1.310151 -0.817183 -2.272695 0.000000000000000e+00 1634890835
1.578229 -0.519408 -2.326224 0.000000000000000e+00 1634890835
1.501807 -0.593957 -2.307167 0.000000000000000e+00 1634890835
1.380247 -0.748667 -2.322425 0.000000000000000e+00 1634890835
1.300722 -0.812814 -2.301377 0.000000000000000e+00 1634890835
1.515488 -0.497560 -2.273929 0.000000000000000e+00 1634890835
1.464878 -0.578715 -2.291923 0.000000000000000e+00 1634890835
1.337429 -0.726156 -2.294245 0.000000000000000e+00 1634890835
1.258213 -0.787756 -2.270953 0.000000000000000e+00 1634890835
1.511533 -0.495034 -2.309042 0.000000000000000e+00 1634890835
1.427831 -0.563442 -2.275419 0.000000000000000e+00 1634890835
1.332551 -0.724239 -2.330781 0.000000000000000e+00 1634890835
1.253984 -0.786652 -2.309237 0.000000000000000e+00 1634890835
1.469364 -0.480004 -2.285515 0.000000000000000e+00 1634890835
1.381213 -0.544416 -2.242265 0.000000000000000e+00 1634890835
1.289020 -0.701307 -2.299288 0.000000000000000e+00 1634890835
1.229292 -0.772720 -2.310094 0.000000000000000e+00 1634890835
1.442771 -0.470088 -2.285310 0.000000000000000e+00 1634890835
1.390640 -0.547479 -2.300068 0.000000000000000e+00 1634890835
1.275299 -0.694582 -2.320243 0.000000000000000e+00 1634890835
1.224911 -0.771562 -2.349397 0.000000000000000e+00 1634890835
1.417924 -0.460754 -2.287441 0.000000000000000e+00 1634890835
1.384630 -0.544445 -2.333572 0.000000000000000e+00 1634890835
1.256251 -0.684957 -2.331639 0.000000000000000e+00 1634890835
1.169604 -0.738297 -2.290088 0.000000000000000e+00 1634890835
1.401297 -0.454096 -2.302691 0.000000000000000e+00 1634890835
1.339086 -0.525875 -2.299972 0.000000000000000e+00 1634890835
1.234609 -0.673917 -2.338067 0.000000000000000e+00 1634890835
1.170000 -0.740170 -2.339106 0.000000000000000e+00 1634890835
1.357495 -0.438653 -2.272557 0.000000000000000e+00 1634890835
1.340996 -0.525942 -2.347668 0.000000000000000e+00 1634890835
1.181155 -0.645487 -2.282763 0.000000000000000e+00 1634890835
1.128965 -0.715826 -2.305093 0.000000000000000e+00 1634890835
1.368167 -0.440808 -2.333740 0.000000000000000e+00 1634890835
1.302417 -0.510131 -2.324484 0.000000000000000e+00 1634890835
1.175227 -0.643016 -2.318413 0.000000000000000e+00 1634890835
1.088079 -0.691507 -2.269395 0.000000000000000e+00 1634890835
1.340301 -0.430529 -2.329818 0.000000000000000e+00 1634890835
1.253610 -0.490339 -2.281301 0.000000000000000e+00 1634890835
1.141605 -0.625388 -2.299286 0.000000000000000e+00 1634890835
1.075293 -0.685023 -2.291514 0.000000000000000e+00 1634890835
1.299436 -0.416106 -2.302255 0.000000000000000e+00 1634890835
1.218539 -0.475947 -2.261430 0.000000000000000e+00 1634890835
1.108508 -0.608028 -2.279928 0.000000000000000e+00 1634890835
1.045770 -0.667865 -2.277647 0.000000000000000e+00 1634890835
1.261306 -0.402601 -2.278109 0.000000000000000e+00 1634890835
1.218896 -0.475392 -2.307373 0.000000000000000e+00 1634890835
1.104709 -0.606738 -2.320806 0.000000000000000e+00 1634890835
1.014929 -0.649824 -2.259722 0.000000000000000e+00 1634890835
1.278763 -0.406823 -2.354945 0.000000000000000e+00 1634890835
1.198475 -0.466724 -2.314601 0.000000000000000e+00 1634890835
1.111663 -0.611383 -2.386056 0.000000000000000e+00 1634890835
1.005234 -0.645316 -2.288637 0.000000000000000e+00 1634890835
1.219065 -0.386504 -2.289486 0.000000000000000e+00 1634890835
1.164150 -0.452651 -2.294272 0.000000000000000e+00 1634890835
1.040690 -0.573149 -2.282753 0.000000000000000e+00 1634890835
0.979740 -0.630666 -2.281592 0.000000000000000e+00 1634890835
1.235655 -0.390378 -2.367105 0.000000000000000e+00 1634890835
1.128914 -0.438245 -2.270822 0.000000000000000e+00 1634890835
1.021866 -0.563593 -2.291297 0.000000000000000e+00 1634890835
0.976347 -0.630256 -2.326390 0.000000000000000e+00 1634890835
1.147732 -0.361274 -2.243178 0.000000000000000e+00 1634890835
1.103807 -0.427787 -2.266755 0.000000000000000e+00 1634890835
0.989044 -0.546305 -2.267664 0.000000000000000e+00 1634890835
0.942780 -0.610364 -2.299221 0.000000000000000e+00 1634890835
1.171327 -0.367303 -2.336155 0.000000000000000e+00 1634890835
1.126348 -0.435770 -2.362001 0.000000000000000e+00 1634890835
0.992587 -0.549110 -2.327768 0.000000000000000e+00 1634890835
0.916089 -0.594877 -2.287428 0.000000000000000e+00 1634890835
1.123592 -0.350951 -2.287364 0.000000000000000e+00 1634890835
1.090973 -0.421332 -2.336849 0.000000000000000e+00 1634890835
0.960202 -0.532044 -2.303987 0.000000000000000e+00 1634890835
0.901185 -0.587034 -2.304729 0.000000000000000e+00 1634890835
1.096454 -0.341079 -2.278914 0.000000000000000e+00 1634890835
1.048962 -0.404359 -2.295641 0.000000000000000e+00 1634890835
0.936641 -0.519850 -2.300296 0.000000000000000e+00 1634890835
0.885978 -0.579004 -2.321610 0.000000000000000e+00 1634890835
1.093146 -0.338613 -2.320276 0.000000000000000e+00 1634890835
1.040179 -0.400204 -2.326506 0.000000000000000e+00 1634890835
0.902862 -0.501966 -2.270277 0.000000000000000e+00 1634890835
0.866580 -0.568239 -2.327600 0.000000000000000e+00 1634890835
1.051158 -0.324176 -2.279144 0.000000000000000e+00 1634890835
1.019961 -0.391645 -2.332183 0.000000000000000e+00 1634890835
0.885934 -0.493435 -2.281749 0.000000000000000e+00 1634890835
0.828994 -0.545501 -2.283320 0.000000000000000e+00 1634890835
1.063012 -0.326334 -2.355093 0.000000000000000e+00 1634890835
0.976820 -0.374304 -2.284090 0.000000000000000e+00 1634890835
0.878910 -0.490432 -2.319475 0.000000000000000e+00 1634890835
0.457864 -0.302387 -1.293778 0.000000000000000e+00 1936876886
1.001012 -0.305839 -2.266766 0.000000000000000e+00 1634890835
0.952185 -0.364080 -2.277635 0.000000000000000e+00 1634890835
0.856910 -0.479082 -2.318141 0.000000000000000e+00 1634890835
0.429652 -0.284834 -1.246099 0.000000000000000e+00 1936876886
0.988924 -0.300649 -2.289624 0.000000000000000e+00 1634890835
0.953974 -0.363947 -2.335151 0.000000000000000e+00 1634890835
0.840690 -0.470960 -2.332325 0.000000000000000e+00 1634890835
0.429393 -0.285789 -1.278840 0.000000000000000e+00 1936876886
0.972939 -0.294260 -2.303909 0.000000000000000e+00 1634890835
0.909789 -0.346279 -2.279786 0.000000000000000e+00 1634890835
0.447395 -0.251160 -1.273481 0.000000000000000e+00 1936876886
0.349828 -0.233796 -1.070456 0.000000000000000e+00 1953264973
0.977701 -0.294105 -2.368726 0.000000000000000e+00 1634890835
0.896522 -0.340400 -2.300685 0.000000000000000e+00 1634890835
0.456368 -0.256758 -1.333446 0.000000000000000e+00 1936876886
0.312881 -0.210005 -0.984205 0.000000000000000e+00 1953264973
0.511094 -0.152876 -1.267352 0.000000000000000e+00 1936876886
0.877306 -0.332257 -2.306567 0.000000000000000e+00 1634890835
0.369251 -0.208220 -1.108059 0.000000000000000e+00 1953264973
0.276743 -0.186588 -0.895424 0.000000000000000e+00 1953264973
0.472013 -0.140353 -1.198411 0.000000000000000e+00 1936876886
0.850212 -0.321139 -2.291115 0.000000000000000e+00 1634890835
0.319716 -0.180719 -0.985875 0.000000000000000e+00 1953264973
0.275712 -0.186771 -0.918172 0.000000000000000e+00 1953264973
0.465116 -0.137447 -1.209606 0.000000000000000e+00 1936876886
0.843614 -0.317761 -2.331114 0.000000000000000e+00 1634890835
0.311840 -0.176709 -0.988683 0.000000000000000e+00 1953264973
0.236894 -0.161269 -0.812499 0.000000000000000e+00 1953264973
