# .PCD v0.7 - Point Cloud Data file format
VERSION 0.7
FIELDS x y z rgb label
SIZE 4 4 4 4 4
TYPE F F F F U
COUNT 1 1 1 1 1
WIDTH 542
HEIGHT 1
VIEWPOINT 0 0 0 1 0 0 0
POINTS 542
DATA ascii
44.410931 -18.781384 10.321877 0.000000000000000e+00 1954047316
41.458466 -23.150330 9.984050 0.000000000000000e+00 1954047316
35.190060 -13.093029 -1.916326 0.000000000000000e+00 1851878480
33.491848 -14.014386 -1.728461 0.000000000000000e+00 1851878480
30.787172 -15.882679 -1.357850 0.000000000000000e+00 1851878480
29.980110 -17.011620 -1.179512 0.000000000000000e+00 1851878480
31.325615 -11.646377 -1.990248 0.000000000000000e+00 1851878480
30.418655 -12.723973 -1.854390 0.000000000000000e+00 1851878480
28.997429 -14.963988 -1.568047 0.000000000000000e+00 1851878480
28.275419 -16.053787 -1.404144 0.000000000000000e+00 1851878480
29.012899 -10.778364 -2.106883 0.000000000000000e+00 1851878480
28.562143 -11.943240 -2.008604 0.000000000000000e+00 1851878480
27.412369 -14.150414 -1.755942 0.000000000000000e+00 1851878480
26.282450 -14.931056 -1.576618 0.000000000000000e+00 1851878480
26.989147 -10.018917 -2.205328 0.000000000000000e+00 1851878480
26.610167 -11.123108 -2.120693 0.000000000000000e+00 1851878480
25.852077 -13.349116 -1.914333 0.000000000000000e+00 1851878480
24.733711 -14.059501 -1.739495 0.000000000000000e+00 1851878480
24.503828 -9.089403 -2.225295 0.000000000000000e+00 1851878480
24.636698 -10.294577 -2.194550 0.000000000000000e+00 1851878480
23.929466 -12.360168 -2.011410 0.000000000000000e+00 1851878480
23.165205 -13.175703 -1.869095 0.000000000000000e+00 1851878480
22.306175 -8.267908 -2.228999 0.000000000000000e+00 1851878480
22.524685 -9.408761 -2.218004 0.000000000000000e+00 1851878480
21.877953 -11.304029 -2.058210 0.000000000000000e+00 1851878480
21.454704 -12.210041 -1.953634 0.000000000000000e+00 1851878480
20.465420 -7.579841 -2.231809 0.000000000000000e+00 1851878480
20.514050 -8.565875 -2.212987 0.000000000000000e+00 1851878480
20.358181 -10.522045 -2.119575 0.000000000000000e+00 1851878480
19.915136 -11.340587 -2.020383 0.000000000000000e+00 1851878480
18.964390 -7.018533 -2.241432 0.000000000000000e+00 1851878480
18.956387 -7.912666 -2.223553 0.000000000000000e+00 1851878480
19.083372 -9.866243 -2.178742 0.000000000000000e+00 1851878480
18.728966 -10.671455 -2.095041 0.000000000000000e+00 1851878480
17.570669 -6.497748 -2.237547 0.000000000000000e+00 1851878480
17.715364 -7.392030 -2.245180 0.000000000000000e+00 1851878480
17.705482 -9.156718 -2.199815 0.000000000000000e+00 1851878480
17.813545 -10.155908 -2.178493 0.000000000000000e+00 1851878480
16.374950 -6.050919 -2.235442 0.000000000000000e+00 1851878480
16.520546 -6.891037 -2.249970 0.000000000000000e+00 1851878480
16.481289 -8.526273 -2.214122 0.000000000000000e+00 1851878480
16.515348 -9.421393 -2.192428 0.000000000000000e+00 1851878480
15.352531 -5.668755 -2.236923 0.000000000000000e+00 1851878480
15.362069 -6.405533 -2.237749 0.000000000000000e+00 1851878480
15.489518 -8.015707 -2.237630 0.000000000000000e+00 1851878480
15.368467 -8.772382 -2.201267 0.000000000000000e+00 1851878480
14.485283 -5.344403 -2.243927 0.000000000000000e+00 1851878480
14.480142 -6.035648 -2.246778 0.000000000000000e+00 1851878480
14.488398 -7.499990 -2.239976 0.000000000000000e+00 1851878480
14.456463 -8.256750 -2.222558 0.000000000000000e+00 1851878480
13.667192 -5.038674 -2.243311 0.000000000000000e+00 1851878480
13.655881 -5.690053 -2.248858 0.000000000000000e+00 1851878480
13.630315 -7.058026 -2.245936 0.000000000000000e+00 1851878480
13.560652 -7.749764 -2.227730 0.000000000000000e+00 1851878480
12.938303 -4.766259 -2.243345 0.000000000000000e+00 1851878480
12.891917 -5.369804 -2.246057 0.000000000000000e+00 1851878480
12.859767 -6.661123 -2.250115 0.000000000000000e+00 1851878480
12.810170 -7.325281 -2.239822 0.000000000000000e+00 1851878480
12.229377 -4.501599 -2.233829 0.000000000000000e+00 1851878480
12.175241 -5.069480 -2.237676 0.000000000000000e+00 1851878480
12.148954 -6.294931 -2.250003 0.000000000000000e+00 1851878480
12.070306 -6.906379 -2.238413 0.000000000000000e+00 1851878480
11.672585 -4.293297 -2.240654 0.000000000000000e+00 1851878480
11.581498 -4.820524 -2.239658 0.000000000000000e+00 1851878480
11.464775 -5.942312 -2.240912 0.000000000000000e+00 1851878480
11.441799 -6.550720 -2.243539 0.000000000000000e+00 1851878480
11.163032 -4.102665 -2.246925 0.000000000000000e+00 1851878480
11.080119 -4.610170 -2.249310 0.000000000000000e+00 1851878480
10.884366 -5.643271 -2.239491 0.000000000000000e+00 1851878480
10.832272 -6.205521 -2.239611 0.000000000000000e+00 1851878480
10.687815 -3.924930 -2.251221 0.000000000000000e+00 1851878480
10.562372 -4.393158 -2.246149 0.000000000000000e+00 1851878480
10.384369 -5.385755 -2.243857 0.000000000000000e+00 1851878480
10.317324 -5.914125 -2.243630 0.000000000000000e+00 1851878480
10.208976 -3.746135 -2.246135 0.000000000000000e+00 1851878480
10.142947 -4.217175 -2.255172 0.000000000000000e+00 1851878480
9.927274 -5.150345 -2.247977 0.000000000000000e+00 1851878480
9.852208 -5.650969 -2.248386 0.000000000000000e+00 1851878480
9.763947 -3.580002 -2.240118 0.000000000000000e+00 1851878480
9.629873 -4.002396 -2.234660 0.000000000000000e+00 1851878480
9.544528 -4.953365 -2.260593 0.000000000000000e+00 1851878480
9.400375 -5.395123 -2.246708 0.000000000000000e+00 1851878480
9.411187 -3.447926 -2.248066 0.000000000000000e+00 1851878480
9.294477 -3.861585 -2.247458 0.000000000000000e+00 1851878480
9.141640 -4.745810 -2.260636 0.000000000000000e+00 1851878480
8.977917 -5.155842 -2.243011 0.000000000000000e+00 1851878480
9.022885 -3.303032 -2.240831 0.000000000000000e+00 1851878480
8.922671 -3.705747 -2.244879 0.000000000000000e+00 1851878480
8.692446 -4.514076 -2.240695 0.000000000000000e+00 1851878480
8.628593 -4.958298 -2.249617 0.000000000000000e+00 1851878480
8.688633 -3.178133 -2.240480 0.000000000000000e+00 1851878480
8.522131 -3.538092 -2.227838 0.000000000000000e+00 1851878480
8.369428 -4.347746 -2.245553 0.000000000000000e+00 1851878480
8.249636 -4.743486 -2.240970 0.000000000000000e+00 1851878480
8.392097 -3.067203 -2.244164 0.000000000000000e+00 1851878480
8.275912 -3.434599 -2.245111 0.000000000000000e+00 1851878480
8.073044 -4.195155 -2.251407 0.000000000000000e+00 1851878480
7.981102 -4.591950 -2.255641 0.000000000000000e+00 1851878480
8.089294 -2.954148 -2.240763 0.000000000000000e+00 1851878480
7.962618 -3.303352 -2.239002 0.000000000000000e+00 1851878480
7.790393 -4.049601 -2.255343 0.000000000000000e+00 1851878480
7.614559 -4.383806 -2.236038 0.000000000000000e+00 1851878480
7.820542 -2.853684 -2.241626 0.000000000000000e+00 1851878480
7.619076 -3.159651 -2.218206 0.000000000000000e+00 1851878480
7.496580 -3.898160 -2.250297 0.000000000000000e+00 1851878480
7.388495 -4.256339 -2.251549 0.000000000000000e+00 1851878480
7.554167 -2.754243 -2.238335 0.000000000000000e+00 1851878480
7.484217 -3.102559 -2.253743 0.000000000000000e+00 1851878480
7.217551 -3.754313 -2.243950 0.000000000000000e+00 1851878480
7.095244 -4.089998 -2.241230 0.000000000000000e+00 1851878480
7.284072 -2.653594 -2.229072 0.000000000000000e+00 1851878480
7.206177 -2.986174 -2.242373 0.000000000000000e+00 1851878480
6.992838 -3.638635 -2.249465 0.000000000000000e+00 1851878480
6.862941 -3.958604 -2.244708 0.000000000000000e+00 1851878480
7.094774 -2.582513 -2.240396 0.000000000000000e+00 1851878480
7.007996 -2.902949 -2.251415 0.000000000000000e+00 1851878480
6.762875 -3.520156 -2.248772 0.000000000000000e+00 1851878480
6.589377 -3.803244 -2.229429 0.000000000000000e+00 1851878480
6.840815 -2.488012 -2.227295 0.000000000000000e+00 1851878480
6.769232 -2.802976 -2.243349 0.000000000000000e+00 1851878480
6.578981 -3.425589 -2.259295 0.000000000000000e+00 1851878480
6.386063 -3.688269 -2.232949 0.000000000000000e+00 1851878480
6.671364 -2.424366 -2.237883 0.000000000000000e+00 1851878480
6.616731 -2.738781 -2.260250 0.000000000000000e+00 1851878480
6.376188 -3.321126 -2.259502 0.000000000000000e+00 1851878480
6.232503 -3.601908 -2.250233 0.000000000000000e+00 1851878480
6.436305 -2.336993 -2.222802 0.000000000000000e+00 1851878480
6.387776 -2.642994 -2.247494 0.000000000000000e+00 1851878480
6.140676 -3.199543 -2.243698 0.000000000000000e+00 1851878480
6.019563 -3.481112 -2.242314 0.000000000000000e+00 1851878480
6.292276 -2.282779 -2.235735 0.000000000000000e+00 1851878480
6.240778 -2.581174 -2.260073 0.000000000000000e+00 1851878480
5.987828 -3.120972 -2.254209 0.000000000000000e+00 1851878480
5.848535 -3.384421 -2.246019 0.000000000000000e+00 1851878480
6.178544 -2.239624 -2.257204 0.000000000000000e+00 1851878480
6.020358 -2.489036 -2.242629 0.000000000000000e+00 1851878480
5.787083 -3.017378 -2.243161 0.000000000000000e+00 1851878480
5.651698 -3.272670 -2.235984 0.000000000000000e+00 1851878480
5.948702 -2.154478 -2.233148 0.000000000000000e+00 1851878480
5.883427 -2.431473 -2.252936 0.000000000000000e+00 1851878480
5.665548 -2.955035 -2.259616 0.000000000000000e+00 1851878480
5.534225 -3.206768 -2.254118 0.000000000000000e+00 1851878480
5.790704 -2.095462 -2.232495 0.000000000000000e+00 1851878480
5.694853 -2.352613 -2.240431 0.000000000000000e+00 1851878480
5.509534 -2.874662 -2.259602 0.000000000000000e+00 1851878480
5.341693 -3.097273 -2.238478 0.000000000000000e+00 1851878480
5.717631 -2.067238 -2.262587 0.000000000000000e+00 1851878480
5.563169 -2.297301 -2.247309 0.000000000000000e+00 1851878480
5.417912 -2.827851 -2.283606 0.000000000000000e+00 1851878480
5.201112 -3.017784 -2.241113 0.000000000000000e+00 1851878480
5.525611 -1.996082 -2.243254 0.000000000000000e+00 1851878480
5.458152 -2.253033 -2.262827 0.000000000000000e+00 1851878480
5.182295 -2.705827 -2.243597 0.000000000000000e+00 1851878480
5.075847 -2.947097 -2.247625 0.000000000000000e+00 1851878480
5.434165 -1.961337 -2.262197 0.000000000000000e+00 1851878480
5.261423 -2.170957 -2.237485 0.000000000000000e+00 1851878480
5.104771 -2.666299 -2.268857 0.000000000000000e+00 1851878480
4.921044 -2.859161 -2.238145 0.000000000000000e+00 1851878480
5.255530 -1.895196 -2.242406 0.000000000000000e+00 1851878480
5.144202 -2.121730 -2.242965 0.000000000000000e+00 1851878480
4.911679 -2.566362 -2.240036 0.000000000000000e+00 1851878480
4.772917 -2.775000 -2.228489 0.000000000000000e+00 1851878480
5.122212 -1.845487 -2.239065 0.000000000000000e+00 1851878480
5.038215 -2.077169 -2.251314 0.000000000000000e+00 1851878480
4.802768 -2.510363 -2.246511 0.000000000000000e+00 1851878480
4.697209 -2.732867 -2.250370 0.000000000000000e+00 1851878480
5.024126 -1.808537 -2.249063 0.000000000000000e+00 1851878480
4.938576 -2.035254 -2.260648 0.000000000000000e+00 1851878480
4.725696 -2.470972 -2.266119 0.000000000000000e+00 1851878480
4.602730 -2.679764 -2.261623 0.000000000000000e+00 1851878480
4.903958 -1.763698 -2.247240 0.000000000000000e+00 1851878480
4.805094 -1.979427 -2.252325 0.000000000000000e+00 1851878480
4.564860 -2.387750 -2.243173 0.000000000000000e+00 1851878480
4.485261 -2.613203 -2.259417 0.000000000000000e+00 1851878480
4.821797 -1.732578 -2.261055 0.000000000000000e+00 1851878480
4.713447 -1.940865 -2.261522 0.000000000000000e+00 1851878480
4.512336 -2.361147 -2.271342 0.000000000000000e+00 1851878480
4.386403 -2.557412 -2.264353 0.000000000000000e+00 1851878480
4.654676 -1.671005 -2.232732 0.000000000000000e+00 1851878480
4.577288 -1.884006 -2.247222 0.000000000000000e+00 1851878480
4.369900 -2.287467 -2.252342 0.000000000000000e+00 1851878480
4.205611 -2.453751 -2.223942 0.000000000000000e+00 1851878480
4.553676 -1.633244 -2.233610 0.000000000000000e+00 1851878480
4.509723 -1.855412 -2.264716 0.000000000000000e+00 1851878480
4.277976 -2.240188 -2.256976 0.000000000000000e+00 1851878480
4.171447 -2.435567 -2.258814 0.000000000000000e+00 1851878480
4.476275 -1.604000 -2.244504 0.000000000000000e+00 1851878480
4.362556 -1.794098 -2.240210 0.000000000000000e+00 1851878480
4.157604 -2.177976 -2.244448 0.000000000000000e+00 1851878480
4.091016 -2.390338 -2.267634 0.000000000000000e+00 1851878480
4.361010 -1.561235 -2.234683 0.000000000000000e+00 1851878480
4.281011 -1.759805 -2.247206 0.000000000000000e+00 1851878480
4.081627 -2.138990 -2.253913 0.000000000000000e+00 1851878480
3.955468 -2.312826 -2.243592 0.000000000000000e+00 1851878480
4.297980 -1.537224 -2.250046 0.000000000000000e+00 1851878480
4.222106 -1.734838 -2.264880 0.000000000000000e+00 1851878480
4.022895 -2.109024 -2.271675 0.000000000000000e+00 1851878480
3.876951 -2.268588 -2.249593 0.000000000000000e+00 1851878480
4.253730 -1.519950 -2.274438 0.000000000000000e+00 1851878480
4.116658 -1.690769 -2.256096 0.000000000000000e+00 1851878480
3.930031 -2.061138 -2.268714 0.000000000000000e+00 1851878480
3.842077 -2.249853 -2.279909 0.000000000000000e+00 1851878480
4.084677 -1.458147 -2.230097 0.000000000000000e+00 1851878480
4.007638 -1.645268 -2.243268 0.000000000000000e+00 1851878480
3.817494 -2.002902 -2.252254 0.000000000000000e+00 1851878480
3.680766 -2.157012 -2.233079 0.000000000000000e+00 1851878480
4.038842 -1.440390 -2.250996 0.000000000000000e+00 1851878480
3.953746 -1.622421 -2.259800 0.000000000000000e+00 1851878480
3.736702 -1.961289 -2.252516 0.000000000000000e+00 1851878480
3.602607 -2.112809 -2.233984 0.000000000000000e+00 1851878480
3.996450 -1.423882 -2.273210 0.000000000000000e+00 1634890835
3.888532 -1.594942 -2.268867 0.000000000000000e+00 1851878480
3.681974 -1.933335 -2.267206 0.000000000000000e+00 1851878480
3.529852 -2.071725 -2.236689 0.000000000000000e+00 1851878480
3.964607 -1.411144 -2.300980 0.000000000000000e+00 1634890835
3.769494 -1.545416 -2.244751 0.000000000000000e+00 1851878480
3.592963 -1.887354 -2.259384 0.000000000000000e+00 1851878480
3.466463 -2.036092 -2.243964 0.000000000000000e+00 1851878480
3.855387 -1.370904 -2.282617 0.000000000000000e+00 1634890835
3.727237 -1.527391 -2.264838 0.000000000000000e+00 1851878480
3.487521 -1.832712 -2.239144 0.000000000000000e+00 1851878480
3.396764 -1.996710 -2.245817 0.000000000000000e+00 1851878480
3.843897 -1.365447 -2.321124 0.000000000000000e+00 1634890835
3.660317 -1.499275 -2.269040 0.000000000000000e+00 1851878480
3.442728 -1.809918 -2.256327 0.000000000000000e+00 1851878480
3.330070 -1.959049 -2.248261 0.000000000000000e+00 1851878480
3.756588 -1.333078 -2.313105 0.000000000000000e+00 1634890835
3.564047 -1.459161 -2.253477 0.000000000000000e+00 1851878480
3.398825 -1.787580 -2.273384 0.000000000000000e+00 1851878480
3.249213 -1.913007 -2.239574 0.000000000000000e+00 1851878480
3.633013 -1.287905 -2.280667 0.000000000000000e+00 1634890835
3.497144 -1.431092 -2.254895 0.000000000000000e+00 1851878480
3.289007 -1.730546 -2.244754 0.000000000000000e+00 1851878480
3.178182 -1.872692 -2.236012 0.000000000000000e+00 1851878480
3.555135 -1.258992 -2.274917 0.000000000000000e+00 1634890835
3.487976 -1.426661 -2.293035 0.000000000000000e+00 1634890835
3.220452 -1.695194 -2.242333 0.000000000000000e+00 1851878480
3.107102 -1.832299 -2.230886 0.000000000000000e+00 1851878480
3.522736 -1.246210 -2.297362 0.000000000000000e+00 1634890835
3.452761 -1.411575 -2.313943 0.000000000000000e+00 1634890835
3.223653 -1.697605 -2.289468 0.000000000000000e+00 1851878480
3.065890 -1.809484 -2.246094 0.000000000000000e+00 1851878480
3.436059 -1.214262 -2.283384 0.000000000000000e+00 1634890835
3.374873 -1.379060 -2.305269 0.000000000000000e+00 1634890835
3.128654 -1.648291 -2.266076 0.000000000000000e+00 1851878480
3.019627 -1.783663 -2.256842 0.000000000000000e+00 1851878480
3.375120 -1.191451 -2.285122 0.000000000000000e+00 1634890835
3.331939 -1.360847 -2.319377 0.000000000000000e+00 1634890835
3.057630 -1.611580 -2.258208 0.000000000000000e+00 1851878480
2.937300 -1.736493 -2.239255 0.000000000000000e+00 1851878480
3.361290 -1.185282 -2.318270 0.000000000000000e+00 1634890835
3.258297 -1.330105 -2.311059 0.000000000000000e+00 1634890835
2.969564 -1.565856 -2.235986 0.000000000000000e+00 1851878480
2.882842 -1.705750 -2.241395 0.000000000000000e+00 1851878480
3.224680 -1.135865 -2.265280 0.000000000000000e+00 1634890835
3.144579 -1.283036 -2.272312 0.000000000000000e+00 1634890835
2.895630 -1.527555 -2.222571 0.000000000000000e+00 1851878480
2.848257 -1.686738 -2.258176 0.000000000000000e+00 1851878480
3.196105 -1.124552 -2.286524 0.000000000000000e+00 1634890835
3.131656 -1.277111 -2.305192 0.000000000000000e+00 1634890835
2.930379 -1.546587 -2.292529 0.000000000000000e+00 1851878480
2.762547 -1.637409 -2.233116 0.000000000000000e+00 1851878480
3.140895 -1.103886 -2.288091 0.000000000000000e+00 1634890835
3.101309 -1.264084 -2.325151 0.000000000000000e+00 1634890835
2.825078 -1.491698 -2.252399 0.000000000000000e+00 1851878480
2.739469 -1.625163 -2.257546 0.000000000000000e+00 1851878480
3.048266 -1.070115 -2.260926 0.000000000000000e+00 1634890835
3.002864 -1.223317 -2.292786 0.000000000000000e+00 1634890835
2.801558 -1.479966 -2.276079 0.000000000000000e+00 1851878480
0.830548 -0.493155 -0.697674 0.000000000000000e+00 1886740808
3.025962 -1.061063 -2.284874 0.000000000000000e+00 1634890835
2.983559 -1.214809 -2.319722 0.000000000000000e+00 1634890835
2.772802 -1.465466 -2.295259 0.000000000000000e+00 1851878480
0.830743 -0.493718 -0.711254 0.000000000000000e+00 1886740808
2.946560 -1.032018 -2.264818 0.000000000000000e+00 1634890835
2.912588 -1.185278 -2.305730 0.000000000000000e+00 1634890835
0.868402 -0.459182 -0.732341 0.000000000000000e+00 1886740808
0.829368 -0.493353 -0.723653 0.000000000000000e+00 1886740808
2.935678 -1.026994 -2.296691 0.000000000000000e+00 1634890835
2.838837 -1.154636 -2.287994 0.000000000000000e+00 1634890835
0.877574 -0.464256 -0.753902 0.000000000000000e+00 1886740808
0.811311 -0.483061 -0.721365 0.000000000000000e+00 1886740808
2.870492 -1.002989 -2.285526 0.000000000000000e+00 1634890835
2.793608 -1.135616 -2.292055 0.000000000000000e+00 1634890835
0.817661 -0.432772 -0.715489 0.000000000000000e+00 1886740808
0.817241 -0.487050 -0.740395 0.000000000000000e+00 1886740808
2.794378 -0.975212 -2.264191 0.000000000000000e+00 1634890835
2.741067 -1.113637 -2.289219 0.000000000000000e+00 1634890835
0.867909 -0.459595 -0.773512 0.000000000000000e+00 1886740808
0.774852 -0.462229 -0.715224 0.000000000000000e+00 1886740808
2.769401 -0.965307 -2.283373 0.000000000000000e+00 1634890835
0.836628 -0.339712 -0.711170 0.000000000000000e+00 1886740808
0.851152 -0.450949 -0.772557 0.000000000000000e+00 1886740808
0.779812 -0.465639 -0.733317 0.000000000000000e+00 1886740808
0.849235 -0.295642 -0.712441 0.000000000000000e+00 1886740808
0.841458 -0.341478 -0.727972 0.000000000000000e+00 1886740808
0.818204 -0.433714 -0.756282 0.000000000000000e+00 1886740808
0.754214 -0.450796 -0.722511 0.000000000000000e+00 1886740808
0.838013 -0.291367 -0.715272 0.000000000000000e+00 1886740808
0.835760 -0.338968 -0.735827 0.000000000000000e+00 1886740808
0.741525 -0.393271 -0.697942 0.000000000000000e+00 1886740808
0.785470 -0.469946 -0.766481 0.000000000000000e+00 1886740808
0.848114 -0.294502 -0.736456 0.000000000000000e+00 1886740808
0.804799 -0.326218 -0.721051 0.000000000000000e+00 1886740808
0.793333 -0.420968 -0.760318 0.000000000000000e+00 1886740808
0.751408 -0.450022 -0.746870 0.000000000000000e+00 1886740808
0.844583 -0.292894 -0.746073 0.000000000000000e+00 1886740808
0.801848 -0.324829 -0.731023 0.000000000000000e+00 1886740808
0.750241 -0.398315 -0.732090 0.000000000000000e+00 1886740808
0.753408 -0.451683 -0.762739 0.000000000000000e+00 1886740808
0.777243 -0.269185 -0.698423 0.000000000000000e+00 1886740808
0.770432 -0.311912 -0.714679 0.000000000000000e+00 1886740808
0.773858 -0.411076 -0.768828 0.000000000000000e+00 1886740808
0.759589 -0.455864 -0.783217 0.000000000000000e+00 1886740808
0.795752 -0.275226 -0.727346 0.000000000000000e+00 1886740808
0.795496 -0.321861 -0.750813 0.000000000000000e+00 1886740808
0.763880 -0.405999 -0.772643 0.000000000000000e+00 1886740808
0.759068 -0.456034 -0.797124 0.000000000000000e+00 1886740808
0.787674 -0.272062 -0.732308 0.000000000000000e+00 1886740808
0.735406 -0.297362 -0.706189 0.000000000000000e+00 1886740808
0.749046 -0.398336 -0.771318 0.000000000000000e+00 1886740808
0.769718 -0.462929 -0.823199 0.000000000000000e+00 1886740808
0.766774 -0.264476 -0.725071 0.000000000000000e+00 1886740808
0.736470 -0.297603 -0.719505 0.000000000000000e+00 1886740808
0.795041 -0.423036 -0.833438 0.000000000000000e+00 1886740808
2.130928 -1.283000 -2.320916 0.000000000000000e+00 1634890835
0.727262 -0.250495 -0.699449 0.000000000000000e+00 1886740808
0.742698 -0.299925 -0.738179 0.000000000000000e+00 1886740808
0.787784 -0.419417 -0.840698 0.000000000000000e+00 1886740808
2.084675 -1.256547 -2.312270 0.000000000000000e+00 1634890835
0.732601 -0.251974 -0.716594 0.000000000000000e+00 1886740808
0.748944 -0.302249 -0.757286 0.000000000000000e+00 1886740808
2.101810 -1.119659 -2.283324 0.000000000000000e+00 1634890835
2.023372 -1.220975 -2.285493 0.000000000000000e+00 1634890835
0.768556 -0.263956 -0.764559 0.000000000000000e+00 1886740808
0.791467 -0.319197 -0.814134 0.000000000000000e+00 1886740808
2.102319 -1.120598 -2.324925 0.000000000000000e+00 1634890835
0.804809 -0.486208 -0.925759 0.000000000000000e+00 1886740808
0.772839 -0.265035 -0.781891 0.000000000000000e+00 1886740808
0.734557 -0.296045 -0.768660 0.000000000000000e+00 1886740808
2.068527 -1.103253 -2.328654 0.000000000000000e+00 1634890835
0.806607 -0.487866 -0.944861 0.000000000000000e+00 1886740808
0.767539 -0.262822 -0.789722 0.000000000000000e+00 1886740808
0.792240 -0.319071 -0.843348 0.000000000000000e+00 1886740808
2.030653 -1.083720 -2.327087 0.000000000000000e+00 1634890835
0.788330 -0.477378 -0.940406 0.000000000000000e+00 1886740808
0.749299 -0.256184 -0.784046 0.000000000000000e+00 1886740808
2.079705 -0.837004 -2.252124 0.000000000000000e+00 1634890835
0.808889 -0.431960 -0.943630 0.000000000000000e+00 1886740808
0.788052 -0.477788 -0.957349 0.000000000000000e+00 1886740808
0.785609 -0.268180 -0.835995 0.000000000000000e+00 1886740808
2.062452 -0.829467 -2.272031 0.000000000000000e+00 1634890835
0.821758 -0.439112 -0.975880 0.000000000000000e+00 1886740808
0.763148 -0.463261 -0.944145 0.000000000000000e+00 1886740808
0.733720 -0.250069 -0.794034 0.000000000000000e+00 1886740808
2.058154 -0.827135 -2.306485 0.000000000000000e+00 1634890835
0.774632 -0.414199 -0.936473 0.000000000000000e+00 1886740808
1.860247 -1.130661 -2.343822 0.000000000000000e+00 1634890835
2.081110 -0.708146 -2.290435 0.000000000000000e+00 1634890835
2.015148 -0.809251 -2.297348 0.000000000000000e+00 1634890835
0.798854 -0.427434 -0.983159 0.000000000000000e+00 1886740808
1.791327 -1.090166 -2.298612 0.000000000000000e+00 1634890835
2.049519 -0.696248 -2.294002 0.000000000000000e+00 1634890835
2.005212 -0.804652 -2.325596 0.000000000000000e+00 1634890835
0.819523 -0.438789 -1.026801 0.000000000000000e+00 1886740808
0.752458 -0.458529 -0.983388 0.000000000000000e+00 1886740808
2.032443 -0.689287 -2.313588 0.000000000000000e+00 1634890835
1.976985 -0.792714 -2.332601 0.000000000000000e+00 1634890835
0.803188 -0.430339 -1.024531 0.000000000000000e+00 1886740808
1.738836 -1.061013 -2.314572 0.000000000000000e+00 1634890835
2.003048 -0.678155 -2.318963 0.000000000000000e+00 1634890835
0.799503 -0.320326 -0.959692 0.000000000000000e+00 1886740808
1.779077 -0.953880 -2.310486 0.000000000000000e+00 1634890835
1.695686 -1.036088 -2.299044 0.000000000000000e+00 1634890835
1.964144 -0.663823 -2.312713 0.000000000000000e+00 1634890835
0.786418 -0.314831 -0.960402 0.000000000000000e+00 1886740808
0.763351 -0.409576 -1.009375 0.000000000000000e+00 1886740808
1.662731 -1.017360 -2.296342 0.000000000000000e+00 1634890835
1.880253 -0.634339 -2.251770 0.000000000000000e+00 1634890835
0.784206 -0.313689 -0.974392 0.000000000000000e+00 1886740808
1.736636 -0.932469 -2.338181 0.000000000000000e+00 1634890835
1.645261 -1.008095 -2.314665 0.000000000000000e+00 1634890835
0.811421 -0.273250 -0.988391 0.000000000000000e+00 1886740808
0.811388 -0.324291 -1.025782 0.000000000000000e+00 1886740808
1.682251 -0.903943 -2.306357 0.000000000000000e+00 1634890835
1.600277 -0.981947 -2.293590 0.000000000000000e+00 1634890835
0.767577 -0.258005 -0.951037 0.000000000000000e+00 1886740808
0.762634 -0.304546 -0.981037 0.000000000000000e+00 1886740808
1.661684 -0.893571 -2.319945 0.000000000000000e+00 1634890835
1.600176 -0.983334 -2.336615 0.000000000000000e+00 1634890835
0.810757 -0.272002 -1.021829 0.000000000000000e+00 1886740808
0.811120 -0.323626 -1.061743 0.000000000000000e+00 1886740808
1.608902 -0.865861 -2.287612 0.000000000000000e+00 1634890835
1.517879 -0.934167 -2.258340 0.000000000000000e+00 1634890835
0.790676 -0.264750 -1.013726 0.000000000000000e+00 1886740808
1.739007 -0.693224 -2.316471 0.000000000000000e+00 1634890835
1.598295 -0.860836 -2.314547 0.000000000000000e+00 1634890835
1.520172 -0.937020 -2.304704 0.000000000000000e+00 1634890835
0.758836 -0.253585 -0.989758 0.000000000000000e+00 1886740808
1.687602 -0.672121 -2.287778 0.000000000000000e+00 1634890835
1.585714 -0.854754 -2.338973 0.000000000000000e+00 1634890835
1.473686 -0.909797 -2.276867 0.000000000000000e+00 1634890835
0.798716 -0.266371 -1.059887 0.000000000000000e+00 1886740808
0.776192 -0.308847 -1.070931 0.000000000000000e+00 1886740808
1.541348 -0.831530 -2.315960 0.000000000000000e+00 1634890835
1.463309 -0.904846 -2.304212 0.000000000000000e+00 1634890835
1.691735 -0.563019 -2.284096 0.000000000000000e+00 1634890835
1.646350 -0.654460 -2.312047 0.000000000000000e+00 1634890835
1.512820 -0.816833 -2.315737 0.000000000000000e+00 1634890835
1.415678 -0.876838 -2.272225 0.000000000000000e+00 1634890835
0.760437 -0.252540 -1.044701 0.000000000000000e+00 1886740808
1.603650 -0.636866 -2.292455 0.000000000000000e+00 1634890835
1.469709 -0.794249 -2.292182 0.000000000000000e+00 1634890835
1.416100 -0.878583 -2.317028 0.000000000000000e+00 1634890835
1.622118 -0.537531 -2.267732 0.000000000000000e+00 1634890835
1.539064 -0.610606 -2.239764 0.000000000000000e+00 1634890835
1.445865 -0.782059 -2.297778 0.000000000000000e+00 1634890835
1.343434 -0.834941 -2.241076 0.000000000000000e+00 1634890835
1.630430 -0.539082 -2.319686 0.000000000000000e+00 1634890835
1.561006 -0.618681 -2.312841 0.000000000000000e+00 1634890835
1.447500 -0.783659 -2.344295 0.000000000000000e+00 1634890835
1.338506 -0.833353 -2.276775 0.000000000000000e+00 1634890835
1.567534 -0.517102 -2.269868 0.000000000000000e+00 1634890835
1.510912 -0.598201 -2.279393 0.000000000000000e+00 1634890835
1.382037 -0.748918 -2.281289 0.000000000000000e+00 1634890835
1.333575 -0.831793 -2.313329 0.000000000000000e+00 1634890835
1.558847 -0.513029 -2.297656 0.000000000000000e+00 1634890835
1.498653 -0.592710 -2.302321 0.000000000000000e+00 1634890835
1.371738 -0.744051 -2.308107 0.000000000000000e+00 1634890835
1.279820 -0.799753 -2.264395 0.000000000000000e+00 1634890835
1.515582 -0.497591 -2.274070 0.000000000000000e+00 1634890835
1.476882 -0.583457 -2.310704 0.000000000000000e+00 1634890835
1.333622 -0.724089 -2.287714 0.000000000000000e+00 1634890835
1.277765 -0.799997 -2.306244 0.000000000000000e+00 1634890835
1.471309 -0.481861 -2.247595 0.000000000000000e+00 1634890835
1.403529 -0.553853 -2.236691 0.000000000000000e+00 1634890835
1.312820 -0.713515 -2.296269 0.000000000000000e+00 1634890835
1.267273 -0.794988 -2.333708 0.000000000000000e+00 1634890835
1.481878 -0.484092 -2.304980 0.000000000000000e+00 1634890835
1.412892 -0.556902 -2.293692 0.000000000000000e+00 1634890835
1.303252 -0.709050 -2.324674 0.000000000000000e+00 1634890835
1.213025 -0.762495 -2.279525 0.000000000000000e+00 1634890835
1.455528 -0.474244 -2.305515 0.000000000000000e+00 1634890835
1.380489 -0.543483 -2.283279 0.000000000000000e+00 1634890835
1.268378 -0.690812 -2.307650 0.000000000000000e+00 1634890835
1.199998 -0.755869 -2.301612 0.000000000000000e+00 1634890835
1.400614 -0.455129 -2.259516 0.000000000000000e+00 1634890835
1.367046 -0.537531 -2.303938 0.000000000000000e+00 1634890835
1.252394 -0.682854 -2.324479 0.000000000000000e+00 1634890835
1.169070 -0.737960 -2.289043 0.000000000000000e+00 1634890835
1.403948 -0.454955 -2.307049 0.000000000000000e+00 1634890835
1.370137 -0.538069 -2.353304 0.000000000000000e+00 1634890835
1.238568 -0.676078 -2.345564 0.000000000000000e+00 1634890835
1.151025 -0.728166 -2.301170 0.000000000000000e+00 1634890835
1.370132 -0.442737 -2.293712 0.000000000000000e+00 1634890835
1.310483 -0.513975 -2.294249 0.000000000000000e+00 1634890835
1.184686 -0.647417 -2.289589 0.000000000000000e+00 1634890835
1.145007 -0.725997 -2.337846 0.000000000000000e+00 1634890835
1.335663 -0.430336 -2.278297 0.000000000000000e+00 1634890835
1.321725 -0.517693 -2.358944 0.000000000000000e+00 1634890835
1.185867 -0.648838 -2.339405 0.000000000000000e+00 1634890835
1.102837 -0.700886 -2.300177 0.000000000000000e+00 1634890835
1.308783 -0.420405 -2.275031 0.000000000000000e+00 1634890835
1.283192 -0.501910 -2.335134 0.000000000000000e+00 1634890835
1.122122 -0.614715 -2.260045 0.000000000000000e+00 1634890835
1.088355 -0.693344 -2.319349 0.000000000000000e+00 1634890835
1.282826 -0.410787 -2.272826 0.000000000000000e+00 1634890835
1.249018 -0.487852 -2.317994 0.000000000000000e+00 1634890835
1.144251 -0.627633 -2.353443 0.000000000000000e+00 1634890835
1.036443 -0.661908 -2.257332 0.000000000000000e+00 1634890835
1.247372 -0.398153 -2.252944 0.000000000000000e+00 1634890835
1.229369 -0.479476 -2.327197 0.000000000000000e+00 1634890835
1.100628 -0.604496 -2.312231 0.000000000000000e+00 1634890835
1.031698 -0.660561 -2.297060 0.000000000000000e+00 1634890835
1.249996 -0.397671 -2.301967 0.000000000000000e+00 1634890835
1.187262 -0.462357 -2.292945 0.000000000000000e+00 1634890835
1.078716 -0.593263 -2.315339 0.000000000000000e+00 1634890835
0.995008 -0.638752 -2.265357 0.000000000000000e+00 1634890835
1.215357 -0.385328 -2.282522 0.000000000000000e+00 1634890835
1.166355 -0.453509 -2.298617 0.000000000000000e+00 1634890835
1.068473 -0.588450 -2.343695 0.000000000000000e+00 1634890835
0.981926 -0.632073 -2.286683 0.000000000000000e+00 1634890835
1.188290 -0.375414 -2.276370 0.000000000000000e+00 1634890835
1.129499 -0.438472 -2.271999 0.000000000000000e+00 1634890835
1.032699 -0.569568 -2.315586 0.000000000000000e+00 1634890835
0.936129 -0.604294 -2.230561 0.000000000000000e+00 1634890835
1.171344 -0.368706 -2.289328 0.000000000000000e+00 1634890835
1.127610 -0.437011 -2.315634 0.000000000000000e+00 1634890835
1.013128 -0.559608 -2.322884 0.000000000000000e+00 1634890835
0.951777 -0.616189 -2.321163 0.000000000000000e+00 1634890835
1.148450 -0.360129 -2.290529 0.000000000000000e+00 1634890835
1.084178 -0.419455 -2.273569 0.000000000000000e+00 1634890835
1.000047 -0.553236 -2.345261 0.000000000000000e+00 1634890835
0.935928 -0.607760 -2.336967 0.000000000000000e+00 1634890835
1.119245 -0.349593 -2.278515 0.000000000000000e+00 1634890835
1.090862 -0.421289 -2.336610 0.000000000000000e+00 1634890835
0.976423 -0.541032 -2.342909 0.000000000000000e+00 1634890835
0.919139 -0.598729 -2.350645 0.000000000000000e+00 1634890835
1.069161 -0.332589 -2.222188 0.000000000000000e+00 1634890835
1.045453 -0.403006 -2.287962 0.000000000000000e+00 1634890835
0.937485 -0.520319 -2.302370 0.000000000000000e+00 1634890835
0.864677 -0.565084 -2.265794 0.000000000000000e+00 1634890835
1.100377 -0.340853 -2.335624 0.000000000000000e+00 1634890835
1.030504 -0.396482 -2.304867 0.000000000000000e+00 1634890835
0.919449 -0.511188 -2.311986 0.000000000000000e+00 1634890835
0.856508 -0.561635 -2.300547 0.000000000000000e+00 1634890835
1.072571 -0.330780 -2.325571 0.000000000000000e+00 1634890835
1.005753 -0.386190 -2.299696 0.000000000000000e+00 1634890835
0.898169 -0.500249 -2.313259 0.000000000000000e+00 1634890835
0.837950 -0.551395 -2.307989 0.000000000000000e+00 1634890835
1.040080 -0.319294 -2.304288 0.000000000000000e+00 1634890835
0.965448 -0.369946 -2.257499 0.000000000000000e+00 1634890835
0.877974 -0.489910 -2.317006 0.000000000000000e+00 1634890835
0.455126 -0.300578 -1.286041 0.000000000000000e+00 1936876886
1.009537 -0.308444 -2.286071 0.000000000000000e+00 1634890835
0.965176 -0.369047 -2.308709 0.000000000000000e+00 1634890835
0.862294 -0.482092 -2.332707 0.000000000000000e+00 1634890835
0.441431 -0.292642 -1.280258 0.000000000000000e+00 1936876886
0.995292 -0.302585 -2.304368 0.000000000000000e+00 1634890835
0.943696 -0.360026 -2.309993 0.000000000000000e+00 1634890835
0.854813 -0.478872 -2.371505 0.000000000000000e+00 1634890835
0.439256 -0.292353 -1.308212 0.000000000000000e+00 1936876886
0.953652 -0.288427 -2.258237 0.000000000000000e+00 1634890835
0.928203 -0.353288 -2.325929 0.000000000000000e+00 1634890835
0.470096 -0.263904 -1.338098 0.000000000000000e+00 1936876886
0.346186 -0.231361 -1.059310 0.000000000000000e+00 1953264973
0.952741 -0.286597 -2.308254 0.000000000000000e+00 1634890835
0.896653 -0.340449 -2.301020 0.000000000000000e+00 1634890835
0.446116 -0.250990 -1.303490 0.000000000000000e+00 1936876886
0.311551 -0.209113 -0.980022 0.000000000000000e+00 1953264973
0.497074 -0.148683 -1.232587 0.000000000000000e+00 1936876886
0.884009 -0.334796 -2.324191 0.000000000000000e+00 1634890835
0.388168 -0.218888 -1.164827 0.000000000000000e+00 1953264973
0.287116 -0.193582 -0.928989 0.000000000000000e+00 1953264973
0.509742 -0.151571 -1.294201 0.000000000000000e+00 1936876886
0.844291 -0.318903 -2.275157 0.000000000000000e+00 1634890835
0.342222 -0.193441 -1.055277 0.000000000000000e+00 1953264973
0.267442 -0.181169 -0.890632 0.000000000000000e+00 1953264973
0.469206 -0.138655 -1.220243 0.000000000000000e+00 1936876886
0.839149 -0.316079 -2.318779 0.000000000000000e+00 1634890835
0.311563 -0.176552 -0.987803 0.000000000000000e+00 1953264973
0.246001 -0.167469 -0.843736 0.000000000000000e+00 1953264973
