# .PCD v0.7 - Point Cloud Data file format
VERSION 0.7
FIELDS x y z rgb label
SIZE 4 4 4 4 4
TYPE F F F F U
COUNT 1 1 1 1 1
WIDTH 543
HEIGHT 1
VIEWPOINT 0 0 0 1 0 0 0
POINTS 543
DATA ascii
45.228863 -17.217693 10.013173 0.000000000000000e+00 1954047316
44.298401 -18.726992 9.862261 0.000000000000000e+00 1954047316
42.367100 -21.666439 10.054352 0.000000000000000e+00 1954047316
35.318165 -13.140692 -1.923301 0.000000000000000e+00 1851878480
33.515583 -14.024318 -1.729686 0.000000000000000e+00 1851878480
30.771324 -15.874503 -1.357151 0.000000000000000e+00 1851878480
30.010948 -17.029118 -1.180725 0.000000000000000e+00 1851878480
31.329931 -11.647980 -1.990523 0.000000000000000e+00 1851878480
30.446470 -12.735608 -1.856086 0.000000000000000e+00 1851878480
28.922234 -14.925184 -1.563979 0.000000000000000e+00 1851878480
28.186661 -16.003395 -1.399737 0.000000000000000e+00 1851878480
29.012548 -10.778234 -2.106858 0.000000000000000e+00 1851878480
28.529787 -11.929711 -2.006328 0.000000000000000e+00 1851878480
27.443762 -14.166619 -1.757952 0.000000000000000e+00 1851878480
26.310604 -14.947051 -1.578307 0.000000000000000e+00 1851878480
26.940928 -10.001017 -2.201387 0.000000000000000e+00 1851878480
26.604509 -11.120744 -2.120242 0.000000000000000e+00 1851878480
25.825697 -13.335494 -1.912379 0.000000000000000e+00 1851878480
24.729904 -14.057336 -1.739226 0.000000000000000e+00 1851878480
24.518324 -9.094781 -2.226611 0.000000000000000e+00 1851878480
24.675844 -10.310935 -2.198037 0.000000000000000e+00 1851878480
23.889341 -12.339444 -2.008038 0.000000000000000e+00 1851878480
23.162964 -13.174429 -1.868915 0.000000000000000e+00 1851878480
22.294872 -8.263719 -2.227870 0.000000000000000e+00 1851878480
22.516598 -9.405383 -2.217208 0.000000000000000e+00 1851878480
21.898342 -11.314564 -2.060127 0.000000000000000e+00 1851878480
21.466099 -12.216525 -1.954671 0.000000000000000e+00 1851878480
20.465643 -7.579923 -2.231833 0.000000000000000e+00 1851878480
20.529247 -8.572223 -2.214627 0.000000000000000e+00 1851878480
20.389389 -10.538174 -2.122824 0.000000000000000e+00 1851878480
19.900341 -11.332163 -2.018883 0.000000000000000e+00 1851878480
18.936440 -7.008189 -2.238129 0.000000000000000e+00 1851878480
18.971338 -7.918906 -2.225306 0.000000000000000e+00 1851878480
19.138330 -9.894656 -2.185017 0.000000000000000e+00 1851878480
18.727993 -10.670901 -2.094933 0.000000000000000e+00 1851878480
17.571987 -6.498235 -2.237715 0.000000000000000e+00 1851878480
17.670601 -7.373353 -2.239507 0.000000000000000e+00 1851878480
17.655891 -9.131071 -2.193654 0.000000000000000e+00 1851878480
17.788673 -10.141726 -2.175451 0.000000000000000e+00 1851878480
16.445944 -6.077153 -2.245134 0.000000000000000e+00 1851878480
16.410351 -6.845072 -2.234963 0.000000000000000e+00 1851878480
16.513725 -8.543053 -2.218479 0.000000000000000e+00 1851878480
16.490492 -9.407213 -2.189129 0.000000000000000e+00 1851878480
15.394557 -5.684273 -2.243047 0.000000000000000e+00 1851878480
15.429140 -6.433501 -2.247519 0.000000000000000e+00 1851878480
15.478974 -8.010251 -2.236107 0.000000000000000e+00 1851878480
15.352239 -8.763118 -2.198943 0.000000000000000e+00 1851878480
14.474681 -5.340492 -2.242285 0.000000000000000e+00 1851878480
14.440919 -6.019299 -2.240692 0.000000000000000e+00 1851878480
14.531492 -7.522299 -2.246639 0.000000000000000e+00 1851878480
14.449344 -8.252684 -2.221464 0.000000000000000e+00 1851878480
13.633768 -5.026351 -2.237825 0.000000000000000e+00 1851878480
13.642290 -5.684391 -2.246620 0.000000000000000e+00 1851878480
13.649937 -7.068186 -2.249169 0.000000000000000e+00 1851878480
13.596827 -7.770438 -2.233673 0.000000000000000e+00 1851878480
12.956870 -4.773099 -2.246564 0.000000000000000e+00 1851878480
12.838976 -5.347753 -2.236833 0.000000000000000e+00 1851878480
12.846426 -6.654214 -2.247781 0.000000000000000e+00 1851878480
12.889457 -7.370620 -2.253686 0.000000000000000e+00 1851878480
12.243358 -4.506745 -2.236383 0.000000000000000e+00 1851878480
12.195520 -5.077924 -2.241403 0.000000000000000e+00 1851878480
12.139299 -6.289929 -2.248215 0.000000000000000e+00 1851878480
12.093231 -6.919497 -2.242665 0.000000000000000e+00 1851878480
11.645008 -4.283154 -2.235360 0.000000000000000e+00 1851878480
11.568265 -4.815016 -2.237100 0.000000000000000e+00 1851878480
11.462505 -5.941135 -2.240468 0.000000000000000e+00 1851878480
11.417985 -6.537086 -2.238869 0.000000000000000e+00 1851878480
11.149336 -4.097632 -2.244168 0.000000000000000e+00 1851878480
11.075011 -4.608045 -2.248274 0.000000000000000e+00 1851878480
10.944991 -5.674705 -2.251965 0.000000000000000e+00 1851878480
10.862168 -6.222648 -2.245792 0.000000000000000e+00 1851878480
10.651822 -3.911713 -2.243640 0.000000000000000e+00 1851878480
10.522588 -4.376611 -2.237688 0.000000000000000e+00 1851878480
10.410940 -5.399536 -2.249598 0.000000000000000e+00 1851878480
10.358213 -5.937564 -2.252522 0.000000000000000e+00 1851878480
10.197529 -3.741935 -2.243616 0.000000000000000e+00 1851878480
10.095391 -4.197402 -2.244599 0.000000000000000e+00 1851878480
9.936100 -5.154924 -2.249976 0.000000000000000e+00 1851878480
9.813576 -5.628810 -2.239570 0.000000000000000e+00 1851878480
9.744656 -3.572929 -2.235692 0.000000000000000e+00 1851878480
9.680873 -4.023592 -2.246495 0.000000000000000e+00 1851878480
9.467392 -4.913333 -2.242323 0.000000000000000e+00 1851878480
9.397791 -5.393640 -2.246090 0.000000000000000e+00 1851878480
9.402220 -3.444640 -2.245924 0.000000000000000e+00 1851878480
9.306464 -3.866565 -2.250357 0.000000000000000e+00 1851878480
9.108113 -4.728405 -2.252345 0.000000000000000e+00 1851878480
9.023490 -5.182014 -2.254396 0.000000000000000e+00 1851878480
9.042804 -3.310323 -2.245778 0.000000000000000e+00 1851878480
8.903105 -3.697621 -2.239957 0.000000000000000e+00 1851878480
8.754244 -4.546168 -2.256625 0.000000000000000e+00 1851878480
8.632260 -4.960405 -2.250573 0.000000000000000e+00 1851878480
8.735578 -3.195304 -2.252585 0.000000000000000e+00 1851878480
8.580146 -3.562178 -2.243003 0.000000000000000e+00 1851878480
8.421206 -4.374643 -2.259445 0.000000000000000e+00 1851878480
8.246537 -4.741704 -2.240128 0.000000000000000e+00 1851878480
8.362411 -3.056354 -2.236226 0.000000000000000e+00 1851878480
8.256315 -3.426466 -2.239795 0.000000000000000e+00 1851878480
8.095889 -4.207026 -2.257778 0.000000000000000e+00 1851878480
7.961509 -4.580678 -2.250103 0.000000000000000e+00 1851878480
8.094569 -2.956074 -2.242224 0.000000000000000e+00 1851878480
7.983769 -3.312127 -2.244949 0.000000000000000e+00 1851878480
7.757789 -4.032653 -2.245904 0.000000000000000e+00 1851878480
7.673951 -4.417999 -2.253478 0.000000000000000e+00 1851878480
7.822701 -2.854471 -2.242245 0.000000000000000e+00 1851878480
7.705578 -3.195524 -2.243390 0.000000000000000e+00 1851878480
7.539894 -3.920683 -2.263299 0.000000000000000e+00 1851878480
7.371000 -4.246260 -2.246217 0.000000000000000e+00 1851878480
7.600543 -2.771152 -2.252077 0.000000000000000e+00 1851878480
7.438537 -3.083623 -2.239987 0.000000000000000e+00 1851878480
7.232960 -3.762328 -2.248741 0.000000000000000e+00 1851878480
7.125673 -4.107539 -2.250841 0.000000000000000e+00 1851878480
7.304578 -2.661065 -2.235347 0.000000000000000e+00 1851878480
7.208500 -2.987137 -2.243096 0.000000000000000e+00 1851878480
7.066890 -3.677167 -2.273286 0.000000000000000e+00 1851878480
6.850349 -3.951340 -2.240589 0.000000000000000e+00 1851878480
7.011488 -2.552197 -2.214096 0.000000000000000e+00 1851878480
6.993556 -2.896968 -2.246776 0.000000000000000e+00 1851878480
6.774827 -3.526377 -2.252746 0.000000000000000e+00 1851878480
6.596514 -3.807363 -2.231843 0.000000000000000e+00 1851878480
6.888989 -2.505533 -2.242980 0.000000000000000e+00 1851878480
6.762390 -2.800143 -2.241081 0.000000000000000e+00 1851878480
6.576146 -3.424112 -2.258322 0.000000000000000e+00 1851878480
6.448881 -3.724549 -2.254914 0.000000000000000e+00 1851878480
6.636747 -2.411787 -2.226270 0.000000000000000e+00 1851878480
6.587486 -2.726676 -2.250260 0.000000000000000e+00 1851878480
6.319471 -3.291584 -2.239404 0.000000000000000e+00 1851878480
6.234089 -3.602825 -2.250806 0.000000000000000e+00 1851878480
6.476533 -2.351600 -2.236695 0.000000000000000e+00 1851878480
6.359816 -2.631425 -2.237656 0.000000000000000e+00 1851878480
6.213375 -3.237422 -2.270261 0.000000000000000e+00 1851878480
6.026817 -3.485307 -2.245016 0.000000000000000e+00 1851878480
6.350319 -2.303837 -2.256359 0.000000000000000e+00 1851878480
6.211314 -2.568988 -2.249403 0.000000000000000e+00 1851878480
5.996563 -3.125525 -2.257498 0.000000000000000e+00 1851878480
5.786967 -3.348793 -2.222374 0.000000000000000e+00 1851878480
6.126593 -2.220793 -2.238225 0.000000000000000e+00 1851878480
6.045995 -2.499635 -2.252179 0.000000000000000e+00 1851878480
5.838864 -3.044377 -2.263232 0.000000000000000e+00 1851878480
5.681854 -3.290133 -2.247916 0.000000000000000e+00 1851878480
5.975640 -2.164234 -2.243260 0.000000000000000e+00 1851878480
5.908856 -2.441982 -2.262673 0.000000000000000e+00 1851878480
5.690526 -2.968063 -2.269578 0.000000000000000e+00 1851878480
5.527977 -3.203147 -2.251574 0.000000000000000e+00 1851878480
5.832534 -2.110599 -2.248621 0.000000000000000e+00 1851878480
5.700986 -2.355147 -2.242844 0.000000000000000e+00 1851878480
5.503779 -2.871660 -2.257242 0.000000000000000e+00 1851878480
5.395671 -3.128571 -2.261099 0.000000000000000e+00 1851878480
5.658175 -2.045742 -2.239059 0.000000000000000e+00 1851878480
5.581362 -2.304814 -2.254659 0.000000000000000e+00 1851878480
5.330686 -2.782323 -2.246841 0.000000000000000e+00 1851878480
5.186335 -3.009210 -2.234746 0.000000000000000e+00 1851878480
5.497431 -1.985902 -2.231813 0.000000000000000e+00 1851878480
5.393196 -2.226220 -2.235898 0.000000000000000e+00 1851878480
5.205647 -2.718020 -2.253706 0.000000000000000e+00 1851878480
5.070837 -2.944188 -2.245407 0.000000000000000e+00 1851878480
5.380778 -1.942068 -2.239972 0.000000000000000e+00 1851878480
5.279585 -2.178451 -2.245209 0.000000000000000e+00 1851878480
5.072912 -2.649658 -2.254697 0.000000000000000e+00 1851878480
4.977864 -2.892174 -2.263987 0.000000000000000e+00 1851878480
5.224400 -1.883970 -2.229124 0.000000000000000e+00 1851878480
5.188113 -2.139841 -2.262111 0.000000000000000e+00 1851878480
4.906514 -2.563664 -2.237681 0.000000000000000e+00 1851878480
4.832119 -2.809421 -2.256131 0.000000000000000e+00 1851878480
5.150962 -1.855846 -2.251633 0.000000000000000e+00 1851878480
5.027482 -2.072744 -2.246518 0.000000000000000e+00 1851878480
4.850823 -2.535481 -2.268989 0.000000000000000e+00 1851878480
4.680016 -2.722864 -2.242133 0.000000000000000e+00 1851878480
5.000697 -1.800103 -2.238576 0.000000000000000e+00 1851878480
4.939920 -2.035808 -2.261263 0.000000000000000e+00 1851878480
4.691205 -2.452937 -2.249580 0.000000000000000e+00 1851878480
4.567114 -2.659028 -2.244123 0.000000000000000e+00 1851878480
4.900388 -1.762414 -2.245604 0.000000000000000e+00 1851878480
4.797168 -1.976162 -2.248610 0.000000000000000e+00 1851878480
4.562077 -2.386294 -2.241805 0.000000000000000e+00 1851878480
4.440027 -2.586848 -2.236630 0.000000000000000e+00 1851878480
4.794170 -1.722651 -2.248100 0.000000000000000e+00 1851878480
4.659684 -1.918727 -2.235727 0.000000000000000e+00 1851878480
4.468654 -2.338289 -2.249354 0.000000000000000e+00 1851878480
4.377347 -2.552132 -2.259678 0.000000000000000e+00 1851878480
4.666633 -1.675297 -2.238468 0.000000000000000e+00 1851878480
4.561080 -1.877335 -2.239265 0.000000000000000e+00 1851878480
4.384616 -2.295170 -2.259927 0.000000000000000e+00 1851878480
4.294702 -2.505732 -2.271054 0.000000000000000e+00 1851878480
4.575204 -1.640965 -2.244170 0.000000000000000e+00 1851878480
4.484759 -1.845141 -2.252179 0.000000000000000e+00 1851878480
4.238107 -2.219310 -2.235942 0.000000000000000e+00 1851878480
4.165499 -2.432095 -2.255593 0.000000000000000e+00 1851878480
4.436697 -1.589817 -2.224659 0.000000000000000e+00 1851878480
4.364561 -1.794922 -2.241239 0.000000000000000e+00 1851878480
4.215819 -2.208472 -2.275875 0.000000000000000e+00 1851878480
4.104718 -2.398344 -2.275229 0.000000000000000e+00 1851878480
4.401217 -1.575629 -2.255286 0.000000000000000e+00 1851878480
4.314368 -1.773516 -2.264715 0.000000000000000e+00 1851878480
4.100181 -2.148713 -2.264159 0.000000000000000e+00 1851878480
3.954022 -2.311980 -2.242772 0.000000000000000e+00 1851878480
4.266813 -1.526077 -2.233730 0.000000000000000e+00 1851878480
4.233558 -1.739543 -2.271023 0.000000000000000e+00 1851878480
4.018209 -2.106567 -2.269029 0.000000000000000e+00 1851878480
3.902940 -2.283796 -2.264673 0.000000000000000e+00 1851878480
4.203063 -1.501846 -2.247346 0.000000000000000e+00 1851878480
4.151071 -1.704903 -2.274956 0.000000000000000e+00 1851878480
3.901773 -2.046319 -2.252401 0.000000000000000e+00 1851878480
3.798197 -2.224158 -2.253870 0.000000000000000e+00 1851878480
4.090813 -1.460337 -2.233447 0.000000000000000e+00 1851878480
4.031754 -1.655168 -2.256767 0.000000000000000e+00 1851878480
3.826011 -2.007371 -2.257279 0.000000000000000e+00 1851878480
3.689897 -2.162363 -2.238619 0.000000000000000e+00 1851878480
4.039388 -1.440585 -2.251301 0.000000000000000e+00 1851878480
3.924138 -1.610271 -2.242877 0.000000000000000e+00 1851878480
3.764158 -1.975700 -2.269067 0.000000000000000e+00 1851878480
3.687953 -2.162862 -2.286907 0.000000000000000e+00 1851878480
4.026572 -1.434614 -2.290344 0.000000000000000e+00 1634890835
3.882366 -1.592413 -2.265270 0.000000000000000e+00 1851878480
3.714027 -1.950165 -2.286943 0.000000000000000e+00 1851878480
3.559624 -2.089199 -2.255554 0.000000000000000e+00 1851878480
3.950018 -1.405951 -2.292514 0.000000000000000e+00 1634890835
3.768445 -1.544986 -2.244126 0.000000000000000e+00 1851878480
3.600160 -1.891135 -2.263910 0.000000000000000e+00 1851878480
3.503291 -2.057724 -2.267805 0.000000000000000e+00 1851878480
3.847132 -1.367969 -2.277729 0.000000000000000e+00 1634890835
3.735917 -1.530948 -2.270112 0.000000000000000e+00 1851878480
3.502148 -1.840399 -2.248535 0.000000000000000e+00 1851878480
3.366916 -1.979165 -2.226084 0.000000000000000e+00 1851878480
3.835628 -1.362509 -2.316130 0.000000000000000e+00 1634890835
3.645190 -1.493080 -2.259663 0.000000000000000e+00 1851878480
3.466760 -1.822552 -2.272077 0.000000000000000e+00 1851878480
3.353170 -1.972639 -2.263858 0.000000000000000e+00 1851878480
3.719799 -1.320023 -2.290452 0.000000000000000e+00 1634890835
3.580137 -1.465749 -2.263650 0.000000000000000e+00 1851878480
3.403263 -1.789913 -2.276352 0.000000000000000e+00 1851878480
3.277063 -1.929404 -2.258770 0.000000000000000e+00 1851878480
3.582411 -1.269967 -2.248900 0.000000000000000e+00 1634890835
3.510935 -1.436736 -2.263788 0.000000000000000e+00 1851878480
3.300260 -1.736467 -2.252434 0.000000000000000e+00 1851878480
3.233845 -1.905490 -2.275174 0.000000000000000e+00 1851878480
3.566492 -1.263013 -2.282184 0.000000000000000e+00 1634890835
3.462394 -1.416197 -2.276217 0.000000000000000e+00 1634890835
3.244005 -1.707592 -2.258733 0.000000000000000e+00 1851878480
3.140505 -1.851998 -2.254870 0.000000000000000e+00 1851878480
3.530257 -1.248871 -2.302266 0.000000000000000e+00 1634890835
3.416770 -1.396861 -2.289823 0.000000000000000e+00 1634890835
3.221659 -1.696555 -2.288052 0.000000000000000e+00 1851878480
3.100358 -1.829827 -2.271345 0.000000000000000e+00 1851878480
3.444685 -1.217310 -2.289117 0.000000000000000e+00 1634890835
3.376950 -1.379909 -2.306687 0.000000000000000e+00 1634890835
3.097629 -1.631946 -2.243604 0.000000000000000e+00 1851878480
2.990246 -1.766308 -2.234883 0.000000000000000e+00 1851878480
3.383250 -1.194321 -2.290627 0.000000000000000e+00 1634890835
3.238456 -1.322666 -2.254303 0.000000000000000e+00 1634890835
3.078225 -1.622435 -2.273419 0.000000000000000e+00 1851878480
2.967131 -1.754129 -2.261996 0.000000000000000e+00 1851878480
3.341492 -1.178301 -2.304616 0.000000000000000e+00 1634890835
3.217312 -1.313374 -2.281989 0.000000000000000e+00 1634890835
3.036305 -1.601048 -2.286240 0.000000000000000e+00 1851878480
2.902621 -1.717453 -2.256773 0.000000000000000e+00 1851878480
3.257008 -1.147252 -2.287989 0.000000000000000e+00 1634890835
3.206048 -1.308116 -2.316730 0.000000000000000e+00 1634890835
2.961194 -1.562143 -2.272896 0.000000000000000e+00 1851878480
2.820714 -1.670427 -2.236339 0.000000000000000e+00 1851878480
3.195484 -1.124334 -2.286080 0.000000000000000e+00 1634890835
3.128188 -1.275697 -2.302639 0.000000000000000e+00 1634890835
2.919337 -1.540759 -2.283890 0.000000000000000e+00 1851878480
2.784082 -1.650173 -2.250524 0.000000000000000e+00 1851878480
3.191615 -1.121712 -2.325039 0.000000000000000e+00 1634890835
3.062599 -1.248306 -2.296129 0.000000000000000e+00 1634890835
2.862115 -1.511255 -2.281928 0.000000000000000e+00 1851878480
2.723757 -1.615842 -2.244598 0.000000000000000e+00 1851878480
3.031171 -1.064114 -2.248246 0.000000000000000e+00 1634890835
3.013132 -1.227500 -2.300626 0.000000000000000e+00 1634890835
2.767508 -1.461978 -2.248415 0.000000000000000e+00 1851878480
0.868168 -0.515493 -0.729276 0.000000000000000e+00 1886740808
3.091878 -1.084177 -2.334646 0.000000000000000e+00 1634890835
2.976349 -1.211874 -2.314116 0.000000000000000e+00 1634890835
2.679731 -1.416277 -2.218217 0.000000000000000e+00 1851878480
0.847812 -0.503862 -0.725868 0.000000000000000e+00 1886740808
2.992182 -1.047997 -2.299885 0.000000000000000e+00 1634890835
2.892018 -1.176908 -2.289446 0.000000000000000e+00 1634890835
0.871201 -0.460662 -0.734702 0.000000000000000e+00 1886740808
0.838888 -0.499016 -0.731961 0.000000000000000e+00 1886740808
2.903925 -1.015886 -2.271850 0.000000000000000e+00 1634890835
2.849524 -1.158982 -2.296607 0.000000000000000e+00 1634890835
0.856978 -0.453360 -0.736208 0.000000000000000e+00 1886740808
0.802187 -0.477628 -0.713253 0.000000000000000e+00 1886740808
2.855185 -0.997641 -2.273339 0.000000000000000e+00 1634890835
2.791217 -1.134644 -2.290094 0.000000000000000e+00 1634890835
0.888321 -0.470171 -0.777320 0.000000000000000e+00 1886740808
0.798325 -0.475776 -0.723257 0.000000000000000e+00 1886740808
2.843634 -0.992402 -2.304102 0.000000000000000e+00 1634890835
2.762754 -1.122448 -2.307331 0.000000000000000e+00 1634890835
0.845481 -0.447719 -0.753524 0.000000000000000e+00 1886740808
0.797182 -0.475550 -0.735836 0.000000000000000e+00 1886740808
2.752798 -0.959520 -2.269683 0.000000000000000e+00 1634890835
0.832334 -0.337969 -0.707520 0.000000000000000e+00 1886740808
0.745040 -0.394730 -0.676243 0.000000000000000e+00 1886740808
0.735586 -0.439231 -0.691728 0.000000000000000e+00 1886740808
0.840512 -0.292605 -0.705123 0.000000000000000e+00 1886740808
0.813869 -0.330281 -0.704104 0.000000000000000e+00 1886740808
0.778616 -0.412729 -0.719690 0.000000000000000e+00 1886740808
0.743030 -0.444111 -0.711798 0.000000000000000e+00 1886740808
0.811417 -0.282120 -0.692572 0.000000000000000e+00 1886740808
0.822127 -0.333439 -0.723824 0.000000000000000e+00 1886740808
0.783085 -0.415312 -0.737059 0.000000000000000e+00 1886740808
0.723455 -0.432842 -0.705965 0.000000000000000e+00 1886740808
0.852121 -0.295893 -0.739936 0.000000000000000e+00 1886740808
0.799200 -0.323949 -0.716035 0.000000000000000e+00 1886740808
0.770079 -0.408629 -0.738032 0.000000000000000e+00 1886740808
0.765750 -0.458611 -0.761126 0.000000000000000e+00 1886740808
0.834500 -0.289397 -0.737166 0.000000000000000e+00 1886740808
0.794431 -0.321824 -0.724261 0.000000000000000e+00 1886740808
0.772581 -0.410176 -0.753890 0.000000000000000e+00 1886740808
0.760991 -0.456229 -0.770416 0.000000000000000e+00 1886740808
0.809609 -0.280395 -0.727507 0.000000000000000e+00 1886740808
0.743325 -0.300938 -0.689533 0.000000000000000e+00 1886740808
0.818021 -0.434536 -0.812704 0.000000000000000e+00 1886740808
0.762967 -0.457891 -0.786700 0.000000000000000e+00 1886740808
0.793818 -0.274557 -0.725579 0.000000000000000e+00 1886740808
0.799927 -0.323654 -0.754996 0.000000000000000e+00 1886740808
0.797265 -0.423742 -0.806411 0.000000000000000e+00 1886740808
0.730047 -0.438598 -0.766648 0.000000000000000e+00 1886740808
0.774383 -0.267471 -0.719950 0.000000000000000e+00 1886740808
0.786025 -0.317830 -0.754797 0.000000000000000e+00 1886740808
0.785930 -0.417951 -0.809299 0.000000000000000e+00 1886740808
0.779722 -0.468946 -0.833897 0.000000000000000e+00 1886740808
0.755441 -0.260567 -0.714354 0.000000000000000e+00 1886740808
0.773117 -0.312412 -0.755307 0.000000000000000e+00 1886740808
0.764975 -0.407038 -0.801920 0.000000000000000e+00 1886740808
2.119681 -1.276229 -2.308666 0.000000000000000e+00 1634890835
0.747646 -0.257516 -0.719054 0.000000000000000e+00 1886740808
0.789482 -0.318819 -0.784679 0.000000000000000e+00 1886740808
0.803534 -0.427802 -0.857505 0.000000000000000e+00 1886740808
2.072790 -1.249383 -2.299087 0.000000000000000e+00 1634890835
0.742609 -0.255416 -0.726383 0.000000000000000e+00 1886740808
0.780755 -0.315087 -0.789452 0.000000000000000e+00 1886740808
2.117848 -1.128202 -2.300747 0.000000000000000e+00 1634890835
2.031151 -1.225670 -2.294280 0.000000000000000e+00 1634890835
0.730788 -0.250985 -0.726988 0.000000000000000e+00 1886740808
0.766102 -0.308967 -0.788043 0.000000000000000e+00 1886740808
2.102441 -1.120663 -2.325060 0.000000000000000e+00 1634890835
0.787681 -0.475861 -0.906056 0.000000000000000e+00 1886740808
0.768294 -0.263476 -0.777293 0.000000000000000e+00 1886740808
0.725214 -0.292279 -0.758884 0.000000000000000e+00 1886740808
2.050526 -1.093652 -2.308389 0.000000000000000e+00 1634890835
0.825215 -0.499120 -0.966658 0.000000000000000e+00 1886740808
0.785204 -0.268870 -0.807897 0.000000000000000e+00 1886740808
0.767551 -0.309128 -0.817067 0.000000000000000e+00 1886740808
2.014867 -1.075295 -2.308997 0.000000000000000e+00 1634890835
0.799520 -0.484154 -0.953755 0.000000000000000e+00 1886740808
0.730708 -0.249828 -0.764594 0.000000000000000e+00 1886740808
2.128618 -0.856689 -2.305091 0.000000000000000e+00 1634890835
0.853205 -0.455625 -0.995328 0.000000000000000e+00 1886740808
0.794023 -0.481409 -0.964603 0.000000000000000e+00 1886740808
0.751176 -0.256425 -0.799354 0.000000000000000e+00 1886740808
2.127568 -0.855655 -2.343764 0.000000000000000e+00 1634890835
0.796512 -0.425622 -0.945900 0.000000000000000e+00 1886740808
0.809890 -0.491635 -1.001973 0.000000000000000e+00 1886740808
0.755391 -0.257455 -0.817487 0.000000000000000e+00 1886740808
2.085270 -0.838033 -2.336874 0.000000000000000e+00 1634890835
0.781172 -0.417696 -0.944379 0.000000000000000e+00 1886740808
1.788586 -1.087106 -2.253534 0.000000000000000e+00 1634890835
2.061530 -0.701483 -2.268886 0.000000000000000e+00 1634890835
2.019638 -0.811054 -2.302467 0.000000000000000e+00 1634890835
0.803995 -0.430185 -0.989486 0.000000000000000e+00 1886740808
1.763659 -1.073328 -2.263109 0.000000000000000e+00 1634890835
2.057711 -0.699031 -2.303171 0.000000000000000e+00 1634890835
2.008652 -0.806033 -2.329586 0.000000000000000e+00 1634890835
0.768215 -0.411318 -0.962516 0.000000000000000e+00 1886740808
0.799749 -0.487346 -1.045192 0.000000000000000e+00 1886740808
2.000194 -0.678350 -2.276877 0.000000000000000e+00 1634890835
1.955461 -0.784083 -2.307206 0.000000000000000e+00 1634890835
0.779837 -0.417828 -0.994746 0.000000000000000e+00 1886740808
1.739674 -1.061524 -2.315687 0.000000000000000e+00 1634890835
2.007668 -0.679719 -2.324311 0.000000000000000e+00 1634890835
0.796137 -0.318978 -0.955652 0.000000000000000e+00 1886740808
1.804484 -0.967502 -2.343482 0.000000000000000e+00 1634890835
1.719364 -1.050556 -2.331147 0.000000000000000e+00 1634890835
1.934805 -0.653907 -2.278167 0.000000000000000e+00 1634890835
0.805182 -0.322343 -0.983317 0.000000000000000e+00 1886740808
0.749788 -0.402298 -0.991439 0.000000000000000e+00 1886740808
1.653367 -1.011631 -2.283411 0.000000000000000e+00 1634890835
1.897044 -0.640003 -2.271879 0.000000000000000e+00 1634890835
0.771329 -0.308538 -0.958393 0.000000000000000e+00 1886740808
1.699266 -0.912404 -2.287866 0.000000000000000e+00 1634890835
1.622909 -0.994399 -2.283218 0.000000000000000e+00 1634890835
0.783865 -0.263970 -0.954825 0.000000000000000e+00 1886740808
0.772995 -0.308946 -0.977244 0.000000000000000e+00 1886740808
1.708480 -0.918037 -2.342317 0.000000000000000e+00 1634890835
1.617659 -0.992613 -2.318503 0.000000000000000e+00 1634890835
0.795193 -0.267288 -0.985252 0.000000000000000e+00 1886740808
0.810847 -0.323799 -1.043057 0.000000000000000e+00 1886740808
1.641180 -0.882545 -2.291318 0.000000000000000e+00 1634890835
1.606610 -0.987288 -2.346010 0.000000000000000e+00 1634890835
0.768758 -0.257911 -0.968896 0.000000000000000e+00 1886740808
0.743324 -0.296576 -0.972999 0.000000000000000e+00 1886740808
1.600062 -0.861104 -2.275043 0.000000000000000e+00 1634890835
1.550669 -0.954347 -2.307126 0.000000000000000e+00 1634890835
0.753030 -0.252145 -0.965460 0.000000000000000e+00 1886740808
1.712164 -0.682523 -2.280715 0.000000000000000e+00 1634890835
1.600488 -0.862017 -2.317722 0.000000000000000e+00 1634890835
1.491859 -0.919568 -2.261780 0.000000000000000e+00 1634890835
0.792562 -0.264856 -1.033747 0.000000000000000e+00 1886740808
1.664387 -0.662876 -2.256308 0.000000000000000e+00 1634890835
1.574957 -0.848955 -2.323106 0.000000000000000e+00 1634890835
1.495470 -0.923246 -2.310524 0.000000000000000e+00 1634890835
0.764001 -0.254793 -1.013819 0.000000000000000e+00 1886740808
0.762055 -0.303222 -1.051427 0.000000000000000e+00 1886740808
1.547976 -0.835105 -2.325919 0.000000000000000e+00 1634890835
1.490976 -0.921955 -2.347780 0.000000000000000e+00 1634890835
1.723357 -0.573543 -2.326790 0.000000000000000e+00 1634890835
1.651307 -0.656431 -2.319008 0.000000000000000e+00 1634890835
1.491029 -0.805068 -2.282381 0.000000000000000e+00 1634890835
1.421645 -0.880534 -2.281803 0.000000000000000e+00 1634890835
0.751952 -0.249722 -1.033045 0.000000000000000e+00 1886740808
1.609313 -0.639115 -2.300550 0.000000000000000e+00 1634890835
1.488574 -0.804444 -2.321604 0.000000000000000e+00 1634890835
1.381188 -0.856923 -2.259904 0.000000000000000e+00 1634890835
1.625614 -0.538690 -2.272620 0.000000000000000e+00 1634890835
1.589844 -0.630753 -2.313663 0.000000000000000e+00 1634890835
1.449233 -0.783881 -2.303130 0.000000000000000e+00 1634890835
1.368011 -0.850215 -2.282075 0.000000000000000e+00 1634890835
1.615385 -0.534107 -2.298280 0.000000000000000e+00 1634890835
1.536602 -0.609009 -2.276683 0.000000000000000e+00 1634890835
1.420186 -0.768871 -2.300058 0.000000000000000e+00 1634890835
1.371485 -0.853885 -2.332871 0.000000000000000e+00 1634890835
1.556486 -0.513457 -2.253869 0.000000000000000e+00 1634890835
1.502259 -0.594775 -2.266339 0.000000000000000e+00 1634890835
1.386427 -0.751297 -2.288536 0.000000000000000e+00 1634890835
1.310358 -0.817312 -2.273054 0.000000000000000e+00 1634890835
1.537520 -0.506010 -2.266221 0.000000000000000e+00 1634890835
1.506322 -0.595743 -2.314103 0.000000000000000e+00 1634890835
1.369397 -0.742782 -2.304168 0.000000000000000e+00 1634890835
1.274724 -0.796568 -2.255378 0.000000000000000e+00 1634890835
1.522992 -0.500023 -2.285188 0.000000000000000e+00 1634890835
1.463448 -0.578150 -2.289686 0.000000000000000e+00 1634890835
1.374236 -0.746141 -2.357385 0.000000000000000e+00 1634890835
1.264799 -0.791880 -2.282842 0.000000000000000e+00 1634890835
1.490955 -0.488295 -2.277606 0.000000000000000e+00 1634890835
1.434711 -0.566157 -2.286383 0.000000000000000e+00 1634890835
1.344012 -0.730468 -2.350828 0.000000000000000e+00 1634890835
1.243645 -0.780166 -2.290198 0.000000000000000e+00 1634890835
1.461221 -0.477344 -2.272848 0.000000000000000e+00 1634890835
1.426107 -0.562111 -2.315146 0.000000000000000e+00 1634890835
1.304151 -0.709539 -2.326279 0.000000000000000e+00 1634890835
1.223280 -0.768941 -2.298796 0.000000000000000e+00 1634890835
1.462212 -0.476422 -2.316104 0.000000000000000e+00 1634890835
1.410727 -0.555387 -2.333291 0.000000000000000e+00 1634890835
1.290760 -0.703003 -2.348373 0.000000000000000e+00 1634890835
1.175565 -0.740480 -2.254751 0.000000000000000e+00 1634890835
1.421662 -0.461968 -2.293472 0.000000000000000e+00 1634890835
1.341345 -0.527425 -2.260622 0.000000000000000e+00 1634890835
1.249055 -0.681033 -2.318282 0.000000000000000e+00 1634890835
1.176334 -0.742545 -2.303266 0.000000000000000e+00 1634890835
1.377277 -0.446313 -2.263221 0.000000000000000e+00 1634890835
1.351814 -0.530873 -2.321832 0.000000000000000e+00 1634890835
1.242153 -0.678035 -2.352354 0.000000000000000e+00 1634890835
1.157186 -0.732064 -2.313487 0.000000000000000e+00 1634890835
1.360237 -0.439539 -2.277147 0.000000000000000e+00 1634890835
1.335055 -0.523612 -2.337267 0.000000000000000e+00 1634890835
1.197524 -0.654432 -2.314399 0.000000000000000e+00 1634890835
1.133880 -0.718942 -2.315128 0.000000000000000e+00 1634890835
1.360267 -0.438263 -2.320266 0.000000000000000e+00 1634890835
1.268816 -0.496970 -2.264515 0.000000000000000e+00 1634890835
1.206584 -0.660173 -2.380272 0.000000000000000e+00 1634890835
1.104408 -0.701884 -2.303452 0.000000000000000e+00 1634890835
1.333380 -0.428306 -2.317788 0.000000000000000e+00 1634890835
1.272955 -0.497906 -2.316505 0.000000000000000e+00 1634890835
1.136276 -0.622469 -2.288551 0.000000000000000e+00 1634890835
1.098959 -0.700100 -2.341948 0.000000000000000e+00 1634890835
1.302586 -0.417115 -2.307837 0.000000000000000e+00 1634890835
1.247866 -0.487402 -2.315856 0.000000000000000e+00 1634890835
1.116774 -0.612562 -2.296929 0.000000000000000e+00 1634890835
1.066314 -0.680985 -2.322391 0.000000000000000e+00 1634890835
1.263748 -0.403380 -2.282520 0.000000000000000e+00 1634890835
1.215749 -0.474164 -2.301415 0.000000000000000e+00 1634890835
1.101942 -0.605218 -2.314992 0.000000000000000e+00 1634890835
1.055407 -0.675741 -2.349847 0.000000000000000e+00 1634890835
1.271545 -0.404527 -2.341651 0.000000000000000e+00 1634890835
1.185623 -0.461719 -2.289781 0.000000000000000e+00 1634890835
1.074154 -0.590754 -2.305547 0.000000000000000e+00 1634890835
0.986251 -0.633130 -2.245420 0.000000000000000e+00 1634890835
1.224664 -0.388279 -2.300001 0.000000000000000e+00 1634890835
1.179391 -0.458577 -2.324309 0.000000000000000e+00 1634890835
1.074966 -0.592026 -2.357937 0.000000000000000e+00 1634890835
0.974418 -0.627240 -2.269198 0.000000000000000e+00 1634890835
1.174418 -0.371031 -2.249797 0.000000000000000e+00 1634890835
1.163106 -0.451518 -2.339600 0.000000000000000e+00 1634890835
1.037766 -0.572362 -2.326947 0.000000000000000e+00 1634890835
0.982575 -0.634276 -2.341229 0.000000000000000e+00 1634890835
1.163635 -0.366279 -2.274260 0.000000000000000e+00 1634890835
1.132843 -0.439039 -2.326381 0.000000000000000e+00 1634890835
0.999311 -0.551977 -2.291205 0.000000000000000e+00 1634890835
0.924374 -0.598447 -2.254333 0.000000000000000e+00 1634890835
1.157656 -0.363016 -2.308891 0.000000000000000e+00 1634890835
1.102025 -0.426360 -2.310995 0.000000000000000e+00 1634890835
1.005956 -0.556505 -2.359120 0.000000000000000e+00 1634890835
0.908747 -0.590109 -2.269096 0.000000000000000e+00 1634890835
1.130479 -0.353102 -2.301385 0.000000000000000e+00 1634890835
1.076757 -0.415842 -2.306397 0.000000000000000e+00 1634890835
0.973947 -0.539660 -2.336967 0.000000000000000e+00 1634890835
0.870164 -0.566826 -2.225395 0.000000000000000e+00 1634890835
1.093580 -0.340185 -2.272940 0.000000000000000e+00 1634890835
1.079221 -0.416023 -2.361862 0.000000000000000e+00 1634890835
0.933753 -0.518248 -2.293203 0.000000000000000e+00 1634890835
0.864677 -0.565084 -2.265793 0.000000000000000e+00 1634890835
1.098890 -0.340392 -2.332467 0.000000000000000e+00 1634890835
1.039126 -0.399799 -2.324151 0.000000000000000e+00 1634890835
0.915245 -0.508851 -2.301417 0.000000000000000e+00 1634890835
0.845051 -0.554122 -2.269773 0.000000000000000e+00 1634890835
1.063534 -0.327993 -2.305977 0.000000000000000e+00 1634890835
1.037002 -0.398189 -2.371147 0.000000000000000e+00 1634890835
0.912980 -0.508499 -2.351406 0.000000000000000e+00 1634890835
0.825654 -0.543304 -2.274121 0.000000000000000e+00 1634890835
1.049554 -0.322202 -2.325277 0.000000000000000e+00 1634890835
0.996765 -0.381946 -2.330725 0.000000000000000e+00 1634890835
0.890014 -0.496628 -2.348780 0.000000000000000e+00 1634890835
0.452595 -0.298907 -1.278891 0.000000000000000e+00 1936876886
1.028569 -0.314258 -2.329166 0.000000000000000e+00 1634890835
0.989949 -0.378519 -2.367967 0.000000000000000e+00 1634890835
0.866225 -0.484290 -2.343340 0.000000000000000e+00 1634890835
0.427161 -0.283182 -1.238873 0.000000000000000e+00 1936876886
0.986929 -0.300043 -2.285006 0.000000000000000e+00 1634890835
0.957654 -0.365351 -2.344159 0.000000000000000e+00 1634890835
0.842426 -0.471933 -2.337140 0.000000000000000e+00 1634890835
0.431365 -0.287102 -1.284713 0.000000000000000e+00 1936876886
0.963827 -0.291504 -2.282332 0.000000000000000e+00 1634890835
0.928357 -0.353347 -2.326317 0.000000000000000e+00 1634890835
0.437412 -0.245555 -1.245064 0.000000000000000e+00 1936876886
0.340759 -0.227734 -1.042704 0.000000000000000e+00 1953264973
0.954840 -0.287228 -2.313341 0.000000000000000e+00 1634890835
0.924277 -0.350938 -2.371911 0.000000000000000e+00 1634890835
0.452783 -0.254741 -1.322972 0.000000000000000e+00 1936876886
0.304441 -0.204341 -0.957656 0.000000000000000e+00 1953264973
0.489918 -0.146542 -1.214843 0.000000000000000e+00 1936876886
0.872333 -0.330374 -2.293492 0.000000000000000e+00 1634890835
0.371819 -0.209668 -1.115766 0.000000000000000e+00 1953264973
0.278453 -0.187741 -0.900958 0.000000000000000e+00 1953264973
0.494650 -0.147084 -1.255885 0.000000000000000e+00 1936876886
0.860907 -0.325179 -2.319933 0.000000000000000e+00 1634890835
0.345277 -0.195167 -1.064695 0.000000000000000e+00 1953264973
0.249377 -0.168931 -0.830471 0.000000000000000e+00 1953264973
0.473971 -0.140064 -1.232635 0.000000000000000e+00 1936876886
0.847914 -0.319381 -2.342998 0.000000000000000e+00 1634890835
0.323403 -0.183261 -1.025341 0.000000000000000e+00 1953264973
0.238611 -0.162438 -0.818388 0.000000000000000e+00 1953264973
