# .PCD v0.7 - Point Cloud Data file format
VERSION 0.7
FIELDS x y z rgb label
SIZE 4 4 4 4 4
TYPE F F F F U
COUNT 1 1 1 1 1
WIDTH 535
HEIGHT 1
VIEWPOINT 0 0 0 1 0 0 0
POINTS 535
DATA ascii
37.031693 -18.913403 10.331911 0.000000000000000e+00 1954047316
36.102562 -20.122414 9.853300 0.000000000000000e+00 1954047316
35.428020 -13.171587 -2.250891 0.000000000000000e+00 1851878480
29.413792 -10.927296 -2.135995 0.000000000000000e+00 1851878480
29.048239 -12.146501 -2.042788 0.000000000000000e+00 1851878480
27.354811 -14.120702 -1.752254 0.000000000000000e+00 1851878480
26.325163 -14.955321 -1.579180 0.000000000000000e+00 1851878480
26.636410 -9.887974 -2.176505 0.000000000000000e+00 1851878480
26.295259 -10.991476 -2.095596 0.000000000000000e+00 1851878480
24.988512 -12.903200 -1.850385 0.000000000000000e+00 1851878480
24.343565 -13.837728 -1.712056 0.000000000000000e+00 1851878480
24.143295 -8.955667 -2.192554 0.000000000000000e+00 1851878480
24.274759 -10.143339 -2.162310 0.000000000000000e+00 1851878480
23.229227 -11.998479 -1.952551 0.000000000000000e+00 1851878480
22.761215 -12.945926 -1.836500 0.000000000000000e+00 1851878480
22.093809 -8.189194 -2.207778 0.000000000000000e+00 1851878480
22.173899 -9.262234 -2.183462 0.000000000000000e+00 1851878480
21.881414 -11.305818 -2.058536 0.000000000000000e+00 1851878480
21.602646 -12.294235 -1.967105 0.000000000000000e+00 1851878480
20.415798 -7.561462 -2.226397 0.000000000000000e+00 1851878480
20.503246 -8.561366 -2.211822 0.000000000000000e+00 1851878480
20.667774 -10.682056 -2.151809 0.000000000000000e+00 1851878480
20.347885 -11.587013 -2.064285 0.000000000000000e+00 1851878480
18.935472 -7.007832 -2.238015 0.000000000000000e+00 1851878480
19.079823 -7.964190 -2.238031 0.000000000000000e+00 1851878480
19.433331 -10.047174 -2.218697 0.000000000000000e+00 1851878480
19.115740 -10.891832 -2.138306 0.000000000000000e+00 1851878480
17.551645 -6.490712 -2.235124 0.000000000000000e+00 1851878480
17.634153 -7.358144 -2.234888 0.000000000000000e+00 1851878480
17.934225 -9.275018 -2.228235 0.000000000000000e+00 1851878480
18.017832 -10.272375 -2.203476 0.000000000000000e+00 1851878480
16.409767 -6.063785 -2.240195 0.000000000000000e+00 1851878480
16.456701 -6.864406 -2.241276 0.000000000000000e+00 1851878480
16.554178 -8.563979 -2.223914 0.000000000000000e+00 1851878480
16.724104 -9.540481 -2.220141 0.000000000000000e+00 1851878480
15.393511 -5.683886 -2.242894 0.000000000000000e+00 1851878480
15.383698 -6.414552 -2.240900 0.000000000000000e+00 1851878480
15.440681 -7.990434 -2.230575 0.000000000000000e+00 1851878480
15.502800 -8.849059 -2.220509 0.000000000000000e+00 1851878480
14.521136 -5.357631 -2.249481 0.000000000000000e+00 1851878480
14.462805 -6.028422 -2.244089 0.000000000000000e+00 1851878480
14.468235 -7.489553 -2.236858 0.000000000000000e+00 1851878480
14.460747 -8.259196 -2.223217 0.000000000000000e+00 1851878480
13.649899 -5.032299 -2.240472 0.000000000000000e+00 1851878480
13.618433 -5.674450 -2.242691 0.000000000000000e+00 1851878480
13.626161 -7.055874 -2.245251 0.000000000000000e+00 1851878480
13.632026 -7.790554 -2.239455 0.000000000000000e+00 1851878480
12.932551 -4.764141 -2.242348 0.000000000000000e+00 1851878480
12.874192 -5.362422 -2.242969 0.000000000000000e+00 1851878480
12.832255 -6.646873 -2.245301 0.000000000000000e+00 1851878480
12.829520 -7.336346 -2.243206 0.000000000000000e+00 1851878480
12.255630 -4.511263 -2.238625 0.000000000000000e+00 1851878480
12.211104 -5.084413 -2.244267 0.000000000000000e+00 1851878480
12.147176 -6.294009 -2.249674 0.000000000000000e+00 1851878480
12.076271 -6.909792 -2.239520 0.000000000000000e+00 1851878480
11.646893 -4.283847 -2.235722 0.000000000000000e+00 1851878480
11.582212 -4.820821 -2.239796 0.000000000000000e+00 1851878480
11.489092 -5.954915 -2.245665 0.000000000000000e+00 1851878480
11.404572 -6.529407 -2.236239 0.000000000000000e+00 1851878480
11.190727 -4.112844 -2.252499 0.000000000000000e+00 1851878480
11.084490 -4.611988 -2.250197 0.000000000000000e+00 1851878480
10.872317 -5.637024 -2.237012 0.000000000000000e+00 1851878480
10.871600 -6.228051 -2.247742 0.000000000000000e+00 1851878480
10.667057 -3.917308 -2.246849 0.000000000000000e+00 1851878480
10.561337 -4.392727 -2.245929 0.000000000000000e+00 1851878480
10.407863 -5.397939 -2.248933 0.000000000000000e+00 1851878480
10.287761 -5.897180 -2.237200 0.000000000000000e+00 1851878480
10.230043 -3.753866 -2.250770 0.000000000000000e+00 1851878480
10.097277 -4.198186 -2.245018 0.000000000000000e+00 1851878480
9.962497 -5.168619 -2.255953 0.000000000000000e+00 1851878480
9.847919 -5.648508 -2.247407 0.000000000000000e+00 1851878480
9.768249 -3.581580 -2.241105 0.000000000000000e+00 1851878480
9.666999 -4.017826 -2.243275 0.000000000000000e+00 1851878480
9.523382 -4.942391 -2.255584 0.000000000000000e+00 1851878480
9.388900 -5.388537 -2.243965 0.000000000000000e+00 1851878480
9.409054 -3.447144 -2.247557 0.000000000000000e+00 1851878480
9.298005 -3.863050 -2.248312 0.000000000000000e+00 1851878480
9.085441 -4.716635 -2.246738 0.000000000000000e+00 1851878480
9.009203 -5.173810 -2.250827 0.000000000000000e+00 1851878480
9.007225 -3.297299 -2.236942 0.000000000000000e+00 1851878480
8.931242 -3.709306 -2.247036 0.000000000000000e+00 1851878480
8.694857 -4.515328 -2.241316 0.000000000000000e+00 1851878480
8.608449 -4.946722 -2.244365 0.000000000000000e+00 1851878480
8.717566 -3.188716 -2.247941 0.000000000000000e+00 1851878480
8.585249 -3.564296 -2.244337 0.000000000000000e+00 1851878480
8.391263 -4.359088 -2.251411 0.000000000000000e+00 1851878480
8.245545 -4.741134 -2.239858 0.000000000000000e+00 1851878480
8.351511 -3.052369 -2.233311 0.000000000000000e+00 1851878480
8.287733 -3.439504 -2.248318 0.000000000000000e+00 1851878480
8.096288 -4.207233 -2.257889 0.000000000000000e+00 1851878480
7.966809 -4.583727 -2.251601 0.000000000000000e+00 1851878480
8.102013 -2.958792 -2.244286 0.000000000000000e+00 1851878480
7.949311 -3.297831 -2.235260 0.000000000000000e+00 1851878480
4.429072 -2.302320 -1.282230 1.880790849211783e-38 1684957512
4.373501 -2.517885 -1.284292 1.880790849211783e-38 1684957512
7.796021 -2.844737 -2.234598 0.000000000000000e+00 1851878480
4.471470 -1.854330 -1.301817 1.880790849211783e-38 1684957512
4.337622 -2.255528 -1.302052 1.880790849211783e-38 1684957512
4.223264 -2.432924 -1.286985 1.880790849211783e-38 1684957512
4.334652 -1.580411 -1.284378 1.880790849211783e-38 1684957512
4.249924 -1.761793 -1.279791 1.880790849211783e-38 1684957512
4.129398 -2.147965 -1.283837 1.880790849211783e-38 1684957512
4.053912 -2.336846 -1.280540 1.880790849211783e-38 1684957512
4.155218 -1.513750 -1.271580 1.880790849211783e-38 1684957512
4.104607 -1.700911 -1.277246 1.880790849211783e-38 1684957512
3.959049 -2.060041 -1.273552 1.880790849211783e-38 1684957512
3.899918 -2.249506 -1.275572 1.880790849211783e-38 1684957512
4.094944 -1.490568 -1.293106 1.880790849211783e-38 1684957512
4.012931 -1.662292 -1.289209 1.880790849211783e-38 1684957512
3.877419 -2.018242 -1.289308 1.880790849211783e-38 1684957512
3.826015 -2.208292 -1.294482 1.880790849211783e-38 1684957512
3.955482 -1.438613 -1.287862 1.880790849211783e-38 1684957512
3.894410 -1.612581 -1.290622 1.880790849211783e-38 1684957512
3.733518 -1.943994 -1.282132 1.880790849211783e-38 1684957512
3.654775 -2.110814 -1.277928 1.880790849211783e-38 1684957512
4.014668 -1.458926 -1.346705 1.880790849211783e-38 1684957512
3.732831 -1.545084 -1.275121 1.880790849211783e-38 1684957512
3.658231 -1.905441 -1.296352 1.880790849211783e-38 1684957512
3.547442 -2.050149 -1.280797 1.880790849211783e-38 1684957512
3.963683 -1.439195 -1.368873 1.880790849211783e-38 1684957512
3.695555 -1.529066 -1.300255 1.880790849211783e-38 1684957512
3.506282 -1.826916 -1.281136 1.880790849211783e-38 1684957512
3.417553 -1.976370 -1.273053 1.880790849211783e-38 1684957512
4.033289 -1.463240 -1.433085 1.880790849211783e-38 1684957512
3.580965 -1.481080 -1.296832 1.880790849211783e-38 1684957512
3.485058 -1.816480 -1.312003 1.880790849211783e-38 1684957512
3.385132 -1.958903 -1.299995 1.880790849211783e-38 1684957512
4.053875 -1.469465 -1.481000 1.880790849211783e-38 1684957512
3.512126 -1.452041 -1.308293 1.880790849211783e-38 1684957512
3.327382 -1.734893 -1.289744 1.880790849211783e-38 1684957512
3.311179 -1.917370 -1.310004 1.880790849211783e-38 1684957512
3.989015 -1.444726 -1.497480 1.880790849211783e-38 1684957512
3.515668 -1.452938 -1.346252 1.880790849211783e-38 1684957512
3.227195 -1.683239 -1.287116 1.880790849211783e-38 1684957512
3.168431 -1.835925 -1.290518 1.880790849211783e-38 1684957512
4.036499 -1.460674 -1.556194 1.880790849211783e-38 1684957512
3.519907 -1.454117 -1.384779 1.880790849211783e-38 1684957512
3.171843 -1.654945 -1.300855 1.880790849211783e-38 1684957512
3.061853 -1.775354 -1.283094 1.880790849211783e-38 1684957512
3.997623 -1.445361 -1.581944 1.880790849211783e-38 1684957512
3.515667 -1.451789 -1.420196 1.880790849211783e-38 1684957512
3.108020 -1.622215 -1.310005 1.880790849211783e-38 1684957512
3.018908 -1.751627 -1.300821 1.880790849211783e-38 1684957512
4.027678 -1.454966 -1.635132 1.880790849211783e-38 1684957512
3.535090 -1.459225 -1.465569 1.880790849211783e-38 1684957512
3.016832 -1.575176 -1.306092 1.880790849211783e-38 1684957512
2.863567 -1.662621 -1.268010 1.880790849211783e-38 1684957512
4.034595 -1.456194 -1.679567 1.880790849211783e-38 1684957512
3.517950 -1.451569 -1.496052 1.880790849211783e-38 1684957512
2.933507 -1.532215 -1.303821 1.880790849211783e-38 1684957512
2.803584 -1.628902 -1.275101 1.880790849211783e-38 1684957512
3.992618 -1.439778 -1.703553 1.880790849211783e-38 1684957512
3.474677 -1.433133 -1.515022 1.880790849211783e-38 1684957512
2.822717 -1.474875 -1.287337 1.880790849211783e-38 1684957512
2.719486 -1.581124 -1.269736 1.880790849211783e-38 1684957512
3.994200 -1.439075 -1.745979 1.880790849211783e-38 1684957512
3.582758 -1.477109 -1.600947 1.880790849211783e-38 1684957512
2.797920 -1.462447 -1.308737 1.880790849211783e-38 1684957512
2.682207 -1.560526 -1.285010 1.880790849211783e-38 1684957512
4.044450 -1.455882 -1.810509 1.880790849211783e-38 1684957512
3.537550 -1.457872 -1.619324 1.880790849211783e-38 1684957512
2.815260 -1.472043 -1.350006 1.880790849211783e-38 1684957512
2.611380 -1.520377 -1.283142 1.880790849211783e-38 1684957512
4.040990 -1.453333 -1.851785 1.880790849211783e-38 1684957512
3.529792 -1.454075 -1.654544 1.880790849211783e-38 1684957512
2.759632 -1.443486 -1.356084 1.880790849211783e-38 1684957512
2.565621 -1.494782 -1.292412 1.880790849211783e-38 1684957512
4.014786 -1.442601 -1.882629 1.880790849211783e-38 1684957512
3.543163 -1.458975 -1.700017 1.880790849211783e-38 1684957512
2.781685 -1.455558 -1.400197 1.880790849211783e-38 1684957512
2.476717 -1.444004 -1.278533 1.880790849211783e-38 1684957512
4.035035 -1.448557 -1.935506 1.880790849211783e-38 1684957512
3.579362 -1.473261 -1.757289 1.880790849211783e-38 1684957512
2.800188 -1.465786 -1.443277 1.880790849211783e-38 1684957512
2.489059 -1.452234 -1.316223 1.880790849211783e-38 1684957512
4.049008 -1.452237 -1.986067 1.880790849211783e-38 1684957512
3.521761 -1.448940 -1.768576 1.880790849211783e-38 1684957512
2.807650 -1.470243 -1.481261 1.880790849211783e-38 1684957512
2.460110 -1.436375 -1.332135 1.880790849211783e-38 1684957512
4.021945 -1.441198 -2.016693 1.880790849211783e-38 1684957512
3.562060 -1.464895 -1.829149 1.880790849211783e-38 1684957512
2.792945 -1.463095 -1.507749 1.880790849211783e-38 1684957512
2.528714 -1.477501 -1.401656 1.880790849211783e-38 1684957512
4.033582 -1.444017 -2.066901 1.880790849211783e-38 1684957512
3.534531 -1.452947 -1.855360 1.880790849211783e-38 1684957512
2.781104 -1.457447 -1.535752 1.880790849211783e-38 1684957512
2.469885 -1.444181 -1.400950 1.880790849211783e-38 1684957512
4.063970 -1.453528 -2.127539 1.880790849211783e-38 1684957512
3.494966 -1.436060 -1.874818 1.880790849211783e-38 1684957512
2.783249 -1.459133 -1.571663 1.880790849211783e-38 1684957512
2.500865 -1.463375 -1.451122 1.880790849211783e-38 1684957512
3.989597 -1.425570 -2.133208 1.880790849211783e-38 1684957512
3.512338 -1.442567 -1.924904 1.880790849211783e-38 1684957512
2.738527 -1.436244 -1.580887 1.880790849211783e-38 1684957512
2.439842 -1.428729 -1.447815 1.880790849211783e-38 1684957512
4.077472 -1.455575 -2.226163 1.880790849211783e-38 1684957512
3.514300 -1.442736 -1.967123 1.880790849211783e-38 1684957512
2.766209 -1.451331 -1.632015 1.880790849211783e-38 1684957512
2.475093 -1.450461 -1.501611 1.880790849211783e-38 1684957512
4.056563 -1.446710 -2.260873 0.000000000000000e+00 1851878480
3.535465 -1.450779 -2.020728 1.880790849211783e-38 1684957512
2.788271 -1.463484 -1.680793 1.880790849211783e-38 1684957512
2.478554 -1.453589 -1.536956 1.880790849211783e-38 1684957512
3.968973 -1.414092 -2.257581 0.000000000000000e+00 1634890835
3.525793 -1.446159 -2.057218 1.880790849211783e-38 1684957512
2.785654 -1.462694 -1.715289 1.880790849211783e-38 1684957512
2.518852 -1.478353 -1.596069 1.880790849211783e-38 1684957512
3.908101 -1.391032 -2.268185 0.000000000000000e+00 1634890835
3.531960 -1.448032 -2.103298 1.880790849211783e-38 1684957512
2.790408 -1.465779 -1.754709 1.880790849211783e-38 1684957512
2.451182 -1.439748 -1.586737 1.880790849211783e-38 1684957512
3.842665 -1.366380 -2.275084 0.000000000000000e+00 1634890835
3.569289 -1.462665 -2.168861 1.880790849211783e-38 1684957512
2.805420 -1.474264 -1.801205 1.880790849211783e-38 1684957512
2.467120 -1.450240 -1.631171 1.880790849211783e-38 1684957512
3.790228 -1.346382 -2.288716 0.000000000000000e+00 1634890835
3.497692 -1.432664 -2.168229 1.880790849211783e-38 1684957512
2.748169 -1.444773 -1.801121 1.880790849211783e-38 1684957512
2.518060 -1.481352 -1.700042 1.880790849211783e-38 1684957512
3.721986 -1.320799 -2.291799 0.000000000000000e+00 1634890835
3.574347 -1.463378 -2.259990 1.880790849211783e-38 1684957512
2.796211 -1.470641 -1.870311 1.880790849211783e-38 1684957512
2.502741 -1.473515 -1.725057 1.880790849211783e-38 1684957512
3.670165 -1.301076 -2.303989 0.000000000000000e+00 1634890835
3.476899 -1.422808 -2.241842 0.000000000000000e+00 1851878480
2.763957 -1.454286 -1.886406 1.880790849211783e-38 1684957512
2.465723 -1.452887 -1.734761 1.880790849211783e-38 1684957512
3.588405 -1.270773 -2.296206 0.000000000000000e+00 1634890835
3.502557 -1.432625 -2.302621 0.000000000000000e+00 1634890835
2.748415 -1.446721 -1.913664 1.880790849211783e-38 1684957512
2.422393 -1.428517 -1.739268 1.880790849211783e-38 1684957512
3.493479 -1.235860 -2.278281 0.000000000000000e+00 1634890835
3.413598 -1.395564 -2.287698 0.000000000000000e+00 1634890835
2.788332 -1.468361 -1.980299 1.880790849211783e-38 1684957512
2.443554 -1.442182 -1.790166 1.880790849211783e-38 1684957512
3.382036 -1.195171 -2.247484 0.000000000000000e+00 1634890835
3.336184 -1.363250 -2.278841 0.000000000000000e+00 1634890835
2.760857 -1.454522 -1.999681 1.880790849211783e-38 1684957512
2.416222 -1.427238 -1.805863 1.880790849211783e-38 1684957512
3.384637 -1.194811 -2.291566 0.000000000000000e+00 1634890835
3.321872 -1.356735 -2.312369 0.000000000000000e+00 1634890835
2.802536 -1.477128 -2.069809 1.880790849211783e-38 1684957512
2.457388 -1.452776 -1.873393 1.880790849211783e-38 1684957512
3.326713 -1.173089 -2.294422 0.000000000000000e+00 1634890835
3.199610 -1.306148 -2.269433 0.000000000000000e+00 1634890835
2.772847 -1.462127 -2.087865 1.880790849211783e-38 1684957512
2.432101 -1.439051 -1.890947 1.880790849211783e-38 1684957512
3.242400 -1.142107 -2.277728 0.000000000000000e+00 1634890835
3.191564 -1.302207 -2.306264 0.000000000000000e+00 1634890835
2.763812 -1.458016 -2.121393 1.880790849211783e-38 1684957512
2.438391 -1.444016 -1.933223 1.880790849211783e-38 1684957512
3.178867 -1.118487 -2.274193 0.000000000000000e+00 1634890835
3.108753 -1.267771 -2.288333 0.000000000000000e+00 1634890835
2.768149 -1.460966 -2.165611 1.880790849211783e-38 1684957512
2.425301 -1.437517 -1.960502 1.880790849211783e-38 1684957512
3.123744 -1.097858 -2.275596 0.000000000000000e+00 1634890835
3.095613 -1.261762 -2.320881 0.000000000000000e+00 1634890835
2.772779 -1.464084 -2.210702 1.880790849211783e-38 1684957512
2.452067 -1.454665 -2.020703 1.880790849211783e-38 1684957512
3.085545 -1.083202 -2.288576 0.000000000000000e+00 1634890835
3.022449 -1.231296 -2.307740 0.000000000000000e+00 1634890835
2.774457 -1.465649 -2.254061 1.880790849211783e-38 1684957512
0.842702 -0.500372 -0.707884 0.000000000000000e+00 1886740808
3.022477 -1.059841 -2.282242 0.000000000000000e+00 1634890835
2.916409 -1.187468 -2.267514 0.000000000000000e+00 1634890835
2.747108 -1.451886 -2.273990 0.000000000000000e+00 1851878480
0.850607 -0.505523 -0.728261 0.000000000000000e+00 1886740808
3.020723 -1.057994 -2.321822 0.000000000000000e+00 1634890835
2.918029 -1.187493 -2.310037 0.000000000000000e+00 1634890835
0.857040 -0.453174 -0.722760 0.000000000000000e+00 1886740808
0.811704 -0.482845 -0.708241 0.000000000000000e+00 1886740808
2.910216 -1.018087 -2.276771 0.000000000000000e+00 1634890835
2.842803 -1.156249 -2.291191 0.000000000000000e+00 1634890835
0.852726 -0.451110 -0.732555 0.000000000000000e+00 1886740808
0.805012 -0.479310 -0.715764 0.000000000000000e+00 1886740808
2.877923 -1.005586 -2.291443 0.000000000000000e+00 1634890835
2.794857 -1.136124 -2.293080 0.000000000000000e+00 1634890835
0.854717 -0.452385 -0.747915 0.000000000000000e+00 1886740808
0.779309 -0.464443 -0.706029 0.000000000000000e+00 1886740808
2.819998 -0.984153 -2.284950 0.000000000000000e+00 1634890835
2.729966 -1.109127 -2.279948 0.000000000000000e+00 1634890835
0.831726 -0.440435 -0.741265 0.000000000000000e+00 1886740808
0.792750 -0.472906 -0.731746 0.000000000000000e+00 1886740808
2.746241 -0.957234 -2.264277 0.000000000000000e+00 1634890835
0.817920 -0.332116 -0.695268 0.000000000000000e+00 1886740808
0.805495 -0.426759 -0.731115 0.000000000000000e+00 1886740808
0.738760 -0.441126 -0.694713 0.000000000000000e+00 1886740808
0.874598 -0.304472 -0.733719 0.000000000000000e+00 1886740808
0.866556 -0.351663 -0.749686 0.000000000000000e+00 1886740808
0.790165 -0.418851 -0.730365 0.000000000000000e+00 1886740808
0.769982 -0.460221 -0.737617 0.000000000000000e+00 1886740808
0.833163 -0.289681 -0.711133 0.000000000000000e+00 1886740808
0.872015 -0.353672 -0.767747 0.000000000000000e+00 1886740808
0.775456 -0.411266 -0.729879 0.000000000000000e+00 1886740808
0.750676 -0.449129 -0.732528 0.000000000000000e+00 1886740808
0.859104 -0.298318 -0.745999 0.000000000000000e+00 1886740808
0.812250 -0.329238 -0.727726 0.000000000000000e+00 1886740808
0.777564 -0.412601 -0.745206 0.000000000000000e+00 1886740808
0.739584 -0.442940 -0.735118 0.000000000000000e+00 1886740808
0.799099 -0.277120 -0.705894 0.000000000000000e+00 1886740808
0.786674 -0.318681 -0.717189 0.000000000000000e+00 1886740808
0.767924 -0.407703 -0.749345 0.000000000000000e+00 1886740808
0.727553 -0.436183 -0.736564 0.000000000000000e+00 1886740808
0.783585 -0.271382 -0.704122 0.000000000000000e+00 1886740808
0.757502 -0.306677 -0.702684 0.000000000000000e+00 1886740808
0.739123 -0.392625 -0.734318 0.000000000000000e+00 1886740808
0.805184 -0.483227 -0.830230 0.000000000000000e+00 1886740808
0.810673 -0.280386 -0.740985 0.000000000000000e+00 1886740808
0.786146 -0.318078 -0.741988 0.000000000000000e+00 1886740808
0.792162 -0.421030 -0.801250 0.000000000000000e+00 1886740808
0.761579 -0.457542 -0.799760 0.000000000000000e+00 1886740808
0.801071 -0.276689 -0.744763 0.000000000000000e+00 1886740808
0.781472 -0.315989 -0.750425 0.000000000000000e+00 1886740808
0.754186 -0.401070 -0.776611 0.000000000000000e+00 1886740808
0.765526 -0.460408 -0.818715 0.000000000000000e+00 1886740808
0.734042 -0.253186 -0.694120 0.000000000000000e+00 1886740808
0.742473 -0.300029 -0.725369 0.000000000000000e+00 1886740808
0.768407 -0.408864 -0.805517 0.000000000000000e+00 1886740808
2.115242 -1.273556 -2.303831 0.000000000000000e+00 1634890835
0.724398 -0.249508 -0.696695 0.000000000000000e+00 1886740808
0.747334 -0.301798 -0.742787 0.000000000000000e+00 1886740808
0.804219 -0.428166 -0.858236 0.000000000000000e+00 1886740808
2.068918 -1.247049 -2.294792 0.000000000000000e+00 1634890835
0.785040 -0.270010 -0.767887 0.000000000000000e+00 1886740808
0.775694 -0.313045 -0.784334 0.000000000000000e+00 1886740808
2.116880 -1.127687 -2.299695 0.000000000000000e+00 1634890835
2.027971 -1.223750 -2.290688 0.000000000000000e+00 1634890835
0.765426 -0.262881 -0.761445 0.000000000000000e+00 1886740808
0.779639 -0.314426 -0.801967 0.000000000000000e+00 1886740808
2.091398 -1.114777 -2.312848 0.000000000000000e+00 1634890835
0.817721 -0.494009 -0.940611 0.000000000000000e+00 1886740808
0.713004 -0.244515 -0.721355 0.000000000000000e+00 1886740808
0.765924 -0.308686 -0.801484 0.000000000000000e+00 1886740808
2.018767 -1.076713 -2.272637 0.000000000000000e+00 1634890835
0.813132 -0.491812 -0.952503 0.000000000000000e+00 1886740808
0.739874 -0.253348 -0.761257 0.000000000000000e+00 1886740808
0.742940 -0.299216 -0.790868 0.000000000000000e+00 1886740808
2.002260 -1.068567 -2.294550 0.000000000000000e+00 1634890835
0.791671 -0.479401 -0.944392 0.000000000000000e+00 1886740808
0.750384 -0.256555 -0.785181 0.000000000000000e+00 1886740808
2.080812 -0.837449 -2.253322 0.000000000000000e+00 1634890835
0.807228 -0.431073 -0.941693 0.000000000000000e+00 1886740808
0.779438 -0.472565 -0.946884 0.000000000000000e+00 1886740808
0.742187 -0.253357 -0.789788 0.000000000000000e+00 1886740808
2.076475 -0.835107 -2.287479 0.000000000000000e+00 1634890835
0.817309 -0.436735 -0.970597 0.000000000000000e+00 1886740808
0.790797 -0.480045 -0.978352 0.000000000000000e+00 1886740808
0.748815 -0.255214 -0.810370 0.000000000000000e+00 1886740808
2.067786 -0.831007 -2.317280 0.000000000000000e+00 1634890835
0.807982 -0.432032 -0.976791 0.000000000000000e+00 1886740808
1.818192 -1.105100 -2.290836 0.000000000000000e+00 1634890835
2.087429 -0.710296 -2.297390 0.000000000000000e+00 1634890835
2.012990 -0.808385 -2.294889 0.000000000000000e+00 1634890835
0.796756 -0.426312 -0.980577 0.000000000000000e+00 1886740808
1.779900 -1.083212 -2.283949 0.000000000000000e+00 1634890835
2.043561 -0.694224 -2.287333 0.000000000000000e+00 1634890835
1.960824 -0.786840 -2.274116 0.000000000000000e+00 1634890835
0.800986 -0.428864 -1.003575 0.000000000000000e+00 1886740808
0.738245 -0.449867 -0.964812 0.000000000000000e+00 1886740808
2.047131 -0.694269 -2.330308 0.000000000000000e+00 1634890835
1.948489 -0.781288 -2.298980 0.000000000000000e+00 1634890835
0.782426 -0.419215 -0.998048 0.000000000000000e+00 1886740808
1.735079 -1.058720 -2.309570 0.000000000000000e+00 1634890835
1.971905 -0.667612 -2.282909 0.000000000000000e+00 1634890835
0.806271 -0.323038 -0.967816 0.000000000000000e+00 1886740808
1.759661 -0.943469 -2.285271 0.000000000000000e+00 1634890835
1.676609 -1.024432 -2.273180 0.000000000000000e+00 1634890835
1.936577 -0.654506 -2.280254 0.000000000000000e+00 1634890835
0.759795 -0.304173 -0.927889 0.000000000000000e+00 1886740808
0.759404 -0.407457 -1.004155 0.000000000000000e+00 1886740808
1.668193 -1.020702 -2.303886 0.000000000000000e+00 1634890835
1.881655 -0.634812 -2.253449 0.000000000000000e+00 1634890835
0.781260 -0.312511 -0.970732 0.000000000000000e+00 1886740808
1.722543 -0.924902 -2.319206 0.000000000000000e+00 1634890835
1.637580 -1.003388 -2.303859 0.000000000000000e+00 1634890835
0.802510 -0.270249 -0.977536 0.000000000000000e+00 1886740808
0.800586 -0.319973 -1.012124 0.000000000000000e+00 1886740808
1.666886 -0.895686 -2.285291 0.000000000000000e+00 1634890835
1.586485 -0.973484 -2.273822 0.000000000000000e+00 1634890835
0.818606 -0.275158 -1.014261 0.000000000000000e+00 1886740808
0.801027 -0.319878 -1.030424 0.000000000000000e+00 1886740808
1.642067 -0.883022 -2.292557 0.000000000000000e+00 1634890835
1.546005 -0.950045 -2.257512 0.000000000000000e+00 1634890835
0.798058 -0.267741 -1.005823 0.000000000000000e+00 1886740808
0.808317 -0.322508 -1.058075 0.000000000000000e+00 1886740808
1.645390 -0.885498 -2.339492 0.000000000000000e+00 1634890835
1.568539 -0.965345 -2.333714 0.000000000000000e+00 1634890835
0.740106 -0.247817 -0.948890 0.000000000000000e+00 1886740808
1.740304 -0.693741 -2.318198 0.000000000000000e+00 1634890835
1.642616 -0.884706 -2.378729 0.000000000000000e+00 1634890835
1.530777 -0.943557 -2.320783 0.000000000000000e+00 1634890835
0.776894 -0.259620 -1.013312 0.000000000000000e+00 1886740808
1.719620 -0.684873 -2.331184 0.000000000000000e+00 1634890835
1.565011 -0.843594 -2.308437 0.000000000000000e+00 1634890835
1.488521 -0.918956 -2.299787 0.000000000000000e+00 1634890835
0.761054 -0.253810 -1.009909 0.000000000000000e+00 1886740808
0.761608 -0.303044 -1.050810 0.000000000000000e+00 1886740808
1.529820 -0.825311 -2.298640 0.000000000000000e+00 1634890835
1.466025 -0.906526 -2.308490 0.000000000000000e+00 1634890835
1.702000 -0.566435 -2.297955 0.000000000000000e+00 1634890835
1.629764 -0.647867 -2.288754 0.000000000000000e+00 1634890835
1.505730 -0.813005 -2.304884 0.000000000000000e+00 1634890835
1.456548 -0.902152 -2.337825 0.000000000000000e+00 1634890835
0.763104 -0.253426 -1.048365 0.000000000000000e+00 1886740808
1.651476 -0.655859 -2.360823 0.000000000000000e+00 1634890835
1.466651 -0.792596 -2.287412 0.000000000000000e+00 1634890835
1.376154 -0.853800 -2.251668 0.000000000000000e+00 1634890835
1.627783 -0.539408 -2.275653 0.000000000000000e+00 1634890835
1.561529 -0.619519 -2.272457 0.000000000000000e+00 1634890835
1.483590 -0.802464 -2.357730 0.000000000000000e+00 1634890835
1.388002 -0.862639 -2.315422 0.000000000000000e+00 1634890835
1.637737 -0.541498 -2.330081 0.000000000000000e+00 1634890835
1.604809 -0.636041 -2.377741 0.000000000000000e+00 1634890835
1.436246 -0.777566 -2.326069 0.000000000000000e+00 1634890835
1.345666 -0.837810 -2.288954 0.000000000000000e+00 1634890835
1.603098 -0.528833 -2.321365 0.000000000000000e+00 1634890835
1.523052 -0.603007 -2.297708 0.000000000000000e+00 1634890835
1.393222 -0.754979 -2.299753 0.000000000000000e+00 1634890835
1.312482 -0.818637 -2.276739 0.000000000000000e+00 1634890835
1.572568 -0.517545 -2.317880 0.000000000000000e+00 1634890835
1.499622 -0.593093 -2.303808 0.000000000000000e+00 1634890835
1.401060 -0.759956 -2.357444 0.000000000000000e+00 1634890835
1.287866 -0.804781 -2.278631 0.000000000000000e+00 1634890835
1.534497 -0.503801 -2.302450 0.000000000000000e+00 1634890835
1.477568 -0.583728 -2.311778 0.000000000000000e+00 1634890835
1.346518 -0.731091 -2.309836 0.000000000000000e+00 1634890835
1.257697 -0.787433 -2.270023 0.000000000000000e+00 1634890835
1.511144 -0.494907 -2.308446 0.000000000000000e+00 1634890835
1.468485 -0.579485 -2.340206 0.000000000000000e+00 1634890835
1.317454 -0.716034 -2.304375 0.000000000000000e+00 1634890835
1.262590 -0.792051 -2.325085 0.000000000000000e+00 1634890835
1.478937 -0.483131 -2.300404 0.000000000000000e+00 1634890835
1.438384 -0.566950 -2.335075 0.000000000000000e+00 1634890835
1.328389 -0.722726 -2.369512 0.000000000000000e+00 1634890835
1.207167 -0.758813 -2.268517 0.000000000000000e+00 1634890835
1.454286 -0.473840 -2.303549 0.000000000000000e+00 1634890835
1.398570 -0.550601 -2.313183 0.000000000000000e+00 1634890835
1.264909 -0.688923 -2.301340 0.000000000000000e+00 1634890835
1.193497 -0.751774 -2.289143 0.000000000000000e+00 1634890835
1.398477 -0.454434 -2.256069 0.000000000000000e+00 1634890835
1.363416 -0.536104 -2.297819 0.000000000000000e+00 1634890835
1.230509 -0.670921 -2.283860 0.000000000000000e+00 1634890835
1.179978 -0.744845 -2.310401 0.000000000000000e+00 1634890835
1.403553 -0.454827 -2.306399 0.000000000000000e+00 1634890835
1.385846 -0.544238 -2.380286 0.000000000000000e+00 1634890835
1.231036 -0.671967 -2.331300 0.000000000000000e+00 1634890835
1.140800 -0.721697 -2.280727 0.000000000000000e+00 1634890835
1.368420 -0.442184 -2.290847 0.000000000000000e+00 1634890835
1.347447 -0.528472 -2.358960 0.000000000000000e+00 1634890835
1.201817 -0.656778 -2.322696 0.000000000000000e+00 1634890835
1.127154 -0.714677 -2.301394 0.000000000000000e+00 1634890835
1.386069 -0.446576 -2.364277 0.000000000000000e+00 1634890835
1.297794 -0.508320 -2.316233 0.000000000000000e+00 1634890835
1.163065 -0.636362 -2.294421 0.000000000000000e+00 1634890835
1.098036 -0.697835 -2.290162 0.000000000000000e+00 1634890835
1.291838 -0.414962 -2.245575 0.000000000000000e+00 1634890835
1.270084 -0.496783 -2.311279 0.000000000000000e+00 1634890835
1.166926 -0.639260 -2.350284 0.000000000000000e+00 1634890835
1.057161 -0.673472 -2.252873 0.000000000000000e+00 1634890835
1.304427 -0.417704 -2.311098 0.000000000000000e+00 1634890835
1.232587 -0.481434 -2.287500 0.000000000000000e+00 1634890835
1.136137 -0.623183 -2.336755 0.000000000000000e+00 1634890835
1.064690 -0.679948 -2.318855 0.000000000000000e+00 1634890835
1.254259 -0.400352 -2.265382 0.000000000000000e+00 1634890835
1.223320 -0.477117 -2.315748 0.000000000000000e+00 1634890835
1.080509 -0.593446 -2.269965 0.000000000000000e+00 1634890835
1.024338 -0.655848 -2.280672 0.000000000000000e+00 1634890835
1.244860 -0.396037 -2.292509 0.000000000000000e+00 1634890835
1.180640 -0.459778 -2.280157 0.000000000000000e+00 1634890835
1.089228 -0.599045 -2.337902 0.000000000000000e+00 1634890835
0.984121 -0.631762 -2.240569 0.000000000000000e+00 1634890835
1.208508 -0.383157 -2.269659 0.000000000000000e+00 1634890835
1.182111 -0.459635 -2.329669 0.000000000000000e+00 1634890835
1.051825 -0.579281 -2.307178 0.000000000000000e+00 1634890835
0.986272 -0.634871 -2.296804 0.000000000000000e+00 1634890835
1.230467 -0.388739 -2.357167 0.000000000000000e+00 1634890835
1.138073 -0.441800 -2.289245 0.000000000000000e+00 1634890835
1.063203 -0.586392 -2.383985 0.000000000000000e+00 1634890835
0.955348 -0.616700 -2.276354 0.000000000000000e+00 1634890835
1.162941 -0.366061 -2.272903 0.000000000000000e+00 1634890835
1.120463 -0.434242 -2.300959 0.000000000000000e+00 1634890835
1.013171 -0.559632 -2.322982 0.000000000000000e+00 1634890835
0.951656 -0.616110 -2.320868 0.000000000000000e+00 1634890835
1.147273 -0.359760 -2.288181 0.000000000000000e+00 1634890835
1.119998 -0.433313 -2.348684 0.000000000000000e+00 1634890835
0.988270 -0.546721 -2.317641 0.000000000000000e+00 1634890835
0.910421 -0.591196 -2.273277 0.000000000000000e+00 1634890835
1.110691 -0.346921 -2.261102 0.000000000000000e+00 1634890835
1.083979 -0.418631 -2.321866 0.000000000000000e+00 1634890835
0.957620 -0.530614 -2.297792 0.000000000000000e+00 1634890835
0.906616 -0.590571 -2.318617 0.000000000000000e+00 1634890835
1.126541 -0.350438 -2.341448 0.000000000000000e+00 1634890835
1.050229 -0.404847 -2.298415 0.000000000000000e+00 1634890835
0.935359 -0.519139 -2.297147 0.000000000000000e+00 1634890835
0.879597 -0.574834 -2.304888 0.000000000000000e+00 1634890835
1.082741 -0.335390 -2.298191 0.000000000000000e+00 1634890835
1.034788 -0.398130 -2.314448 0.000000000000000e+00 1634890835
0.917052 -0.509855 -2.305959 0.000000000000000e+00 1634890835
0.859306 -0.563470 -2.308064 0.000000000000000e+00 1634890835
1.055843 -0.325621 -2.289301 0.000000000000000e+00 1634890835
1.017115 -0.390552 -2.325675 0.000000000000000e+00 1634890835
0.899752 -0.501131 -2.317337 0.000000000000000e+00 1634890835
0.831270 -0.546999 -2.289588 0.000000000000000e+00 1634890835
1.037066 -0.318369 -2.297611 0.000000000000000e+00 1634890835
0.992305 -0.380237 -2.320297 0.000000000000000e+00 1634890835
0.886038 -0.494410 -2.338286 0.000000000000000e+00 1634890835
0.458202 -0.302610 -1.294735 0.000000000000000e+00 1936876886
1.009500 -0.308432 -2.285986 0.000000000000000e+00 1634890835
0.948641 -0.362725 -2.269158 0.000000000000000e+00 1634890835
0.845532 -0.472721 -2.287362 0.000000000000000e+00 1634890835
0.427942 -0.283700 -1.241138 0.000000000000000e+00 1936876886
1.017146 -0.309229 -2.354967 0.000000000000000e+00 1634890835
0.932820 -0.355877 -2.283370 0.000000000000000e+00 1634890835
0.839747 -0.470432 -2.329709 0.000000000000000e+00 1634890835
0.431119 -0.286938 -1.283980 0.000000000000000e+00 1936876886
0.966009 -0.292164 -2.287498 0.000000000000000e+00 1634890835
0.919235 -0.349875 -2.303457 0.000000000000000e+00 1634890835
0.455380 -0.255642 -1.296210 0.000000000000000e+00 1936876886
0.340129 -0.227314 -1.040777 0.000000000000000e+00 1953264973
0.965113 -0.290319 -2.338228 0.000000000000000e+00 1634890835
0.922126 -0.350121 -2.366391 0.000000000000000e+00 1634890835
0.436371 -0.245508 -1.275018 0.000000000000000e+00 1936876886
0.326682 -0.219269 -1.027618 0.000000000000000e+00 1953264973
0.500773 -0.149789 -1.241760 0.000000000000000e+00 1936876886
0.868633 -0.328972 -2.283765 0.000000000000000e+00 1634890835
0.370145 -0.208724 -1.110742 0.000000000000000e+00 1953264973
0.279169 -0.188223 -0.903274 0.000000000000000e+00 1953264973
0.496645 -0.147677 -1.260949 0.000000000000000e+00 1936876886
0.868907 -0.328201 -2.341492 0.000000000000000e+00 1634890835
0.338643 -0.191417 -1.044239 0.000000000000000e+00 1953264973
0.261122 -0.176887 -0.869583 0.000000000000000e+00 1953264973
0.478091 -0.141281 -1.243350 0.000000000000000e+00 1936876886
0.841421 -0.316935 -2.325054 0.000000000000000e+00 1634890835
0.329585 -0.186764 -1.044941 0.000000000000000e+00 1953264973
0.250656 -0.170638 -0.859699 0.000000000000000e+00 1953264973
