# .PCD v0.7 - Point Cloud Data file format
VERSION 0.7
FIELDS x y z rgb label
SIZE 4 4 4 4 4
TYPE F F F F U
COUNT 1 1 1 1 1
WIDTH 528
HEIGHT 1
VIEWPOINT 0 0 0 1 0 0 0
POINTS 528
DATA ascii
33.701294 -17.201126 10.113811 0.000000000000000e+00 1954047316
30.864656 -11.466296 -2.241355 0.000000000000000e+00 1851878480
27.087982 -10.055607 -2.213403 0.000000000000000e+00 1851878480
27.316059 -11.418173 -2.176949 0.000000000000000e+00 1851878480
30.128557 -15.557343 -2.231003 0.000000000000000e+00 1851878480
24.305782 -9.015942 -2.207310 0.000000000000000e+00 1851878480
24.420271 -10.204143 -2.175273 0.000000000000000e+00 1851878480
23.771212 -12.278426 -1.998108 0.000000000000000e+00 1851878480
23.426960 -13.324583 -1.890215 0.000000000000000e+00 1851878480
22.170099 -8.217471 -2.215401 0.000000000000000e+00 1851878480
22.258106 -9.297407 -2.191754 0.000000000000000e+00 1851878480
21.883350 -11.306818 -2.058717 0.000000000000000e+00 1851878480
21.342199 -12.146012 -1.943389 0.000000000000000e+00 1851878480
20.380566 -7.548414 -2.222555 0.000000000000000e+00 1851878480
20.395809 -8.516504 -2.200232 0.000000000000000e+00 1851878480
20.346716 -10.516118 -2.118381 0.000000000000000e+00 1851878480
19.943144 -11.356535 -2.023225 0.000000000000000e+00 1851878480
18.913242 -6.999604 -2.235388 0.000000000000000e+00 1851878480
18.869602 -7.876440 -2.213372 0.000000000000000e+00 1851878480
18.964558 -9.804814 -2.165177 0.000000000000000e+00 1851878480
18.767031 -10.693143 -2.099299 0.000000000000000e+00 1851878480
17.577658 -6.500332 -2.238436 0.000000000000000e+00 1851878480
17.572056 -7.332232 -2.227018 0.000000000000000e+00 1851878480
17.624645 -9.114912 -2.189772 0.000000000000000e+00 1851878480
17.751839 -10.120727 -2.170946 0.000000000000000e+00 1851878480
16.396877 -6.059021 -2.238436 0.000000000000000e+00 1851878480
16.435862 -6.855714 -2.238438 0.000000000000000e+00 1851878480
16.460394 -8.515463 -2.211315 0.000000000000000e+00 1851878480
16.543173 -9.437265 -2.196123 0.000000000000000e+00 1851878480
15.362922 -5.672592 -2.238438 0.000000000000000e+00 1851878480
15.366794 -6.407504 -2.238437 0.000000000000000e+00 1851878480
15.369767 -7.953737 -2.220331 0.000000000000000e+00 1851878480
15.449305 -8.818523 -2.212846 0.000000000000000e+00 1851878480
14.449839 -5.331326 -2.238436 0.000000000000000e+00 1851878480
14.426381 -6.013239 -2.238437 0.000000000000000e+00 1851878480
14.453191 -7.481766 -2.234532 0.000000000000000e+00 1851878480
14.502327 -8.282945 -2.229609 0.000000000000000e+00 1851878480
13.637497 -5.027726 -2.238436 0.000000000000000e+00 1851878480
13.592600 -5.663686 -2.238436 0.000000000000000e+00 1851878480
13.577838 -7.030852 -2.237289 0.000000000000000e+00 1851878480
13.591294 -7.767276 -2.232764 0.000000000000000e+00 1851878480
12.909998 -4.755833 -2.238437 0.000000000000000e+00 1851878480
12.848184 -5.351588 -2.238437 0.000000000000000e+00 1851878480
12.793023 -6.626552 -2.238437 0.000000000000000e+00 1851878480
12.785612 -7.311238 -2.235528 0.000000000000000e+00 1851878480
12.254601 -4.510883 -2.238437 0.000000000000000e+00 1851878480
12.179384 -5.071205 -2.238437 0.000000000000000e+00 1851878480
12.086501 -6.262572 -2.238437 0.000000000000000e+00 1851878480
12.068106 -6.905120 -2.238006 0.000000000000000e+00 1851878480
11.661040 -4.289051 -2.238438 0.000000000000000e+00 1851878480
11.575182 -4.817895 -2.238437 0.000000000000000e+00 1851878480
11.452114 -5.935749 -2.238437 0.000000000000000e+00 1851878480
11.415781 -6.535824 -2.238437 0.000000000000000e+00 1851878480
11.120868 -4.087169 -2.238438 0.000000000000000e+00 1851878480
11.026558 -4.587884 -2.238437 0.000000000000000e+00 1851878480
10.879246 -5.640616 -2.238437 0.000000000000000e+00 1851878480
10.826596 -6.202269 -2.238437 0.000000000000000e+00 1851878480
10.627123 -3.902642 -2.238437 0.000000000000000e+00 1851878480
10.526111 -4.378076 -2.238437 0.000000000000000e+00 1851878480
10.359290 -5.372747 -2.238438 0.000000000000000e+00 1851878480
10.293448 -5.900440 -2.238438 0.000000000000000e+00 1851878480
10.173991 -3.733298 -2.238437 0.000000000000000e+00 1851878480
10.067679 -4.185881 -2.238438 0.000000000000000e+00 1851878480
9.885149 -5.128490 -2.238438 0.000000000000000e+00 1851878480
9.808614 -5.625964 -2.238437 0.000000000000000e+00 1851878480
9.756619 -3.577315 -2.238437 0.000000000000000e+00 1851878480
9.646153 -4.009161 -2.238438 0.000000000000000e+00 1851878480
9.450988 -4.904819 -2.238438 0.000000000000000e+00 1851878480
9.365770 -5.375262 -2.238438 0.000000000000000e+00 1851878480
9.370876 -3.433157 -2.238437 0.000000000000000e+00 1851878480
9.257170 -3.846084 -2.238437 0.000000000000000e+00 1851878480
9.051876 -4.699210 -2.238438 0.000000000000000e+00 1851878480
8.959612 -5.145330 -2.238437 0.000000000000000e+00 1851878480
9.013246 -3.299503 -2.238437 0.000000000000000e+00 1851878480
8.897066 -3.695113 -2.238437 0.000000000000000e+00 1851878480
8.683690 -4.509529 -2.238438 0.000000000000000e+00 1851878480
8.585712 -4.933657 -2.238437 0.000000000000000e+00 1851878480
8.680711 -3.175235 -2.238437 0.000000000000000e+00 1851878480
8.562679 -3.554926 -2.238437 0.000000000000000e+00 1851878480
8.342909 -4.333970 -2.238437 0.000000000000000e+00 1851878480
8.240314 -4.738126 -2.238437 0.000000000000000e+00 1851878480
8.370683 -3.059377 -2.238438 0.000000000000000e+00 1851878480
8.251310 -3.424388 -2.238437 0.000000000000000e+00 1851878480
8.026540 -4.170989 -2.238438 0.000000000000000e+00 1851878480
7.920235 -4.556930 -2.238438 0.000000000000000e+00 1851878480
8.080901 -2.951082 -2.238438 0.000000000000000e+00 1851878480
7.960611 -3.302519 -2.238437 0.000000000000000e+00 1851878480
7.731998 -4.019247 -2.238438 0.000000000000000e+00 1851878480
7.622733 -4.388512 -2.238438 0.000000000000000e+00 1851878480
7.809418 -2.849625 -2.238438 0.000000000000000e+00 1851878480
7.688565 -3.188468 -2.238437 0.000000000000000e+00 1851878480
7.457070 -3.877615 -2.238437 0.000000000000000e+00 1851878480
7.345471 -4.231554 -2.238438 0.000000000000000e+00 1851878480
7.554510 -2.754368 -2.238437 0.000000000000000e+00 1851878480
7.433391 -3.081489 -2.238437 0.000000000000000e+00 1851878480
7.199819 -3.745089 -2.238437 0.000000000000000e+00 1851878480
7.086405 -4.084903 -2.238437 0.000000000000000e+00 1851878480
7.314676 -2.664743 -2.238437 0.000000000000000e+00 1851878480
7.193528 -2.980932 -2.238437 0.000000000000000e+00 1851878480
6.958558 -3.620798 -2.238437 0.000000000000000e+00 1851878480
6.843770 -3.947546 -2.238437 0.000000000000000e+00 1851878480
7.088572 -2.580255 -2.238437 0.000000000000000e+00 1851878480
6.967602 -2.886217 -2.238437 0.000000000000000e+00 1851878480
6.731794 -3.503978 -2.238437 0.000000000000000e+00 1851878480
6.616004 -3.818612 -2.238437 0.000000000000000e+00 1851878480
6.875039 -2.500459 -2.238438 0.000000000000000e+00 1851878480
6.754413 -2.796840 -2.238438 0.000000000000000e+00 1851878480
6.518243 -3.393963 -2.238437 0.000000000000000e+00 1851878480
6.401759 -3.697334 -2.238437 0.000000000000000e+00 1851878480
6.673018 -2.424968 -2.238437 0.000000000000000e+00 1851878480
6.552876 -2.712350 -2.238437 0.000000000000000e+00 1851878480
6.316743 -3.290163 -2.238437 0.000000000000000e+00 1851878480
6.199831 -3.583026 -2.238437 0.000000000000000e+00 1851878480
6.481577 -2.353431 -2.238437 0.000000000000000e+00 1851878480
6.362036 -2.632344 -2.238437 0.000000000000000e+00 1851878480
6.126277 -3.192041 -2.238437 0.000000000000000e+00 1851878480
6.009157 -3.475094 -2.238437 0.000000000000000e+00 1851878480
6.299880 -2.285538 -2.238437 0.000000000000000e+00 1851878480
6.181035 -2.556465 -2.238437 0.000000000000000e+00 1851878480
5.945935 -3.099137 -2.238438 0.000000000000000e+00 1851878480
5.828794 -3.372998 -2.238438 0.000000000000000e+00 1851878480
6.127174 -2.221003 -2.238437 0.000000000000000e+00 1851878480
6.009106 -2.484384 -2.238437 0.000000000000000e+00 1851878480
5.774899 -3.011026 -2.238438 0.000000000000000e+00 1851878480
5.657898 -3.276261 -2.238438 0.000000000000000e+00 1851878480
5.962794 -2.159581 -2.238438 0.000000000000000e+00 1851878480
5.845565 -2.415826 -2.238438 0.000000000000000e+00 1851878480
5.612449 -2.927339 -2.238438 0.000000000000000e+00 1851878480
5.495727 -3.184460 -2.238438 0.000000000000000e+00 1851878480
5.806120 -2.101041 -2.238438 0.000000000000000e+00 1851878480
5.689785 -2.350520 -2.238438 0.000000000000000e+00 1851878480
5.457928 -2.847737 -2.238437 0.000000000000000e+00 1851878480
5.341595 -3.097216 -2.238438 0.000000000000000e+00 1851878480
5.656604 -2.045174 -2.238438 0.000000000000000e+00 1851878480
5.541207 -2.288232 -2.238438 0.000000000000000e+00 1851878480
5.310749 -2.771917 -2.238437 0.000000000000000e+00 1851878480
5.194903 -3.014181 -2.238438 0.000000000000000e+00 1851878480
5.513750 -1.991797 -2.238438 0.000000000000000e+00 1851878480
5.399324 -2.228750 -2.238438 0.000000000000000e+00 1851878480
5.170380 -2.699605 -2.238438 0.000000000000000e+00 1851878480
5.055099 -2.935050 -2.238438 0.000000000000000e+00 1851878480
5.377092 -1.940738 -2.238438 0.000000000000000e+00 1851878480
5.263663 -2.171881 -2.238438 0.000000000000000e+00 1851878480
5.036330 -2.630551 -2.238438 0.000000000000000e+00 1851878480
4.921687 -2.859535 -2.238437 0.000000000000000e+00 1851878480
5.246228 -1.891842 -2.238438 0.000000000000000e+00 1851878480
5.133817 -2.117446 -2.238437 0.000000000000000e+00 1851878480
4.908175 -2.564531 -2.238438 0.000000000000000e+00 1851878480
4.794224 -2.787388 -2.238437 0.000000000000000e+00 1851878480
5.120777 -1.844970 -2.238438 0.000000000000000e+00 1851878480
5.009399 -2.065289 -2.238438 0.000000000000000e+00 1851878480
4.785507 -2.501341 -2.238438 0.000000000000000e+00 1851878480
4.672302 -2.718377 -2.238438 0.000000000000000e+00 1851878480
5.000390 -1.799992 -2.238438 0.000000000000000e+00 1851878480
4.890056 -2.015258 -2.238438 0.000000000000000e+00 1851878480
4.667969 -2.440788 -2.238438 0.000000000000000e+00 1851878480
4.555543 -2.652292 -2.238437 0.000000000000000e+00 1851878480
4.884749 -1.756789 -2.238438 0.000000000000000e+00 1851878480
4.775468 -1.967222 -2.238438 0.000000000000000e+00 1851878480
4.555223 -2.382709 -2.238437 0.000000000000000e+00 1851878480
4.443615 -2.588939 -2.238437 0.000000000000000e+00 1851878480
4.773566 -1.715247 -2.238438 0.000000000000000e+00 1851878480
4.665335 -1.921054 -2.238438 0.000000000000000e+00 1851878480
4.446966 -2.326941 -2.238437 0.000000000000000e+00 1851878480
4.336200 -2.528142 -2.238437 0.000000000000000e+00 1851878480
4.666571 -1.675275 -2.238438 0.000000000000000e+00 1851878480
4.559396 -1.876642 -2.238438 0.000000000000000e+00 1851878480
4.342924 -2.273346 -2.238437 0.000000000000000e+00 1851878480
4.233023 -2.469745 -2.238438 0.000000000000000e+00 1851878480
4.563518 -1.636774 -2.238438 0.000000000000000e+00 1851878480
4.457396 -1.833883 -2.238438 0.000000000000000e+00 1851878480
4.242837 -2.221787 -2.238437 0.000000000000000e+00 1851878480
4.133818 -2.413597 -2.238438 0.000000000000000e+00 1851878480
4.464177 -1.599664 -2.238438 0.000000000000000e+00 1851878480
4.359104 -1.792678 -2.238438 0.000000000000000e+00 1851878480
4.146470 -2.172143 -2.238438 0.000000000000000e+00 1851878480
4.038344 -2.359562 -2.238438 0.000000000000000e+00 1851878480
4.368337 -1.563859 -2.238437 0.000000000000000e+00 1851878480
4.264308 -1.752938 -2.238438 0.000000000000000e+00 1851878480
4.053602 -2.124304 -2.238438 0.000000000000000e+00 1851878480
3.946381 -2.307512 -2.238438 0.000000000000000e+00 1851878480
4.275806 -1.529293 -2.238438 0.000000000000000e+00 1851878480
4.172813 -1.714584 -2.238438 0.000000000000000e+00 1851878480
3.964036 -2.078166 -2.238438 0.000000000000000e+00 1851878480
3.857725 -2.257338 -2.238437 0.000000000000000e+00 1851878480
4.186401 -1.495893 -2.238438 0.000000000000000e+00 1851878480
4.084437 -1.677536 -2.238438 0.000000000000000e+00 1851878480
3.877584 -2.033633 -2.238438 0.000000000000000e+00 1851878480
3.772190 -2.208929 -2.238438 0.000000000000000e+00 1851878480
4.099954 -1.463601 -2.238438 0.000000000000000e+00 1851878480
3.999008 -1.641725 -2.238438 0.000000000000000e+00 1851878480
3.794075 -1.990615 -2.238437 0.000000000000000e+00 1851878480
3.689599 -2.162189 -2.238438 0.000000000000000e+00 1851878480
4.088592 -1.458133 -2.278724 0.000000000000000e+00 1634890835
3.916371 -1.607084 -2.238438 0.000000000000000e+00 1851878480
3.713348 -1.949031 -2.238438 0.000000000000000e+00 1851878480
3.609789 -2.117021 -2.238438 0.000000000000000e+00 1851878480
4.006143 -1.427335 -2.278724 0.000000000000000e+00 1634890835
3.836379 -1.573551 -2.238437 0.000000000000000e+00 1851878480
3.635253 -1.908803 -2.238437 0.000000000000000e+00 1851878480
3.532612 -2.073344 -2.238437 0.000000000000000e+00 1851878480
3.926258 -1.397494 -2.278723 0.000000000000000e+00 1634890835
3.758893 -1.541070 -2.238438 0.000000000000000e+00 1851878480
3.559653 -1.869857 -2.238437 0.000000000000000e+00 1851878480
3.457925 -2.031078 -2.238438 0.000000000000000e+00 1851878480
3.848812 -1.368566 -2.278723 0.000000000000000e+00 1634890835
3.683790 -1.509587 -2.238437 0.000000000000000e+00 1851878480
3.486421 -1.832134 -2.238438 0.000000000000000e+00 1851878480
3.385601 -1.990149 -2.238437 0.000000000000000e+00 1851878480
3.773680 -1.340504 -2.278723 0.000000000000000e+00 1634890835
3.610950 -1.479055 -2.238437 0.000000000000000e+00 1851878480
3.415432 -1.795568 -2.238437 0.000000000000000e+00 1851878480
3.315519 -1.950489 -2.238437 0.000000000000000e+00 1851878480
3.700751 -1.313264 -2.278723 0.000000000000000e+00 1634890835
3.346578 -1.760101 -2.238437 0.000000000000000e+00 1851878480
3.247562 -1.912035 -2.238437 0.000000000000000e+00 1851878480
3.629918 -1.286808 -2.278723 0.000000000000000e+00 1634890835
3.534098 -1.446215 -2.278723 0.000000000000000e+00 1634890835
3.279752 -1.725677 -2.238437 0.000000000000000e+00 1851878480
3.181629 -1.874723 -2.238437 0.000000000000000e+00 1851878480
3.561084 -1.261098 -2.278723 0.000000000000000e+00 1634890835
3.466206 -1.417757 -2.278723 0.000000000000000e+00 1634890835
3.214857 -1.692249 -2.238437 0.000000000000000e+00 1851878480
3.117619 -1.838501 -2.238437 0.000000000000000e+00 1851878480
3.494156 -1.236100 -2.278723 0.000000000000000e+00 1634890835
3.400207 -1.390090 -2.278723 0.000000000000000e+00 1634890835
3.151800 -1.659767 -2.238437 0.000000000000000e+00 1851878480
3.055439 -1.803316 -2.238438 0.000000000000000e+00 1851878480
3.429044 -1.211783 -2.278723 0.000000000000000e+00 1634890835
3.336011 -1.363180 -2.278723 0.000000000000000e+00 1634890835
3.090495 -1.628188 -2.238437 0.000000000000000e+00 1851878480
2.995002 -1.769117 -2.238437 0.000000000000000e+00 1851878480
3.365669 -1.188115 -2.278723 0.000000000000000e+00 1634890835
3.273539 -1.336995 -2.278724 0.000000000000000e+00 1634890835
3.030861 -1.597471 -2.238438 0.000000000000000e+00 1851878480
2.936228 -1.735860 -2.238437 0.000000000000000e+00 1851878480
3.303951 -1.165062 -2.278723 0.000000000000000e+00 1634890835
3.212709 -1.311495 -2.278724 0.000000000000000e+00 1634890835
2.972819 -1.567572 -2.238437 0.000000000000000e+00 1851878480
2.879038 -1.703499 -2.238438 0.000000000000000e+00 1851878480
3.243819 -1.142606 -2.278724 0.000000000000000e+00 1634890835
3.153452 -1.286656 -2.278724 0.000000000000000e+00 1634890835
2.916301 -1.538460 -2.238437 0.000000000000000e+00 1851878480
2.823361 -1.671995 -2.238437 0.000000000000000e+00 1851878480
3.185201 -1.120716 -2.278724 0.000000000000000e+00 1634890835
3.095699 -1.262447 -2.278724 0.000000000000000e+00 1634890835
2.861239 -1.510097 -2.238438 0.000000000000000e+00 1851878480
2.769129 -1.641310 -2.238437 0.000000000000000e+00 1851878480
3.128038 -1.099367 -2.278724 0.000000000000000e+00 1634890835
3.039384 -1.238843 -2.278724 0.000000000000000e+00 1634890835
2.807567 -1.482452 -2.238437 0.000000000000000e+00 1851878480
2.716282 -1.611408 -2.238437 0.000000000000000e+00 1851878480
3.072262 -1.078539 -2.278724 0.000000000000000e+00 1634890835
2.984447 -1.215814 -2.278724 0.000000000000000e+00 1634890835
2.755226 -1.455490 -2.238438 0.000000000000000e+00 1851878480
0.840392 -0.499001 -0.705944 0.000000000000000e+00 1886740808
3.017818 -1.058208 -2.278724 0.000000000000000e+00 1634890835
2.930828 -1.193339 -2.278724 0.000000000000000e+00 1634890835
2.752827 -1.454909 -2.278724 0.000000000000000e+00 1634890835
0.824541 -0.490031 -0.705944 0.000000000000000e+00 1886740808
2.964652 -1.038355 -2.278724 0.000000000000000e+00 1634890835
2.878474 -1.171396 -2.278724 0.000000000000000e+00 1634890835
0.837100 -0.442630 -0.705944 0.000000000000000e+00 1886740808
0.809071 -0.481279 -0.705944 0.000000000000000e+00 1886740808
2.912713 -1.018960 -2.278724 0.000000000000000e+00 1634890835
2.827335 -1.149958 -2.278724 0.000000000000000e+00 1634890835
0.821749 -0.434723 -0.705944 0.000000000000000e+00 1886740808
0.793967 -0.472734 -0.705944 0.000000000000000e+00 1886740808
2.861949 -1.000004 -2.278724 0.000000000000000e+00 1634890835
2.777359 -1.129011 -2.278724 0.000000000000000e+00 1634890835
0.806752 -0.426999 -0.705944 0.000000000000000e+00 1886740808
0.779214 -0.464387 -0.705944 0.000000000000000e+00 1886740808
2.812314 -0.981472 -2.278724 0.000000000000000e+00 1634890835
2.728501 -1.108532 -2.278724 0.000000000000000e+00 1634890835
0.792095 -0.419449 -0.705944 0.000000000000000e+00 1886740808
0.764797 -0.456231 -0.705944 0.000000000000000e+00 1886740808
2.763763 -0.963342 -2.278724 0.000000000000000e+00 1634890835
0.830479 -0.337216 -0.705944 0.000000000000000e+00 1886740808
0.777763 -0.412067 -0.705944 0.000000000000000e+00 1886740808
0.750703 -0.448257 -0.705944 0.000000000000000e+00 1886740808
0.841490 -0.292946 -0.705944 0.000000000000000e+00 1886740808
0.815995 -0.331144 -0.705944 0.000000000000000e+00 1886740808
0.763744 -0.404846 -0.705944 0.000000000000000e+00 1886740808
0.744294 -0.444867 -0.713009 0.000000000000000e+00 1886740808
0.827083 -0.287567 -0.705944 0.000000000000000e+00 1886740808
0.801818 -0.325202 -0.705944 0.000000000000000e+00 1886740808
0.750026 -0.397780 -0.705944 0.000000000000000e+00 1886740808
0.744294 -0.445310 -0.726300 0.000000000000000e+00 1886740808
0.812976 -0.282300 -0.705944 0.000000000000000e+00 1886740808
0.787937 -0.319383 -0.705944 0.000000000000000e+00 1886740808
0.744294 -0.394947 -0.713320 0.000000000000000e+00 1886740808
0.744294 -0.445761 -0.739799 0.000000000000000e+00 1886740808
0.799155 -0.277140 -0.705944 0.000000000000000e+00 1886740808
0.774339 -0.313685 -0.705944 0.000000000000000e+00 1886740808
0.744294 -0.395158 -0.726287 0.000000000000000e+00 1886740808
0.744294 -0.446219 -0.753512 0.000000000000000e+00 1886740808
0.785612 -0.272084 -0.705944 0.000000000000000e+00 1886740808
0.761016 -0.308100 -0.705944 0.000000000000000e+00 1886740808
0.744294 -0.395372 -0.739456 0.000000000000000e+00 1886740808
0.744294 -0.446685 -0.767446 0.000000000000000e+00 1886740808
0.772336 -0.267127 -0.705944 0.000000000000000e+00 1886740808
0.747956 -0.302626 -0.705944 0.000000000000000e+00 1886740808
0.744294 -0.395589 -0.752833 0.000000000000000e+00 1886740808
0.744294 -0.447157 -0.781609 0.000000000000000e+00 1886740808
0.759317 -0.262267 -0.705944 0.000000000000000e+00 1886740808
0.744294 -0.300956 -0.714724 0.000000000000000e+00 1886740808
0.744294 -0.395810 -0.766425 0.000000000000000e+00 1886740808
0.744294 -0.447639 -0.796008 0.000000000000000e+00 1886740808
0.746546 -0.257499 -0.705944 0.000000000000000e+00 1886740808
0.744294 -0.300765 -0.727148 0.000000000000000e+00 1886740808
0.744294 -0.396034 -0.780240 0.000000000000000e+00 1886740808
2.092190 -1.259677 -2.278724 0.000000000000000e+00 1634890835
0.744294 -0.256361 -0.715830 0.000000000000000e+00 1886740808
0.744294 -0.300570 -0.739766 0.000000000000000e+00 1886740808
0.744294 -0.396262 -0.794287 0.000000000000000e+00 1886740808
2.054431 -1.238317 -2.278724 0.000000000000000e+00 1634890835
0.744294 -0.255996 -0.728032 0.000000000000000e+00 1886740808
0.744294 -0.300373 -0.752585 0.000000000000000e+00 1886740808
2.097576 -1.117403 -2.278724 0.000000000000000e+00 1634890835
2.017380 -1.217359 -2.278724 0.000000000000000e+00 1634890835
0.744294 -0.255623 -0.740423 0.000000000000000e+00 1886740808
0.744294 -0.300172 -0.765610 0.000000000000000e+00 1886740808
2.060542 -1.098329 -2.278724 0.000000000000000e+00 1634890835
0.796276 -0.481053 -0.915943 0.000000000000000e+00 1886740808
0.744294 -0.255246 -0.753012 0.000000000000000e+00 1886740808
0.744294 -0.299969 -0.778849 0.000000000000000e+00 1886740808
2.024175 -1.079598 -2.278724 0.000000000000000e+00 1634890835
0.784636 -0.474577 -0.919124 0.000000000000000e+00 1886740808
0.744294 -0.254862 -0.765805 0.000000000000000e+00 1886740808
0.744294 -0.299762 -0.792310 0.000000000000000e+00 1886740808
1.988451 -1.061197 -2.278724 0.000000000000000e+00 1634890835
0.775674 -0.469714 -0.925309 0.000000000000000e+00 1886740808
0.744294 -0.254473 -0.778809 0.000000000000000e+00 1886740808
2.104270 -0.846890 -2.278724 0.000000000000000e+00 1634890835
0.797389 -0.425819 -0.930214 0.000000000000000e+00 1886740808
0.768824 -0.466130 -0.933990 0.000000000000000e+00 1886740808
0.744294 -0.254076 -0.792031 0.000000000000000e+00 1886740808
2.068527 -0.831911 -2.278724 0.000000000000000e+00 1634890835
0.785519 -0.419748 -0.932845 0.000000000000000e+00 1886740808
0.764549 -0.464111 -0.945879 0.000000000000000e+00 1886740808
0.744294 -0.253673 -0.805477 0.000000000000000e+00 1886740808
2.033382 -0.817180 -2.278724 0.000000000000000e+00 1634890835
0.776431 -0.415161 -0.938648 0.000000000000000e+00 1886740808
1.808580 -1.099257 -2.278724 0.000000000000000e+00 1634890835
2.070470 -0.704525 -2.278724 0.000000000000000e+00 1634890835
1.998812 -0.802691 -2.278725 0.000000000000000e+00 1634890835
0.769417 -0.411684 -0.946931 0.000000000000000e+00 1886740808
1.775828 -1.080734 -2.278724 0.000000000000000e+00 1634890835
2.035870 -0.691611 -2.278724 0.000000000000000e+00 1634890835
1.964798 -0.788435 -2.278724 0.000000000000000e+00 1634890835
0.764805 -0.409492 -0.958244 0.000000000000000e+00 1886740808
0.749057 -0.456456 -0.978943 0.000000000000000e+00 1886740808
2.001816 -0.678901 -2.278724 0.000000000000000e+00 1634890835
1.931322 -0.774404 -2.278724 0.000000000000000e+00 1634890835
0.767167 -0.411039 -0.978584 0.000000000000000e+00 1886740808
1.711905 -1.044580 -2.278724 0.000000000000000e+00 1634890835
1.968291 -0.666388 -2.278724 0.000000000000000e+00 1634890835
0.797682 -0.319597 -0.957507 0.000000000000000e+00 1886740808
1.754621 -0.940767 -2.278724 0.000000000000000e+00 1634890835
1.680699 -1.026931 -2.278724 0.000000000000000e+00 1634890835
1.935278 -0.654067 -2.278724 0.000000000000000e+00 1634890835
0.785811 -0.314588 -0.959661 0.000000000000000e+00 1886740808
0.751063 -0.402982 -0.993127 0.000000000000000e+00 1886740808
1.649974 -1.009554 -2.278724 0.000000000000000e+00 1634890835
1.902760 -0.641932 -2.278724 0.000000000000000e+00 1634890835
0.776731 -0.310699 -0.965105 0.000000000000000e+00 1886740808
1.692476 -0.908758 -2.278724 0.000000000000000e+00 1634890835
1.619714 -0.992441 -2.278724 0.000000000000000e+00 1634890835
0.796758 -0.268312 -0.970531 0.000000000000000e+00 1886740808
0.769655 -0.307611 -0.973022 0.000000000000000e+00 1886740808
1.662096 -0.893112 -2.278724 0.000000000000000e+00 1634890835
1.589905 -0.975582 -2.278724 0.000000000000000e+00 1634890835
0.785168 -0.263918 -0.972832 0.000000000000000e+00 1886740808
0.764879 -0.305442 -0.983924 0.000000000000000e+00 1886740808
1.632159 -0.877694 -2.278724 0.000000000000000e+00 1634890835
1.560531 -0.958972 -2.278724 0.000000000000000e+00 1634890835
0.776222 -0.260416 -0.978303 0.000000000000000e+00 1886740808
0.765616 -0.305471 -1.002180 0.000000000000000e+00 1886740808
1.602651 -0.862497 -2.278725 0.000000000000000e+00 1634890835
1.531580 -0.942599 -2.278724 0.000000000000000e+00 1634890835
0.769282 -0.257587 -0.986297 0.000000000000000e+00 1886740808
1.710670 -0.681928 -2.278724 0.000000000000000e+00 1634890835
1.573558 -0.847513 -2.278724 0.000000000000000e+00 1634890835
1.503035 -0.926457 -2.278724 0.000000000000000e+00 1634890835
0.764661 -0.255532 -0.997356 0.000000000000000e+00 1886740808
1.680923 -0.669461 -2.278724 0.000000000000000e+00 1634890835
1.544868 -0.832736 -2.278724 0.000000000000000e+00 1634890835
1.474887 -0.910539 -2.278724 0.000000000000000e+00 1634890835
0.766222 -0.255534 -1.016767 0.000000000000000e+00 1886740808
0.744043 -0.296055 -1.026576 0.000000000000000e+00 1886740808
1.516566 -0.818160 -2.278724 0.000000000000000e+00 1634890835
1.447122 -0.894838 -2.278724 0.000000000000000e+00 1634890835
1.687756 -0.561695 -2.278724 0.000000000000000e+00 1634890835
1.622622 -0.645028 -2.278724 0.000000000000000e+00 1634890835
1.488641 -0.803778 -2.278724 0.000000000000000e+00 1634890835
1.419727 -0.879346 -2.278724 0.000000000000000e+00 1634890835
0.752073 -0.249763 -1.033210 0.000000000000000e+00 1886740808
1.594045 -0.633051 -2.278724 0.000000000000000e+00 1634890835
1.461080 -0.789586 -2.278724 0.000000000000000e+00 1634890835
1.392690 -0.864059 -2.278724 0.000000000000000e+00 1634890835
1.629981 -0.540137 -2.278724 0.000000000000000e+00 1634890835
1.565836 -0.621228 -2.278724 0.000000000000000e+00 1634890835
1.433876 -0.775574 -2.278724 0.000000000000000e+00 1634890835
1.366003 -0.848967 -2.278724 0.000000000000000e+00 1634890835
1.601640 -0.529562 -2.278725 0.000000000000000e+00 1634890835
1.537980 -0.609555 -2.278724 0.000000000000000e+00 1634890835
1.407013 -0.761740 -2.278725 0.000000000000000e+00 1634890835
1.339652 -0.834066 -2.278724 0.000000000000000e+00 1634890835
1.573650 -0.519119 -2.278724 0.000000000000000e+00 1634890835
1.510469 -0.598025 -2.278724 0.000000000000000e+00 1634890835
1.380483 -0.748076 -2.278724 0.000000000000000e+00 1634890835
1.313627 -0.819351 -2.278724 0.000000000000000e+00 1634890835
1.546003 -0.508802 -2.278724 0.000000000000000e+00 1634890835
1.483294 -0.586635 -2.278725 0.000000000000000e+00 1634890835
1.354276 -0.734579 -2.278725 0.000000000000000e+00 1634890835
1.287919 -0.804814 -2.278724 0.000000000000000e+00 1634890835
1.518684 -0.498609 -2.278724 0.000000000000000e+00 1634890835
1.456442 -0.575382 -2.278725 0.000000000000000e+00 1634890835
1.328381 -0.721244 -2.278725 0.000000000000000e+00 1634890835
1.262518 -0.790451 -2.278724 0.000000000000000e+00 1634890835
1.491687 -0.488534 -2.278724 0.000000000000000e+00 1634890835
1.429905 -0.564261 -2.278725 0.000000000000000e+00 1634890835
1.302790 -0.708063 -2.278724 0.000000000000000e+00 1634890835
1.237415 -0.776258 -2.278725 0.000000000000000e+00 1634890835
1.464999 -0.478578 -2.278725 0.000000000000000e+00 1634890835
1.403672 -0.553268 -2.278724 0.000000000000000e+00 1634890835
1.277491 -0.695035 -2.278724 0.000000000000000e+00 1634890835
1.212599 -0.762227 -2.278724 0.000000000000000e+00 1634890835
1.438614 -0.468734 -2.278725 0.000000000000000e+00 1634890835
1.377735 -0.542399 -2.278724 0.000000000000000e+00 1634890835
1.252479 -0.682153 -2.278724 0.000000000000000e+00 1634890835
1.188065 -0.748353 -2.278724 0.000000000000000e+00 1634890835
1.412521 -0.458998 -2.278725 0.000000000000000e+00 1634890835
1.352086 -0.531649 -2.278725 0.000000000000000e+00 1634890835
1.227742 -0.669413 -2.278724 0.000000000000000e+00 1634890835
1.163800 -0.734633 -2.278725 0.000000000000000e+00 1634890835
1.386712 -0.449370 -2.278725 0.000000000000000e+00 1634890835
1.326716 -0.521016 -2.278724 0.000000000000000e+00 1634890835
1.203273 -0.656813 -2.278725 0.000000000000000e+00 1634890835
1.139798 -0.721064 -2.278725 0.000000000000000e+00 1634890835
1.361179 -0.439844 -2.278725 0.000000000000000e+00 1634890835
1.301616 -0.510497 -2.278725 0.000000000000000e+00 1634890835
1.179065 -0.644345 -2.278725 0.000000000000000e+00 1634890835
1.116051 -0.707637 -2.278724 0.000000000000000e+00 1634890835
1.335914 -0.430416 -2.278725 0.000000000000000e+00 1634890835
1.276777 -0.500088 -2.278724 0.000000000000000e+00 1634890835
1.155108 -0.632008 -2.278725 0.000000000000000e+00 1634890835
1.092552 -0.694349 -2.278724 0.000000000000000e+00 1634890835
1.310908 -0.421088 -2.278725 0.000000000000000e+00 1634890835
1.252194 -0.489786 -2.278725 0.000000000000000e+00 1634890835
1.131397 -0.619796 -2.278724 0.000000000000000e+00 1634890835
1.069292 -0.681200 -2.278724 0.000000000000000e+00 1634890835
1.286155 -0.411853 -2.278724 0.000000000000000e+00 1634890835
1.227859 -0.479587 -2.278725 0.000000000000000e+00 1634890835
1.107923 -0.607707 -2.278724 0.000000000000000e+00 1634890835
1.046265 -0.668180 -2.278725 0.000000000000000e+00 1634890835
1.261646 -0.402710 -2.278724 0.000000000000000e+00 1634890835
1.203762 -0.469489 -2.278725 0.000000000000000e+00 1634890835
1.084679 -0.595736 -2.278725 0.000000000000000e+00 1634890835
1.023463 -0.655289 -2.278725 0.000000000000000e+00 1634890835
1.237375 -0.393656 -2.278724 0.000000000000000e+00 1634890835
1.179898 -0.459489 -2.278725 0.000000000000000e+00 1634890835
1.061657 -0.583881 -2.278724 0.000000000000000e+00 1634890835
1.000880 -0.642521 -2.278725 0.000000000000000e+00 1634890835
1.213335 -0.384687 -2.278725 0.000000000000000e+00 1634890835
1.156261 -0.449584 -2.278724 0.000000000000000e+00 1634890835
1.038853 -0.572137 -2.278724 0.000000000000000e+00 1634890835
0.978509 -0.629873 -2.278725 0.000000000000000e+00 1634890835
1.189519 -0.375802 -2.278725 0.000000000000000e+00 1634890835
1.132843 -0.439770 -2.278725 0.000000000000000e+00 1634890835
1.016259 -0.560501 -2.278724 0.000000000000000e+00 1634890835
0.956343 -0.617342 -2.278724 0.000000000000000e+00 1634890835
1.165919 -0.366998 -2.278725 0.000000000000000e+00 1634890835
1.109636 -0.430046 -2.278725 0.000000000000000e+00 1634890835
0.993868 -0.548970 -2.278725 0.000000000000000e+00 1634890835
0.934376 -0.604923 -2.278724 0.000000000000000e+00 1634890835
1.142532 -0.358273 -2.278725 0.000000000000000e+00 1634890835
1.086637 -0.420406 -2.278725 0.000000000000000e+00 1634890835
0.971675 -0.537541 -2.278725 0.000000000000000e+00 1634890835
0.912603 -0.592613 -2.278725 0.000000000000000e+00 1634890835
1.119348 -0.349625 -2.278725 0.000000000000000e+00 1634890835
1.063838 -0.410852 -2.278725 0.000000000000000e+00 1634890835
0.949674 -0.526210 -2.278724 0.000000000000000e+00 1634890835
0.891017 -0.580410 -2.278725 0.000000000000000e+00 1634890835
1.096363 -0.341051 -2.278725 0.000000000000000e+00 1634890835
1.041232 -0.401379 -2.278725 0.000000000000000e+00 1634890835
0.927857 -0.514976 -2.278725 0.000000000000000e+00 1634890835
0.869612 -0.568309 -2.278724 0.000000000000000e+00 1634890835
1.073570 -0.332549 -2.278725 0.000000000000000e+00 1634890835
1.018816 -0.391985 -2.278725 0.000000000000000e+00 1634890835
0.906221 -0.503834 -2.278725 0.000000000000000e+00 1634890835
0.848384 -0.556308 -2.278725 0.000000000000000e+00 1634890835
1.050965 -0.324117 -2.278725 0.000000000000000e+00 1634890835
0.996582 -0.382668 -2.278725 0.000000000000000e+00 1634890835
0.884760 -0.492781 -2.278725 0.000000000000000e+00 1634890835
0.827325 -0.544403 -2.278725 0.000000000000000e+00 1634890835
1.028541 -0.315752 -2.278725 0.000000000000000e+00 1634890835
0.974526 -0.373425 -2.278725 0.000000000000000e+00 1634890835
0.863468 -0.481816 -2.278725 0.000000000000000e+00 1634890835
0.451010 -0.297860 -1.274411 0.000000000000000e+00 1936876886
1.006293 -0.307452 -2.278725 0.000000000000000e+00 1634890835
0.952640 -0.364254 -2.278724 0.000000000000000e+00 1634890835
0.842339 -0.470936 -2.278725 0.000000000000000e+00 1634890835
0.433312 -0.287260 -1.256713 0.000000000000000e+00 1936876886
0.984216 -0.299218 -2.278725 0.000000000000000e+00 1634890835
0.930922 -0.355153 -2.278725 0.000000000000000e+00 1634890835
0.821370 -0.460137 -2.278725 0.000000000000000e+00 1634890835
0.421230 -0.280356 -1.254527 0.000000000000000e+00 1936876886
0.962304 -0.291044 -2.278725 0.000000000000000e+00 1634890835
0.909365 -0.346118 -2.278725 0.000000000000000e+00 1634890835
0.445941 -0.250343 -1.269342 0.000000000000000e+00 1936876886
0.335124 -0.223969 -1.025462 0.000000000000000e+00 1953264973
0.940552 -0.282930 -2.278725 0.000000000000000e+00 1634890835
0.887965 -0.337151 -2.278725 0.000000000000000e+00 1634890835
0.428906 -0.241307 -1.253204 0.000000000000000e+00 1936876886
0.306469 -0.205702 -0.964036 0.000000000000000e+00 1953264973
0.495093 -0.148090 -1.227676 0.000000000000000e+00 1936876886
0.866716 -0.328246 -2.278725 0.000000000000000e+00 1634890835
0.358551 -0.202186 -1.075950 0.000000000000000e+00 1953264973
0.281220 -0.189606 -0.909911 0.000000000000000e+00 1953264973
0.483539 -0.143780 -1.227675 0.000000000000000e+00 1936876886
0.845614 -0.319403 -2.278724 0.000000000000000e+00 1634890835
0.326691 -0.184662 -1.007385 0.000000000000000e+00 1953264973
0.258799 -0.175314 -0.861848 0.000000000000000e+00 1953264973
0.472064 -0.139500 -1.227675 0.000000000000000e+00 1936876886
0.824654 -0.310620 -2.278725 0.000000000000000e+00 1634890835
0.299051 -0.169462 -0.948134 0.000000000000000e+00 1953264973
0.238753 -0.162535 -0.818877 0.000000000000000e+00 1953264973
