# .PCD v0.7 - Point Cloud Data file format
VERSION 0.7
FIELDS x y z rgb label
SIZE 4 4 4 4 4
TYPE F F F F U
COUNT 1 1 1 1 1
WIDTH 540
HEIGHT 1
VIEWPOINT 0 0 0 1 0 0 0
POINTS 540
DATA ascii
40.832561 -17.280758 10.294031 0.000000000000000e+00 1954047316
40.853783 -17.283398 9.896457 0.000000000000000e+00 1954047316
39.066566 -19.965654 10.082211 0.000000000000000e+00 1954047316
38.188431 -21.298174 10.012432 0.000000000000000e+00 1954047316
32.357529 -12.030025 -2.055809 0.000000000000000e+00 1851878480
31.689610 -13.255607 -1.931869 0.000000000000000e+00 1851878480
29.072487 -15.002722 -1.572105 0.000000000000000e+00 1851878480
27.742107 -15.750994 -1.377660 0.000000000000000e+00 1851878480
29.026707 -10.783494 -2.107885 0.000000000000000e+00 1851878480
28.157654 -11.774104 -1.980159 0.000000000000000e+00 1851878480
26.742714 -13.804734 -1.713045 0.000000000000000e+00 1851878480
25.843784 -14.681851 -1.550304 0.000000000000000e+00 1851878480
26.503777 -9.838737 -2.165668 0.000000000000000e+00 1851878480
26.119747 -10.918112 -2.081609 0.000000000000000e+00 1851878480
25.139275 -12.981050 -1.861549 0.000000000000000e+00 1851878480
24.638851 -14.005578 -1.732823 0.000000000000000e+00 1851878480
24.285063 -9.008255 -2.205428 0.000000000000000e+00 1851878480
24.477934 -10.228237 -2.180408 0.000000000000000e+00 1851878480
23.771965 -12.278816 -1.998171 0.000000000000000e+00 1851878480
23.500160 -13.366217 -1.896122 0.000000000000000e+00 1851878480
22.276056 -8.256744 -2.225990 0.000000000000000e+00 1851878480
22.535858 -9.413427 -2.219104 0.000000000000000e+00 1851878480
22.200165 -11.470510 -2.088522 0.000000000000000e+00 1851878480
21.983746 -12.511123 -2.001808 0.000000000000000e+00 1851878480
20.482473 -7.586157 -2.233669 0.000000000000000e+00 1851878480
20.616716 -8.608746 -2.224063 0.000000000000000e+00 1851878480
20.761499 -10.730498 -2.161567 0.000000000000000e+00 1851878480
20.464531 -11.653437 -2.076119 0.000000000000000e+00 1851878480
18.978271 -7.023671 -2.243074 0.000000000000000e+00 1851878480
19.058132 -7.955134 -2.235487 0.000000000000000e+00 1851878480
19.436993 -10.049067 -2.219115 0.000000000000000e+00 1851878480
19.020416 -10.837520 -2.127643 0.000000000000000e+00 1851878480
17.572653 -6.498482 -2.237799 0.000000000000000e+00 1851878480
17.646069 -7.363116 -2.236398 0.000000000000000e+00 1851878480
17.867716 -9.240621 -2.219972 0.000000000000000e+00 1851878480
17.829453 -10.164976 -2.180438 0.000000000000000e+00 1851878480
16.464682 -6.084077 -2.247692 0.000000000000000e+00 1851878480
16.465612 -6.868123 -2.242489 0.000000000000000e+00 1851878480
16.522892 -8.547795 -2.219711 0.000000000000000e+00 1851878480
16.599264 -9.469264 -2.203569 0.000000000000000e+00 1851878480
15.375533 -5.677248 -2.240275 0.000000000000000e+00 1851878480
15.371821 -6.409600 -2.239170 0.000000000000000e+00 1851878480
15.398395 -7.968551 -2.224466 0.000000000000000e+00 1851878480
15.453008 -8.820638 -2.213377 0.000000000000000e+00 1851878480
14.503099 -5.350977 -2.246687 0.000000000000000e+00 1851878480
14.442383 -6.019909 -2.240920 0.000000000000000e+00 1851878480
14.460864 -7.485738 -2.235719 0.000000000000000e+00 1851878480
14.453892 -8.255281 -2.222163 0.000000000000000e+00 1851878480
13.640723 -5.028915 -2.238966 0.000000000000000e+00 1851878480
13.624886 -5.677138 -2.243754 0.000000000000000e+00 1851878480
13.607525 -7.046225 -2.242181 0.000000000000000e+00 1851878480
13.586591 -7.764587 -2.231991 0.000000000000000e+00 1851878480
12.950814 -4.770868 -2.245514 0.000000000000000e+00 1851878480
12.879539 -5.364649 -2.243900 0.000000000000000e+00 1851878480
12.824325 -6.642766 -2.243914 0.000000000000000e+00 1851878480
12.837859 -7.341115 -2.244664 0.000000000000000e+00 1851878480
6.984953 -2.571142 -1.275878 1.880790849211783e-38 1684957512
6.971619 -2.902816 -1.281307 1.880790849211783e-38 1684957512
12.139631 -6.290100 -2.248276 0.000000000000000e+00 1851878480
12.121089 -6.935436 -2.247832 0.000000000000000e+00 1851878480
6.659807 -2.449546 -1.278408 1.880790849211783e-38 1684957512
6.619494 -2.755208 -1.280094 1.880790849211783e-38 1684957512
6.570536 -3.405577 -1.284281 1.880790849211783e-38 1684957512
11.473978 -6.569143 -2.249848 0.000000000000000e+00 1851878480
6.346956 -2.332649 -1.277532 1.880790849211783e-38 1684957512
6.247388 -2.599387 -1.268246 1.880790849211783e-38 1684957512
6.183976 -3.206237 -1.272372 1.880790849211783e-38 1684957512
10.815666 -6.196007 -2.236178 0.000000000000000e+00 1851878480
6.093865 -2.237875 -1.283577 1.880790849211783e-38 1684957512
6.069415 -2.524423 -1.290696 1.880790849211783e-38 1684957512
6.008063 -3.116025 -1.298224 1.880790849211783e-38 1684957512
5.899095 -3.381496 -1.282831 1.880790849211783e-38 1684957512
5.863360 -2.151532 -1.290031 1.880790849211783e-38 1684957512
5.780445 -2.403359 -1.285218 1.880790849211783e-38 1684957512
5.701762 -2.958117 -1.291133 1.880790849211783e-38 1684957512
5.599616 -3.211793 -1.277896 1.880790849211783e-38 1684957512
5.551145 -2.035356 -1.273585 1.880790849211783e-38 1684957512
5.535652 -2.300743 -1.284576 1.880790849211783e-38 1684957512
5.417338 -2.811459 -1.283080 1.880790849211783e-38 1684957512
5.356482 -3.074226 -1.280210 1.880790849211783e-38 1684957512
5.356792 -1.962539 -1.279586 1.880790849211783e-38 1684957512
5.314611 -2.208066 -1.285104 1.880790849211783e-38 1684957512
5.252562 -2.726825 -1.298906 1.880790849211783e-38 1684957512
5.266825 -3.024635 -1.315845 1.880790849211783e-38 1684957512
5.163498 -1.890215 -1.282353 1.880790849211783e-38 1684957512
5.270301 -2.188852 -1.325970 1.880790849211783e-38 1684957512
5.284841 -2.744472 -1.362300 1.880790849211783e-38 1684957512
5.263516 -3.024604 -1.372286 1.880790849211783e-38 1684957512
5.288592 -1.934464 -1.363734 1.880790849211783e-38 1684957512
5.273544 -2.189392 -1.378599 1.880790849211783e-38 1684957512
5.205411 -2.704104 -1.396634 1.880790849211783e-38 1684957512
5.231767 -3.008231 -1.421182 1.880790849211783e-38 1684957512
5.219983 -1.907836 -1.395896 1.880790849211783e-38 1684957512
5.291608 -2.196078 -1.435522 1.880790849211783e-38 1684957512
5.267110 -2.737052 -1.468890 1.880790849211783e-38 1684957512
5.250586 -3.020940 -1.483935 1.880790849211783e-38 1684957512
5.197421 -1.898058 -1.439704 1.880790849211783e-38 1684957512
5.261045 -2.182584 -1.479349 1.880790849211783e-38 1684957512
5.271100 -2.740022 -1.526000 1.880790849211783e-38 1684957512
5.274686 -3.036710 -1.548927 1.880790849211783e-38 1684957512
5.215929 -1.903271 -1.495058 1.880790849211783e-38 1684957512
5.244790 -2.175028 -1.526960 1.880790849211783e-38 1684957512
5.298439 -2.755145 -1.590467 1.880790849211783e-38 1684957512
5.205768 -2.998921 -1.586391 1.880790849211783e-38 1684957512
5.235835 -1.908981 -1.551402 1.880790849211783e-38 1684957512
5.240875 -2.172589 -1.578199 1.880790849211783e-38 1684957512
5.246059 -2.728813 -1.631010 1.880790849211783e-38 1684957512
5.250837 -3.026804 -1.658622 1.880790849211783e-38 1684957512
5.271271 -1.920329 -1.613114 1.880790849211783e-38 1684957512
5.204887 -2.156858 -1.619624 1.880790849211783e-38 1684957512
5.281600 -2.748214 -1.698992 1.880790849211783e-38 1684957512
5.287067 -3.049626 -1.729276 1.880790849211783e-38 1684957512
5.230346 -1.903857 -1.651645 1.880790849211783e-38 1684957512
5.276763 -2.185814 -1.695232 1.880790849211783e-38 1684957512
5.249589 -2.732473 -1.745579 1.880790849211783e-38 1684957512
5.232820 -3.020268 -1.770455 1.880790849211783e-38 1684957512
5.195240 -1.889514 -1.691513 1.880790849211783e-38 1684957512
5.218679 -2.160929 -1.729490 1.880790849211783e-38 1684957512
5.267391 -2.742661 -1.808881 1.880790849211783e-38 1684957512
5.227271 -3.019008 -1.827766 1.880790849211783e-38 1684957512
5.221502 -1.897488 -1.751532 1.880790849211783e-38 1684957512
5.269948 -2.181324 -1.800194 1.880790849211783e-38 1684957512
5.235188 -2.726820 -1.855171 1.880790849211783e-38 1684957512
5.246635 -3.032152 -1.894288 1.880790849211783e-38 1684957512
5.227605 -1.898120 -1.805373 1.880790849211783e-38 1684957512
5.265542 -2.178661 -1.852644 1.880790849211783e-38 1684957512
5.281641 -2.751951 -1.929822 1.880790849211783e-38 1684957512
5.239461 -3.029980 -1.951722 1.880790849211783e-38 1684957512
5.191304 -1.883357 -1.844544 1.880790849211783e-38 1684957512
5.255138 -2.173515 -1.903127 1.880790849211783e-38 1684957512
5.260474 -2.741862 -1.980386 1.880790849211783e-38 1684957512
5.231381 -3.027287 -2.009012 1.880790849211783e-38 1684957512
5.182654 -1.878630 -1.893376 1.880790849211783e-38 1684957512
5.254030 -2.172208 -1.957166 1.880790849211783e-38 1684957512
5.256706 -2.740840 -2.037579 1.880790849211783e-38 1684957512
5.236261 -3.032108 -2.071625 1.880790849211783e-38 1684957512
5.222235 -1.891369 -1.960432 1.880790849211783e-38 1684957512
5.263932 -2.175452 -2.015713 1.880790849211783e-38 1684957512
5.310922 -2.770069 -2.118178 1.880790849211783e-38 1684957512
5.258161 -3.046804 -2.141676 1.880790849211783e-38 1684957512
5.295739 -1.916351 -2.041671 1.880790849211783e-38 1684957512
5.233303 -2.161941 -2.058851 1.880790849211783e-38 1684957512
5.253557 -2.741103 -2.154619 1.880790849211783e-38 1684957512
5.239773 -3.038177 -2.195768 1.880790849211783e-38 1684957512
5.246050 -1.896735 -2.075972 1.880790849211783e-38 1684957512
5.229595 -2.159552 -2.112558 1.880790849211783e-38 1684957512
5.253586 -2.742081 -2.214344 1.880790849211783e-38 1684957512
5.220327 -3.028933 -2.249393 0.000000000000000e+00 1851878480
5.247074 -1.895463 -2.130175 1.880790849211783e-38 1684957512
5.220963 -2.155125 -2.164494 1.880790849211783e-38 1684957512
5.179995 -2.704626 -2.242601 0.000000000000000e+00 1851878480
5.059184 -2.937422 -2.240247 0.000000000000000e+00 1851878480
5.222787 -1.885045 -2.174202 1.880790849211783e-38 1684957512
5.242120 -2.162992 -2.229276 1.880790849211783e-38 1684957512
5.056925 -2.641308 -2.247591 0.000000000000000e+00 1851878480
4.953574 -2.878061 -2.252940 0.000000000000000e+00 1851878480
5.225014 -1.884192 -2.229386 1.880790849211783e-38 1684957512
5.136458 -2.118536 -2.239589 0.000000000000000e+00 1851878480
4.986912 -2.605672 -2.274347 0.000000000000000e+00 1851878480
4.814325 -2.799075 -2.247823 0.000000000000000e+00 1851878480
5.125596 -1.846707 -2.240545 0.000000000000000e+00 1851878480
5.005354 -2.063621 -2.236630 0.000000000000000e+00 1851878480
4.818964 -2.518828 -2.254087 0.000000000000000e+00 1851878480
4.697462 -2.733015 -2.250491 0.000000000000000e+00 1851878480
4.985771 -1.794730 -2.231894 0.000000000000000e+00 1851878480
4.901737 -2.020072 -2.243785 0.000000000000000e+00 1851878480
4.700822 -2.457966 -2.254192 0.000000000000000e+00 1851878480
4.573779 -2.662909 -2.247398 0.000000000000000e+00 1851878480
4.906619 -1.764655 -2.248460 0.000000000000000e+00 1851878480
4.782947 -1.970304 -2.241944 0.000000000000000e+00 1851878480
4.616913 -2.414977 -2.268752 0.000000000000000e+00 1851878480
4.467916 -2.603097 -2.250679 0.000000000000000e+00 1851878480
4.766852 -1.712835 -2.235290 0.000000000000000e+00 1851878480
4.678800 -1.926598 -2.244898 0.000000000000000e+00 1851878480
4.490777 -2.349866 -2.260490 0.000000000000000e+00 1851878480
4.337428 -2.528857 -2.239071 0.000000000000000e+00 1851878480
4.652827 -1.670341 -2.231845 0.000000000000000e+00 1851878480
4.588038 -1.888431 -2.252500 0.000000000000000e+00 1851878480
4.411242 -2.309108 -2.273650 0.000000000000000e+00 1851878480
4.249510 -2.479364 -2.247156 0.000000000000000e+00 1851878480
4.493670 -1.611722 -2.204177 0.000000000000000e+00 1851878480
4.449067 -1.830457 -2.234255 0.000000000000000e+00 1851878480
4.269588 -2.235795 -2.252551 0.000000000000000e+00 1851878480
4.181990 -2.441724 -2.264523 0.000000000000000e+00 1851878480
4.453571 -1.595864 -2.233120 0.000000000000000e+00 1851878480
4.363574 -1.794517 -2.240733 0.000000000000000e+00 1851878480
4.170449 -2.184705 -2.251382 0.000000000000000e+00 1851878480
4.032722 -2.356277 -2.235321 0.000000000000000e+00 1851878480
4.354127 -1.558772 -2.231157 0.000000000000000e+00 1851878480
4.374404 -1.798196 -2.296230 0.000000000000000e+00 1851878480
4.078600 -2.137404 -2.252242 0.000000000000000e+00 1851878480
3.947986 -2.308451 -2.239348 0.000000000000000e+00 1851878480
4.321931 -1.545790 -2.262585 0.000000000000000e+00 1851878480
4.193967 -1.723276 -2.249785 0.000000000000000e+00 1851878480
4.040726 -2.118372 -2.281744 0.000000000000000e+00 1851878480
3.844699 -2.249716 -2.230879 0.000000000000000e+00 1851878480
4.197697 -1.499929 -2.244477 0.000000000000000e+00 1851878480
4.089371 -1.679562 -2.241142 0.000000000000000e+00 1851878480
3.893677 -2.042073 -2.247728 0.000000000000000e+00 1851878480
3.798478 -2.224323 -2.254037 0.000000000000000e+00 1851878480
4.130175 -1.474389 -2.254937 0.000000000000000e+00 1851878480
4.046902 -1.661387 -2.265246 0.000000000000000e+00 1851878480
3.838917 -2.014142 -2.264894 0.000000000000000e+00 1851878480
3.706532 -2.172112 -2.248711 0.000000000000000e+00 1851878480
4.045539 -1.442779 -2.254729 0.000000000000000e+00 1851878480
3.930502 -1.612882 -2.246514 0.000000000000000e+00 1851878480
3.769762 -1.978641 -2.272444 0.000000000000000e+00 1851878480
3.636259 -2.132545 -2.254852 0.000000000000000e+00 1851878480
4.012735 -1.429684 -2.282473 0.000000000000000e+00 1634890835
3.863877 -1.584829 -2.254482 0.000000000000000e+00 1851878480
3.698586 -1.942058 -2.277435 0.000000000000000e+00 1851878480
3.577118 -2.099465 -2.266639 0.000000000000000e+00 1851878480
3.973047 -1.414148 -2.305879 0.000000000000000e+00 1634890835
3.794154 -1.555526 -2.259435 0.000000000000000e+00 1851878480
3.612042 -1.897376 -2.271381 0.000000000000000e+00 1851878480
3.510022 -2.061678 -2.272162 0.000000000000000e+00 1851878480
3.914411 -1.391892 -2.317562 0.000000000000000e+00 1634890835
3.721279 -1.524950 -2.261217 0.000000000000000e+00 1851878480
3.531406 -1.855774 -2.267320 0.000000000000000e+00 1851878480
3.344356 -1.965904 -2.211167 0.000000000000000e+00 1851878480
3.772168 -1.339967 -2.277810 0.000000000000000e+00 1634890835
3.648854 -1.494580 -2.261934 0.000000000000000e+00 1851878480
3.445848 -1.811559 -2.258372 0.000000000000000e+00 1851878480
3.339026 -1.964318 -2.254308 0.000000000000000e+00 1851878480
3.689765 -1.309365 -2.271959 0.000000000000000e+00 1634890835
3.584034 -1.467345 -2.266115 0.000000000000000e+00 1851878480
3.405900 -1.791300 -2.278116 0.000000000000000e+00 1851878480
3.285285 -1.934245 -2.264438 0.000000000000000e+00 1851878480
3.618083 -1.282612 -2.271294 0.000000000000000e+00 1634890835
3.526812 -1.443233 -2.274025 0.000000000000000e+00 1851878480
3.313147 -1.743248 -2.261230 0.000000000000000e+00 1851878480
3.186714 -1.877719 -2.242015 0.000000000000000e+00 1851878480
3.553934 -1.258566 -2.274148 0.000000000000000e+00 1634890835
3.527046 -1.442642 -2.318720 0.000000000000000e+00 1634890835
3.267919 -1.720180 -2.275384 0.000000000000000e+00 1851878480
3.098050 -1.826961 -2.224387 0.000000000000000e+00 1851878480
3.521570 -1.245798 -2.296601 0.000000000000000e+00 1634890835
3.456117 -1.412947 -2.316193 0.000000000000000e+00 1634890835
3.189465 -1.679601 -2.265188 0.000000000000000e+00 1851878480
3.077844 -1.816539 -2.254852 0.000000000000000e+00 1851878480
3.430009 -1.212124 -2.279364 0.000000000000000e+00 1634890835
3.411988 -1.394226 -2.330620 0.000000000000000e+00 1634890835
3.154261 -1.661782 -2.284622 0.000000000000000e+00 1851878480
3.000788 -1.772535 -2.242762 0.000000000000000e+00 1851878480
3.345592 -1.181027 -2.265130 0.000000000000000e+00 1634890835
3.293548 -1.345167 -2.292653 0.000000000000000e+00 1634890835
3.053202 -1.609246 -2.254938 0.000000000000000e+00 1851878480
2.924366 -1.728847 -2.229394 0.000000000000000e+00 1851878480
3.257187 -1.148573 -2.246471 0.000000000000000e+00 1634890835
3.247182 -1.325567 -2.303175 0.000000000000000e+00 1634890835
3.016425 -1.590566 -2.271271 0.000000000000000e+00 1851878480
2.908607 -1.720994 -2.261427 0.000000000000000e+00 1851878480
3.251851 -1.145436 -2.284367 0.000000000000000e+00 1634890835
3.212671 -1.310818 -2.321516 0.000000000000000e+00 1634890835
2.930963 -1.546195 -2.249691 0.000000000000000e+00 1851878480
2.827078 -1.674196 -2.241384 0.000000000000000e+00 1851878480
3.151228 -1.108762 -2.254419 0.000000000000000e+00 1634890835
3.117009 -1.271138 -2.294410 0.000000000000000e+00 1634890835
2.897838 -1.529413 -2.267070 0.000000000000000e+00 1851878480
2.766972 -1.640031 -2.236693 0.000000000000000e+00 1851878480
3.117286 -1.095588 -2.270892 0.000000000000000e+00 1634890835
3.044764 -1.241036 -2.282758 0.000000000000000e+00 1634890835
2.855465 -1.507743 -2.276626 0.000000000000000e+00 1851878480
2.748905 -1.630761 -2.265321 0.000000000000000e+00 1851878480
3.046123 -1.069363 -2.259337 0.000000000000000e+00 1634890835
3.002048 -1.222985 -2.292163 0.000000000000000e+00 1634890835
2.757693 -1.456794 -2.240442 0.000000000000000e+00 1851878480
0.853898 -0.507020 -0.717289 0.000000000000000e+00 1886740808
3.065243 -1.074837 -2.314534 0.000000000000000e+00 1634890835
2.974566 -1.211148 -2.312731 0.000000000000000e+00 1634890835
2.746861 -1.451756 -2.273786 0.000000000000000e+00 1851878480
0.834149 -0.495742 -0.714170 0.000000000000000e+00 1886740808
2.986462 -1.045994 -2.295488 0.000000000000000e+00 1634890835
2.887530 -1.175081 -2.285893 0.000000000000000e+00 1634890835
0.898004 -0.474834 -0.757305 0.000000000000000e+00 1886740808
0.854705 -0.508425 -0.745762 0.000000000000000e+00 1886740808
2.913958 -1.019396 -2.279698 0.000000000000000e+00 1634890835
2.823015 -1.148201 -2.275242 0.000000000000000e+00 1634890835
0.835726 -0.442117 -0.717951 0.000000000000000e+00 1886740808
0.835658 -0.497557 -0.743013 0.000000000000000e+00 1886740808
2.865619 -1.001287 -2.281646 0.000000000000000e+00 1634890835
2.790538 -1.134368 -2.289537 0.000000000000000e+00 1634890835
0.824256 -0.436263 -0.721260 0.000000000000000e+00 1886740808
0.806845 -0.480854 -0.730976 0.000000000000000e+00 1886740808
2.815033 -0.982421 -2.280928 0.000000000000000e+00 1634890835
2.746047 -1.115660 -2.293377 0.000000000000000e+00 1634890835
0.851460 -0.450885 -0.758852 0.000000000000000e+00 1886740808
0.757186 -0.451690 -0.698918 0.000000000000000e+00 1886740808
2.765760 -0.964038 -2.280371 0.000000000000000e+00 1634890835
0.841260 -0.341593 -0.715107 0.000000000000000e+00 1886740808
0.803210 -0.425549 -0.729041 0.000000000000000e+00 1886740808
0.799547 -0.477423 -0.751876 0.000000000000000e+00 1886740808
0.887840 -0.309081 -0.744827 0.000000000000000e+00 1886740808
0.814320 -0.330465 -0.704494 0.000000000000000e+00 1886740808
0.831256 -0.440633 -0.768347 0.000000000000000e+00 1886740808
0.775301 -0.463399 -0.742712 0.000000000000000e+00 1886740808
0.842278 -0.292850 -0.718912 0.000000000000000e+00 1886740808
0.804785 -0.326405 -0.708556 0.000000000000000e+00 1886740808
0.733101 -0.388803 -0.690013 0.000000000000000e+00 1886740808
0.749705 -0.448548 -0.731580 0.000000000000000e+00 1886740808
0.828113 -0.287556 -0.719088 0.000000000000000e+00 1886740808
0.823465 -0.333784 -0.737774 0.000000000000000e+00 1886740808
0.753092 -0.399615 -0.721752 0.000000000000000e+00 1886740808
0.754533 -0.451893 -0.749976 0.000000000000000e+00 1886740808
0.767771 -0.266256 -0.678220 0.000000000000000e+00 1886740808
0.765829 -0.310237 -0.698186 0.000000000000000e+00 1886740808
0.780233 -0.414238 -0.761356 0.000000000000000e+00 1886740808
0.763772 -0.457897 -0.773231 0.000000000000000e+00 1886740808
0.761812 -0.263841 -0.684558 0.000000000000000e+00 1886740808
0.805728 -0.326201 -0.747420 0.000000000000000e+00 1886740808
0.725282 -0.385272 -0.720567 0.000000000000000e+00 1886740808
0.781846 -0.469221 -0.806166 0.000000000000000e+00 1886740808
0.795786 -0.275238 -0.727377 0.000000000000000e+00 1886740808
0.762462 -0.308495 -0.719635 0.000000000000000e+00 1886740808
0.764868 -0.406524 -0.773643 0.000000000000000e+00 1886740808
0.808637 -0.485813 -0.849177 0.000000000000000e+00 1886740808
0.773382 -0.267125 -0.719020 0.000000000000000e+00 1886740808
0.766008 -0.309736 -0.735575 0.000000000000000e+00 1886740808
0.801097 -0.426017 -0.824916 0.000000000000000e+00 1886740808
0.754984 -0.454068 -0.807441 0.000000000000000e+00 1886740808
0.740559 -0.255434 -0.700282 0.000000000000000e+00 1886740808
0.793747 -0.320748 -0.775462 0.000000000000000e+00 1886740808
0.728856 -0.387819 -0.764056 0.000000000000000e+00 1886740808
2.111331 -1.271201 -2.299572 0.000000000000000e+00 1634890835
0.726664 -0.250289 -0.698874 0.000000000000000e+00 1886740808
0.786016 -0.317419 -0.781235 0.000000000000000e+00 1886740808
0.757422 -0.403252 -0.808296 0.000000000000000e+00 1886740808
2.061803 -1.242761 -2.286901 0.000000000000000e+00 1634890835
0.745854 -0.256532 -0.729557 0.000000000000000e+00 1886740808
0.764461 -0.308511 -0.772976 0.000000000000000e+00 1886740808
2.127247 -1.133209 -2.310958 0.000000000000000e+00 1634890835
2.020257 -1.219096 -2.281975 0.000000000000000e+00 1634890835
0.799864 -0.274709 -0.795704 0.000000000000000e+00 1886740808
0.727620 -0.293448 -0.748459 0.000000000000000e+00 1886740808
2.101860 -1.120353 -2.324417 0.000000000000000e+00 1634890835
0.794218 -0.479810 -0.913576 0.000000000000000e+00 1886740808
0.775572 -0.265972 -0.784657 0.000000000000000e+00 1886740808
0.775664 -0.312612 -0.811676 0.000000000000000e+00 1886740808
2.061598 -1.099557 -2.320853 0.000000000000000e+00 1634890835
0.796621 -0.481826 -0.933163 0.000000000000000e+00 1886740808
0.747371 -0.255916 -0.768971 0.000000000000000e+00 1886740808
0.758224 -0.305372 -0.807138 0.000000000000000e+00 1886740808
1.995988 -1.065220 -2.287362 0.000000000000000e+00 1634890835
0.764137 -0.462728 -0.911547 0.000000000000000e+00 1886740808
0.741845 -0.253635 -0.776246 0.000000000000000e+00 1886740808
2.122147 -0.854085 -2.298084 0.000000000000000e+00 1634890835
0.821078 -0.438469 -0.957849 0.000000000000000e+00 1886740808
0.782697 -0.474542 -0.950844 0.000000000000000e+00 1886740808
0.764046 -0.260819 -0.813049 0.000000000000000e+00 1886740808
2.094381 -0.842308 -2.307205 0.000000000000000e+00 1634890835
0.766689 -0.409686 -0.910484 0.000000000000000e+00 1886740808
0.808126 -0.490564 -0.999790 0.000000000000000e+00 1886740808
0.748543 -0.255121 -0.810076 0.000000000000000e+00 1886740808
2.073287 -0.833217 -2.323444 0.000000000000000e+00 1634890835
0.794401 -0.424770 -0.960372 0.000000000000000e+00 1886740808
1.805472 -1.097368 -2.274808 0.000000000000000e+00 1634890835
2.113734 -0.719247 -2.326340 0.000000000000000e+00 1634890835
2.018390 -0.810553 -2.301045 0.000000000000000e+00 1634890835
0.787763 -0.421500 -0.969510 0.000000000000000e+00 1886740808
1.765575 -1.074493 -2.265567 0.000000000000000e+00 1634890835
2.053911 -0.697740 -2.298918 0.000000000000000e+00 1634890835
1.971146 -0.790982 -2.286087 0.000000000000000e+00 1634890835
0.785767 -0.420716 -0.984508 0.000000000000000e+00 1886740808
0.749212 -0.456551 -0.979145 0.000000000000000e+00 1886740808
2.024429 -0.686570 -2.304465 0.000000000000000e+00 1634890835
1.933554 -0.775300 -2.281359 0.000000000000000e+00 1634890835
0.790586 -0.423587 -1.008458 0.000000000000000e+00 1886740808
1.751276 -1.068604 -2.331131 0.000000000000000e+00 1634890835
1.977297 -0.669437 -2.289151 0.000000000000000e+00 1634890835
0.800007 -0.320528 -0.960297 0.000000000000000e+00 1886740808
1.794333 -0.962059 -2.330299 0.000000000000000e+00 1634890835
1.692482 -1.034131 -2.294701 0.000000000000000e+00 1634890835
1.909988 -0.645520 -2.248946 0.000000000000000e+00 1634890835
0.803641 -0.321726 -0.981436 0.000000000000000e+00 1886740808
0.770966 -0.413661 -1.019444 0.000000000000000e+00 1886740808
1.684206 -1.030500 -2.326001 0.000000000000000e+00 1634890835
1.900022 -0.641008 -2.275445 0.000000000000000e+00 1634890835
0.778314 -0.311332 -0.967071 0.000000000000000e+00 1886740808
1.686440 -0.905517 -2.270597 0.000000000000000e+00 1634890835
1.630476 -0.999035 -2.293865 0.000000000000000e+00 1634890835
0.807851 -0.272048 -0.984043 0.000000000000000e+00 1886740808
0.797054 -0.318562 -1.007659 0.000000000000000e+00 1886740808
1.684138 -0.904957 -2.308944 0.000000000000000e+00 1634890835
1.597909 -0.980494 -2.290196 0.000000000000000e+00 1634890835
0.799018 -0.268573 -0.989992 0.000000000000000e+00 1886740808
0.789122 -0.315123 -1.015110 0.000000000000000e+00 1886740808
1.640570 -0.882216 -2.290466 0.000000000000000e+00 1634890835
1.584963 -0.973986 -2.314400 0.000000000000000e+00 1634890835
0.766306 -0.257089 -0.965805 0.000000000000000e+00 1886740808
0.772818 -0.308344 -1.011607 0.000000000000000e+00 1886740808
1.622546 -0.873204 -2.307012 0.000000000000000e+00 1634890835
1.538612 -0.946927 -2.289188 0.000000000000000e+00 1634890835
0.766081 -0.256515 -0.982193 0.000000000000000e+00 1886740808
1.747211 -0.696494 -2.327399 0.000000000000000e+00 1634890835
1.614392 -0.869505 -2.337856 0.000000000000000e+00 1634890835
1.521340 -0.937739 -2.306474 0.000000000000000e+00 1634890835
0.753960 -0.251956 -0.983398 0.000000000000000e+00 1886740808
1.717363 -0.683974 -2.328123 0.000000000000000e+00 1634890835
1.569468 -0.845997 -2.315010 0.000000000000000e+00 1634890835
1.491602 -0.920858 -2.304549 0.000000000000000e+00 1634890835
0.745889 -0.248753 -0.989786 0.000000000000000e+00 1886740808
0.765117 -0.304440 -1.055651 0.000000000000000e+00 1886740808
1.528213 -0.824444 -2.296225 0.000000000000000e+00 1634890835
1.452213 -0.897985 -2.286740 0.000000000000000e+00 1634890835
1.684138 -0.560491 -2.273839 0.000000000000000e+00 1634890835
1.639836 -0.651871 -2.302899 0.000000000000000e+00 1634890835
1.516887 -0.819029 -2.321962 0.000000000000000e+00 1634890835
1.436717 -0.889869 -2.305995 0.000000000000000e+00 1634890835
0.751394 -0.249537 -1.032278 0.000000000000000e+00 1886740808
1.598046 -0.634640 -2.284444 0.000000000000000e+00 1634890835
1.471438 -0.795184 -2.294878 0.000000000000000e+00 1634890835
1.417621 -0.879526 -2.319515 0.000000000000000e+00 1634890835
1.640514 -0.543627 -2.293451 0.000000000000000e+00 1634890835
1.570917 -0.623244 -2.286120 0.000000000000000e+00 1634890835
1.441658 -0.779784 -2.291092 0.000000000000000e+00 1634890835
1.383960 -0.860127 -2.308680 0.000000000000000e+00 1634890835
1.611367 -0.532779 -2.292564 0.000000000000000e+00 1634890835
1.542066 -0.611174 -2.284778 0.000000000000000e+00 1634890835
1.457325 -0.788978 -2.360207 0.000000000000000e+00 1634890835
1.334404 -0.830799 -2.269799 0.000000000000000e+00 1634890835
1.608634 -0.530660 -2.329382 0.000000000000000e+00 1634890835
1.537980 -0.608917 -2.320228 0.000000000000000e+00 1634890835
1.385255 -0.750662 -2.286600 0.000000000000000e+00 1634890835
1.317851 -0.821985 -2.286052 0.000000000000000e+00 1634890835
1.559595 -0.513276 -2.298760 0.000000000000000e+00 1634890835
1.518092 -0.600398 -2.332184 0.000000000000000e+00 1634890835
1.400083 -0.759426 -2.355801 0.000000000000000e+00 1634890835
1.305284 -0.815665 -2.309448 0.000000000000000e+00 1634890835
1.544920 -0.507223 -2.318089 0.000000000000000e+00 1634890835
1.465718 -0.579047 -2.293238 0.000000000000000e+00 1634890835
1.351995 -0.734065 -2.319233 0.000000000000000e+00 1634890835
1.251869 -0.783784 -2.259504 0.000000000000000e+00 1634890835
1.511114 -0.494897 -2.308401 0.000000000000000e+00 1634890835
1.445913 -0.570578 -2.304235 0.000000000000000e+00 1634890835
1.315400 -0.714917 -2.300781 0.000000000000000e+00 1634890835
1.253027 -0.786051 -2.307474 0.000000000000000e+00 1634890835
1.490476 -0.486901 -2.318353 0.000000000000000e+00 1634890835
1.411910 -0.556515 -2.292098 0.000000000000000e+00 1634890835
1.304025 -0.709471 -2.326053 0.000000000000000e+00 1634890835
1.237172 -0.777673 -2.324902 0.000000000000000e+00 1634890835
1.442456 -0.469985 -2.284811 0.000000000000000e+00 1634890835
1.412960 -0.556266 -2.336984 0.000000000000000e+00 1634890835
1.265963 -0.689497 -2.303257 0.000000000000000e+00 1634890835
1.167128 -0.735165 -2.238568 0.000000000000000e+00 1634890835
1.427269 -0.463790 -2.302516 0.000000000000000e+00 1634890835
1.338826 -0.526435 -2.256377 0.000000000000000e+00 1634890835
1.242582 -0.677504 -2.306267 0.000000000000000e+00 1634890835
1.180197 -0.744983 -2.310830 0.000000000000000e+00 1634890835
1.410975 -0.457233 -2.318596 0.000000000000000e+00 1634890835
1.362176 -0.534942 -2.339630 0.000000000000000e+00 1634890835
1.212811 -0.662019 -2.296787 0.000000000000000e+00 1634890835
1.173138 -0.742155 -2.345379 0.000000000000000e+00 1634890835
1.336372 -0.431828 -2.237195 0.000000000000000e+00 1634890835
1.307582 -0.512837 -2.289169 0.000000000000000e+00 1634890835
1.182839 -0.646407 -2.286017 0.000000000000000e+00 1634890835
1.128554 -0.715564 -2.304252 0.000000000000000e+00 1634890835
1.352125 -0.435640 -2.306378 0.000000000000000e+00 1634890835
1.291323 -0.505785 -2.304685 0.000000000000000e+00 1634890835
1.167685 -0.638889 -2.303535 0.000000000000000e+00 1634890835
1.100406 -0.699341 -2.295105 0.000000000000000e+00 1634890835
1.329496 -0.427058 -2.311036 0.000000000000000e+00 1634890835
1.278050 -0.499899 -2.325776 0.000000000000000e+00 1634890835
1.146093 -0.627847 -2.308325 0.000000000000000e+00 1634890835
1.083282 -0.690113 -2.308540 0.000000000000000e+00 1634890835
1.299328 -0.416072 -2.302065 0.000000000000000e+00 1634890835
1.245187 -0.486356 -2.310885 0.000000000000000e+00 1634890835
1.127666 -0.618536 -2.319332 0.000000000000000e+00 1634890835
1.056881 -0.674960 -2.301846 0.000000000000000e+00 1634890835
1.252343 -0.399740 -2.261921 0.000000000000000e+00 1634890835
1.217979 -0.475034 -2.305636 0.000000000000000e+00 1634890835
1.105552 -0.607201 -2.322576 0.000000000000000e+00 1634890835
1.026323 -0.657119 -2.285091 0.000000000000000e+00 1634890835
1.263513 -0.401972 -2.326861 0.000000000000000e+00 1634890835
1.183497 -0.460891 -2.285675 0.000000000000000e+00 1634890835
1.067067 -0.586857 -2.290336 0.000000000000000e+00 1634890835
1.024474 -0.657668 -2.332443 0.000000000000000e+00 1634890835
1.212776 -0.384510 -2.277674 0.000000000000000e+00 1634890835
1.188791 -0.462232 -2.342833 0.000000000000000e+00 1634890835
1.041187 -0.573422 -2.283843 0.000000000000000e+00 1634890835
0.996009 -0.641138 -2.319478 0.000000000000000e+00 1634890835
1.193694 -0.377121 -2.286723 0.000000000000000e+00 1634890835
1.134819 -0.440537 -2.282699 0.000000000000000e+00 1634890835
1.025851 -0.565791 -2.300232 0.000000000000000e+00 1634890835
0.965746 -0.623413 -2.301131 0.000000000000000e+00 1634890835
1.170105 -0.368316 -2.286905 0.000000000000000e+00 1634890835
1.124993 -0.435997 -2.310261 0.000000000000000e+00 1634890835
1.007259 -0.556367 -2.309429 0.000000000000000e+00 1634890835
0.952595 -0.616717 -2.323156 0.000000000000000e+00 1634890835
1.161258 -0.364145 -2.316073 0.000000000000000e+00 1634890835
1.084952 -0.419755 -2.275191 0.000000000000000e+00 1634890835
1.012060 -0.559882 -2.373434 0.000000000000000e+00 1634890835
0.902136 -0.585816 -2.252589 0.000000000000000e+00 1634890835
1.122599 -0.350640 -2.285342 0.000000000000000e+00 1634890835
1.071216 -0.413702 -2.294530 0.000000000000000e+00 1634890835
0.973873 -0.539619 -2.336790 0.000000000000000e+00 1634890835
0.865029 -0.563482 -2.212262 0.000000000000000e+00 1634890835
1.098196 -0.341621 -2.282536 0.000000000000000e+00 1634890835
1.061775 -0.409298 -2.323682 0.000000000000000e+00 1634890835
0.966005 -0.536148 -2.372411 0.000000000000000e+00 1634890835
0.872826 -0.570409 -2.287147 0.000000000000000e+00 1634890835
1.093137 -0.338610 -2.320256 0.000000000000000e+00 1634890835
1.035354 -0.398348 -2.315714 0.000000000000000e+00 1634890835
0.927738 -0.515796 -2.332829 0.000000000000000e+00 1634890835
0.857240 -0.562115 -2.302514 0.000000000000000e+00 1634890835
1.073325 -0.331013 -2.327207 0.000000000000000e+00 1634890835
1.029382 -0.395263 -2.353725 0.000000000000000e+00 1634890835
0.917115 -0.510802 -2.362056 0.000000000000000e+00 1634890835
0.838366 -0.551668 -2.309134 0.000000000000000e+00 1634890835
1.023828 -0.314305 -2.268282 0.000000000000000e+00 1634890835
0.974077 -0.373253 -2.277675 0.000000000000000e+00 1634890835
0.877222 -0.489491 -2.315022 0.000000000000000e+00 1634890835
0.458287 -0.302666 -1.294974 0.000000000000000e+00 1936876886
1.014829 -0.310060 -2.298053 0.000000000000000e+00 1634890835
0.966217 -0.369445 -2.311200 0.000000000000000e+00 1634890835
0.847621 -0.473889 -2.293011 0.000000000000000e+00 1634890835
0.448815 -0.297537 -1.301674 0.000000000000000e+00 1936876886
1.005737 -0.305761 -2.328552 0.000000000000000e+00 1634890835
0.947298 -0.361401 -2.318811 0.000000000000000e+00 1634890835
0.847809 -0.474948 -2.352075 0.000000000000000e+00 1634890835
0.432775 -0.288040 -1.288911 0.000000000000000e+00 1936876886
0.974804 -0.294824 -2.308324 0.000000000000000e+00 1634890835
0.931080 -0.354383 -2.333139 0.000000000000000e+00 1634890835
0.465110 -0.261104 -1.323904 0.000000000000000e+00 1936876886
0.350171 -0.234025 -1.071504 0.000000000000000e+00 1953264973
0.963154 -0.289729 -2.333483 0.000000000000000e+00 1634890835
0.900422 -0.341880 -2.310693 0.000000000000000e+00 1634890835
0.442426 -0.248914 -1.292710 0.000000000000000e+00 1936876886
0.301937 -0.202660 -0.949780 0.000000000000000e+00 1953264973
0.502379 -0.150269 -1.245742 0.000000000000000e+00 1936876886
0.873319 -0.330747 -2.296086 0.000000000000000e+00 1634890835
0.365735 -0.206237 -1.097508 0.000000000000000e+00 1953264973
0.286745 -0.193331 -0.927787 0.000000000000000e+00 1953264973
0.481849 -0.143278 -1.223384 0.000000000000000e+00 1936876886
0.853173 -0.322258 -2.299093 0.000000000000000e+00 1634890835
0.345355 -0.195211 -1.064935 0.000000000000000e+00 1953264973
0.252799 -0.171249 -0.841867 0.000000000000000e+00 1953264973
0.477160 -0.141006 -1.240930 0.000000000000000e+00 1936876886
0.830594 -0.312857 -2.295139 0.000000000000000e+00 1634890835
0.324189 -0.183707 -1.027834 0.000000000000000e+00 1953264973
0.239710 -0.163186 -0.822157 0.000000000000000e+00 1953264973
