# .PCD v0.7 - Point Cloud Data file format
VERSION 0.7
FIELDS x y z rgb label
SIZE 4 4 4 4 4
TYPE F F F F U
COUNT 1 1 1 1 1
WIDTH 531
HEIGHT 1
VIEWPOINT 0 0 0 1 0 0 0
POINTS 531
DATA ascii
33.666733 -18.729721 10.281898 0.000000000000000e+00 1954047316
33.673672 -18.745325 9.917984 0.000000000000000e+00 1954047316
30.844748 -11.458900 -2.239910 0.000000000000000e+00 1851878480
31.983517 -13.373885 -2.249208 0.000000000000000e+00 1851878480
26.917912 -9.992474 -2.199506 0.000000000000000e+00 1851878480
26.832125 -11.215888 -2.138382 0.000000000000000e+00 1851878480
26.119333 -13.487118 -1.934122 0.000000000000000e+00 1851878480
25.582771 -14.542135 -1.799208 0.000000000000000e+00 1851878480
24.289158 -9.009775 -2.205800 0.000000000000000e+00 1851878480
24.379288 -10.187016 -2.171622 0.000000000000000e+00 1851878480
23.682100 -12.232397 -1.990618 0.000000000000000e+00 1851878480
23.083530 -13.129249 -1.862505 0.000000000000000e+00 1851878480
22.097826 -8.190682 -2.208179 0.000000000000000e+00 1851878480
22.229200 -9.285335 -2.188908 0.000000000000000e+00 1851878480
21.739859 -11.232677 -2.045218 0.000000000000000e+00 1851878480
21.256744 -12.097380 -1.935608 0.000000000000000e+00 1851878480
20.395256 -7.553854 -2.224157 0.000000000000000e+00 1851878480
20.405651 -8.520613 -2.201293 0.000000000000000e+00 1851878480
20.409967 -10.548809 -2.124967 0.000000000000000e+00 1851878480
19.944139 -11.357103 -2.023326 0.000000000000000e+00 1851878480
18.937754 -7.008676 -2.238285 0.000000000000000e+00 1851878480
18.915924 -7.895775 -2.218806 0.000000000000000e+00 1851878480
19.101772 -9.875755 -2.180842 0.000000000000000e+00 1851878480
18.845295 -10.737738 -2.108054 0.000000000000000e+00 1851878480
17.578592 -6.500678 -2.238556 0.000000000000000e+00 1851878480
17.649193 -7.364419 -2.236794 0.000000000000000e+00 1851878480
17.756262 -9.182980 -2.206125 0.000000000000000e+00 1851878480
17.890812 -10.199959 -2.187942 0.000000000000000e+00 1851878480
16.376181 -6.051373 -2.235610 0.000000000000000e+00 1851878480
16.455191 -6.863776 -2.241070 0.000000000000000e+00 1851878480
16.511219 -8.541756 -2.218143 0.000000000000000e+00 1851878480
16.598589 -9.468879 -2.203479 0.000000000000000e+00 1851878480
15.376217 -5.677501 -2.240375 0.000000000000000e+00 1851878480
15.438132 -6.437250 -2.248829 0.000000000000000e+00 1851878480
15.476822 -8.009137 -2.235796 0.000000000000000e+00 1851878480
15.562999 -8.883420 -2.229131 0.000000000000000e+00 1851878480
14.453915 -5.332830 -2.239068 0.000000000000000e+00 1851878480
14.425987 -6.013075 -2.238376 0.000000000000000e+00 1851878480
14.513812 -7.513146 -2.243905 0.000000000000000e+00 1851878480
14.498905 -8.280991 -2.229084 0.000000000000000e+00 1851878480
13.624956 -5.023102 -2.236378 0.000000000000000e+00 1851878480
13.617250 -5.673957 -2.242496 0.000000000000000e+00 1851878480
13.644480 -7.065361 -2.248270 0.000000000000000e+00 1851878480
13.583160 -7.762628 -2.231428 0.000000000000000e+00 1851878480
12.925116 -4.761402 -2.241059 0.000000000000000e+00 1851878480
12.826814 -5.342688 -2.234714 0.000000000000000e+00 1851878480
12.850040 -6.656085 -2.248413 0.000000000000000e+00 1851878480
12.839949 -7.342310 -2.245029 0.000000000000000e+00 1851878480
12.239221 -4.505222 -2.235627 0.000000000000000e+00 1851878480
12.228896 -5.091821 -2.247537 0.000000000000000e+00 1851878480
12.073003 -6.255577 -2.235937 0.000000000000000e+00 1851878480
12.086244 -6.915499 -2.241369 0.000000000000000e+00 1851878480
11.688439 -4.299129 -2.243697 0.000000000000000e+00 1851878480
11.568151 -4.814969 -2.237077 0.000000000000000e+00 1851878480
11.484878 -5.952731 -2.244841 0.000000000000000e+00 1851878480
11.447460 -6.553962 -2.244649 0.000000000000000e+00 1851878480
11.163905 -4.102986 -2.247100 0.000000000000000e+00 1851878480
11.044149 -4.595203 -2.242008 0.000000000000000e+00 1851878480
10.919597 -5.661538 -2.246739 0.000000000000000e+00 1851878480
10.900229 -6.244452 -2.253661 0.000000000000000e+00 1851878480
10.630411 -3.903850 -2.239130 0.000000000000000e+00 1851878480
10.503613 -4.368718 -2.233653 0.000000000000000e+00 1851878480
10.410076 -5.399087 -2.249411 0.000000000000000e+00 1851878480
10.324868 -5.918450 -2.245270 0.000000000000000e+00 1851878480
10.191012 -3.739544 -2.242182 0.000000000000000e+00 1851878480
10.105741 -4.201705 -2.246900 0.000000000000000e+00 1851878480
9.923341 -5.148304 -2.247086 0.000000000000000e+00 1851878480
9.783238 -5.611409 -2.232646 0.000000000000000e+00 1851878480
9.797535 -3.592317 -2.247824 0.000000000000000e+00 1851878480
9.702063 -4.032399 -2.251412 0.000000000000000e+00 1851878480
9.496051 -4.928206 -2.249111 0.000000000000000e+00 1851878480
9.383523 -5.385451 -2.242681 0.000000000000000e+00 1851878480
9.427325 -3.453838 -2.251921 0.000000000000000e+00 1851878480
9.272497 -3.852452 -2.242144 0.000000000000000e+00 1851878480
9.096951 -4.722610 -2.249584 0.000000000000000e+00 1851878480
8.981082 -5.157660 -2.243801 0.000000000000000e+00 1851878480
9.020330 -3.302096 -2.240196 0.000000000000000e+00 1851878480
9.005088 -3.739976 -2.265615 0.000000000000000e+00 1851878480
8.711053 -4.523739 -2.245492 0.000000000000000e+00 1851878480
8.596282 -4.939730 -2.241193 0.000000000000000e+00 1851878480
8.658579 -3.167140 -2.232730 0.000000000000000e+00 1851878480
8.581432 -3.562712 -2.243340 0.000000000000000e+00 1851878480
8.388095 -4.357443 -2.250561 0.000000000000000e+00 1851878480
8.257608 -4.748070 -2.243135 0.000000000000000e+00 1851878480
8.410417 -3.073899 -2.249063 0.000000000000000e+00 1851878480
8.263158 -3.429305 -2.241651 0.000000000000000e+00 1851878480
8.074199 -4.195755 -2.251729 0.000000000000000e+00 1851878480
7.919363 -4.556428 -2.238192 0.000000000000000e+00 1851878480
8.111496 -2.962255 -2.246913 0.000000000000000e+00 1851878480
7.973361 -3.307808 -2.242022 0.000000000000000e+00 1851878480
7.803094 -4.056203 -2.259020 0.000000000000000e+00 1851878480
7.644978 -4.401319 -2.244970 0.000000000000000e+00 1851878480
7.793057 -2.843655 -2.233748 0.000000000000000e+00 1851878480
7.766475 -3.220778 -2.261120 0.000000000000000e+00 1851878480
7.483185 -3.891195 -2.246276 0.000000000000000e+00 1851878480
7.370105 -4.245745 -2.245944 0.000000000000000e+00 1851878480
7.568526 -2.759479 -2.242590 0.000000000000000e+00 1851878480
7.449836 -3.088306 -2.243390 0.000000000000000e+00 1851878480
7.242431 -3.767254 -2.251685 0.000000000000000e+00 1851878480
7.158858 -4.126667 -2.261323 0.000000000000000e+00 1851878480
7.351461 -2.678144 -2.249694 0.000000000000000e+00 1851878480
7.245551 -3.002490 -2.254626 0.000000000000000e+00 1851878480
6.975994 -3.629871 -2.244046 0.000000000000000e+00 1851878480
6.888983 -3.973625 -2.253225 0.000000000000000e+00 1851878480
7.106943 -2.586942 -2.244239 0.000000000000000e+00 1851878480
7.018765 -2.907410 -2.254874 0.000000000000000e+00 1851878480
6.770788 -3.524275 -2.251403 0.000000000000000e+00 1851878480
6.645552 -3.835667 -2.248435 0.000000000000000e+00 1851878480
6.865921 -2.497143 -2.235469 0.000000000000000e+00 1851878480
6.763362 -2.800545 -2.241403 0.000000000000000e+00 1851878480
6.572501 -3.422215 -2.257070 0.000000000000000e+00 1851878480
6.443292 -3.721322 -2.252960 0.000000000000000e+00 1851878480
6.693848 -2.432537 -2.245425 0.000000000000000e+00 1851878480
6.612965 -2.737222 -2.258964 0.000000000000000e+00 1851878480
6.370536 -3.318182 -2.257500 0.000000000000000e+00 1851878480
6.250309 -3.612199 -2.256662 0.000000000000000e+00 1851878480
6.476232 -2.351490 -2.236591 0.000000000000000e+00 1851878480
6.427374 -2.659378 -2.261426 0.000000000000000e+00 1851878480
6.168823 -3.214209 -2.253982 0.000000000000000e+00 1851878480
6.011674 -3.476550 -2.239375 0.000000000000000e+00 1851878480
6.305754 -2.287669 -2.240524 0.000000000000000e+00 1851878480
6.230145 -2.576777 -2.256222 0.000000000000000e+00 1851878480
6.029378 -3.142629 -2.269851 0.000000000000000e+00 1851878480
5.859194 -3.390589 -2.250112 0.000000000000000e+00 1851878480
6.198433 -2.246834 -2.264470 0.000000000000000e+00 1851878480
5.980446 -2.472535 -2.227761 0.000000000000000e+00 1851878480
5.771388 -3.009195 -2.237077 0.000000000000000e+00 1851878480
5.660470 -3.277750 -2.239455 0.000000000000000e+00 1851878480
6.007560 -2.175795 -2.255243 0.000000000000000e+00 1851878480
5.922871 -2.447774 -2.268040 0.000000000000000e+00 1851878480
5.649904 -2.946875 -2.253376 0.000000000000000e+00 1851878480
5.490485 -3.181422 -2.236303 0.000000000000000e+00 1851878480
5.842186 -2.114092 -2.252343 0.000000000000000e+00 1851878480
5.723251 -2.364345 -2.251604 0.000000000000000e+00 1851878480
5.469623 -2.853838 -2.243233 0.000000000000000e+00 1851878480
5.339950 -3.096262 -2.237748 0.000000000000000e+00 1851878480
5.675759 -2.052099 -2.246018 0.000000000000000e+00 1851878480
5.483891 -2.264563 -2.215284 0.000000000000000e+00 1851878480
5.324295 -2.778988 -2.244147 0.000000000000000e+00 1851878480
5.199645 -3.016932 -2.240481 0.000000000000000e+00 1851878480
5.554255 -2.006429 -2.254882 0.000000000000000e+00 1851878480
5.416535 -2.235854 -2.245574 0.000000000000000e+00 1851878480
5.197090 -2.713552 -2.250002 0.000000000000000e+00 1851878480
5.054520 -2.934714 -2.238181 0.000000000000000e+00 1851878480
5.380826 -1.942086 -2.239992 0.000000000000000e+00 1851878480
5.284351 -2.180418 -2.247235 0.000000000000000e+00 1851878480
5.085058 -2.656002 -2.260095 0.000000000000000e+00 1851878480
4.951084 -2.876614 -2.251807 0.000000000000000e+00 1851878480
5.286410 -1.906332 -2.255582 0.000000000000000e+00 1851878480
5.160271 -2.128357 -2.249972 0.000000000000000e+00 1851878480
4.927599 -2.574681 -2.247297 0.000000000000000e+00 1851878480
4.839922 -2.813957 -2.259774 0.000000000000000e+00 1851878480
5.107440 -1.840165 -2.232608 0.000000000000000e+00 1851878480
5.016289 -2.068130 -2.241517 0.000000000000000e+00 1851878480
4.826295 -2.522660 -2.257517 0.000000000000000e+00 1851878480
4.675976 -2.720514 -2.240198 0.000000000000000e+00 1851878480
4.992176 -1.797036 -2.234761 0.000000000000000e+00 1851878480
4.881080 -2.011559 -2.234329 0.000000000000000e+00 1851878480
4.680959 -2.447580 -2.244667 0.000000000000000e+00 1851878480
4.565516 -2.658098 -2.243337 0.000000000000000e+00 1851878480
4.862270 -1.748705 -2.228137 0.000000000000000e+00 1851878480
4.840738 -1.994110 -2.269033 0.000000000000000e+00 1851878480
4.600929 -2.406617 -2.260898 0.000000000000000e+00 1851878480
4.466974 -2.602548 -2.250204 0.000000000000000e+00 1851878480
4.761533 -1.710924 -2.232796 0.000000000000000e+00 1851878480
4.710513 -1.939657 -2.260114 0.000000000000000e+00 1851878480
4.498757 -2.354042 -2.264507 0.000000000000000e+00 1851878480
4.355556 -2.539427 -2.248429 0.000000000000000e+00 1851878480
4.680339 -1.680218 -2.245042 0.000000000000000e+00 1851878480
4.636748 -1.908480 -2.276414 0.000000000000000e+00 1851878480
4.373685 -2.289448 -2.254292 0.000000000000000e+00 1851878480
4.256724 -2.483573 -2.250971 0.000000000000000e+00 1851878480
4.577428 -1.641763 -2.245261 0.000000000000000e+00 1851878480
4.517259 -1.858513 -2.268500 0.000000000000000e+00 1851878480
4.274215 -2.238218 -2.254992 0.000000000000000e+00 1851878480
4.152947 -2.424766 -2.248796 0.000000000000000e+00 1851878480
4.502503 -1.613398 -2.257655 0.000000000000000e+00 1851878480
4.382586 -1.802336 -2.250496 0.000000000000000e+00 1851878480
4.205802 -2.203225 -2.270468 0.000000000000000e+00 1851878480
4.003294 -2.339083 -2.219010 0.000000000000000e+00 1851878480
4.399773 -1.575113 -2.254546 0.000000000000000e+00 1851878480
4.287715 -1.762560 -2.250725 0.000000000000000e+00 1851878480
4.107806 -2.152709 -2.268369 0.000000000000000e+00 1851878480
3.962775 -2.317099 -2.247737 0.000000000000000e+00 1851878480
4.334024 -1.550116 -2.268916 0.000000000000000e+00 1851878480
4.184376 -1.719335 -2.244640 0.000000000000000e+00 1851878480
3.972707 -2.082713 -2.243335 0.000000000000000e+00 1851878480
3.903264 -2.283985 -2.264861 0.000000000000000e+00 1851878480
4.245458 -1.516995 -2.270015 0.000000000000000e+00 1851878480
4.097149 -1.682757 -2.245404 0.000000000000000e+00 1851878480
3.967634 -2.080860 -2.290421 0.000000000000000e+00 1851878480
3.822356 -2.238305 -2.268206 0.000000000000000e+00 1851878480
4.135176 -1.476174 -2.257668 0.000000000000000e+00 1851878480
4.061366 -1.667325 -2.273342 0.000000000000000e+00 1851878480
3.836676 -2.012967 -2.263571 0.000000000000000e+00 1851878480
3.750143 -2.197669 -2.275169 0.000000000000000e+00 1851878480
4.076670 -1.453881 -2.272079 0.000000000000000e+00 1634890835
3.869118 -1.587693 -2.211430 0.000000000000000e+00 1851878480
3.739080 -1.962537 -2.253949 0.000000000000000e+00 1851878480
3.622005 -2.124186 -2.246013 0.000000000000000e+00 1851878480
4.060281 -1.446624 -2.309518 0.000000000000000e+00 1634890835
3.839625 -1.574882 -2.240331 0.000000000000000e+00 1851878480
3.688590 -1.936809 -2.271280 0.000000000000000e+00 1851878480
3.532881 -2.073502 -2.238608 0.000000000000000e+00 1851878480
3.918684 -1.394799 -2.274328 0.000000000000000e+00 1634890835
3.799419 -1.557685 -2.262571 0.000000000000000e+00 1851878480
3.605572 -1.893978 -2.267313 0.000000000000000e+00 1851878480
3.474538 -2.040835 -2.249192 0.000000000000000e+00 1851878480
3.858346 -1.371956 -2.284369 0.000000000000000e+00 1634890835
3.698058 -1.515434 -2.247107 0.000000000000000e+00 1851878480
3.497737 -1.838080 -2.245703 0.000000000000000e+00 1851878480
3.372325 -1.982345 -2.229659 0.000000000000000e+00 1851878480
3.786613 -1.345098 -2.286533 0.000000000000000e+00 1634890835
3.622976 -1.483981 -2.245893 0.000000000000000e+00 1851878480
3.468843 -1.823647 -2.273442 0.000000000000000e+00 1851878480
3.319595 -1.952887 -2.241189 0.000000000000000e+00 1851878480
3.725461 -1.322032 -2.293938 0.000000000000000e+00 1634890835
3.399320 -1.787840 -2.273715 0.000000000000000e+00 1851878480
3.283883 -1.933419 -2.263472 0.000000000000000e+00 1851878480
3.670390 -1.301155 -2.304130 0.000000000000000e+00 1634890835
3.534942 -1.446560 -2.279267 0.000000000000000e+00 1634890835
3.304674 -1.738790 -2.255447 0.000000000000000e+00 1851878480
3.161511 -1.862868 -2.224283 0.000000000000000e+00 1851878480
3.537805 -1.252854 -2.263827 0.000000000000000e+00 1634890835
3.469136 -1.418955 -2.280649 0.000000000000000e+00 1634890835
3.250354 -1.710934 -2.263154 0.000000000000000e+00 1851878480
3.142923 -1.853423 -2.256606 0.000000000000000e+00 1851878480
3.456358 -1.222728 -2.254073 0.000000000000000e+00 1634890835
3.378788 -1.381333 -2.264369 0.000000000000000e+00 1634890835
3.200127 -1.685216 -2.272760 0.000000000000000e+00 1851878480
3.074370 -1.814489 -2.252306 0.000000000000000e+00 1851878480
3.468573 -1.225752 -2.304991 0.000000000000000e+00 1634890835
3.375742 -1.379415 -2.305862 0.000000000000000e+00 1634890835
3.113076 -1.640084 -2.254792 0.000000000000000e+00 1851878480
2.995474 -1.769396 -2.238790 0.000000000000000e+00 1851878480
3.375571 -1.191610 -2.285427 0.000000000000000e+00 1634890835
3.289483 -1.343507 -2.289823 0.000000000000000e+00 1634890835
3.081120 -1.623960 -2.275557 0.000000000000000e+00 1851878480
2.957306 -1.748320 -2.254506 0.000000000000000e+00 1851878480
3.326093 -1.172870 -2.293995 0.000000000000000e+00 1634890835
3.235277 -1.320708 -2.294732 0.000000000000000e+00 1634890835
3.017692 -1.591234 -2.272225 0.000000000000000e+00 1851878480
2.862468 -1.693695 -2.225555 0.000000000000000e+00 1851878480
3.222605 -1.135134 -2.263822 0.000000000000000e+00 1634890835
3.198388 -1.304991 -2.311195 0.000000000000000e+00 1634890835
2.955518 -1.559149 -2.268539 0.000000000000000e+00 1851878480
2.880009 -1.705541 -2.283350 0.000000000000000e+00 1851878480
3.201248 -1.126362 -2.290204 0.000000000000000e+00 1634890835
3.125698 -1.274681 -2.300806 0.000000000000000e+00 1634890835
2.855864 -1.507260 -2.234233 0.000000000000000e+00 1851878480
2.784802 -1.650600 -2.251107 0.000000000000000e+00 1851878480
3.159456 -1.110410 -2.301612 0.000000000000000e+00 1634890835
3.057091 -1.246060 -2.291999 0.000000000000000e+00 1634890835
2.874140 -1.517604 -2.291515 0.000000000000000e+00 1851878480
2.716611 -1.611603 -2.238708 0.000000000000000e+00 1851878480
3.081520 -1.081789 -2.285590 0.000000000000000e+00 1634890835
3.037191 -1.237301 -2.318996 0.000000000000000e+00 1634890835
2.791961 -1.474896 -2.268282 0.000000000000000e+00 1851878480
0.872857 -0.518277 -0.733215 0.000000000000000e+00 1886740808
3.022469 -1.059838 -2.282236 0.000000000000000e+00 1634890835
2.983572 -1.214815 -2.319733 0.000000000000000e+00 1634890835
2.789816 -1.474458 -2.309343 0.000000000000000e+00 1634890835
0.841344 -0.500018 -0.720330 0.000000000000000e+00 1886740808
2.979084 -1.043410 -2.289817 0.000000000000000e+00 1634890835
2.928128 -1.191603 -2.318033 0.000000000000000e+00 1634890835
0.883752 -0.467299 -0.745287 0.000000000000000e+00 1886740808
0.866519 -0.515453 -0.756069 0.000000000000000e+00 1886740808
2.918533 -1.020997 -2.283278 0.000000000000000e+00 1634890835
2.850005 -1.159178 -2.296995 0.000000000000000e+00 1634890835
0.891850 -0.471808 -0.766165 0.000000000000000e+00 1886740808
0.810015 -0.482289 -0.720212 0.000000000000000e+00 1886740808
2.913300 -1.017947 -2.319611 0.000000000000000e+00 1634890835
2.770540 -1.126239 -2.273129 0.000000000000000e+00 1634890835
0.859096 -0.454703 -0.751747 0.000000000000000e+00 1886740808
0.778012 -0.463670 -0.704854 0.000000000000000e+00 1886740808
2.823246 -0.985287 -2.287582 0.000000000000000e+00 1634890835
2.766904 -1.124134 -2.310797 0.000000000000000e+00 1634890835
0.847299 -0.448682 -0.755144 0.000000000000000e+00 1886740808
0.786034 -0.468899 -0.725546 0.000000000000000e+00 1886740808
2.785008 -0.970747 -2.296241 0.000000000000000e+00 1634890835
0.858821 -0.348724 -0.730035 0.000000000000000e+00 1886740808
0.792118 -0.419672 -0.718973 0.000000000000000e+00 1886740808
0.786605 -0.469695 -0.739705 0.000000000000000e+00 1886740808
0.877318 -0.305419 -0.736001 0.000000000000000e+00 1886740808
0.857739 -0.348085 -0.742058 0.000000000000000e+00 1886740808
0.763394 -0.404660 -0.705620 0.000000000000000e+00 1886740808
0.759285 -0.453827 -0.727369 0.000000000000000e+00 1886740808
0.835972 -0.290657 -0.713530 0.000000000000000e+00 1886740808
0.838412 -0.340044 -0.738162 0.000000000000000e+00 1886740808
0.780025 -0.413690 -0.734180 0.000000000000000e+00 1886740808
0.769657 -0.460485 -0.751051 0.000000000000000e+00 1886740808
0.838610 -0.291201 -0.728203 0.000000000000000e+00 1886740808
0.802883 -0.325441 -0.719334 0.000000000000000e+00 1886740808
0.778290 -0.412987 -0.745902 0.000000000000000e+00 1886740808
0.730879 -0.437727 -0.726465 0.000000000000000e+00 1886740808
0.775992 -0.269107 -0.685482 0.000000000000000e+00 1886740808
0.807924 -0.327290 -0.736561 0.000000000000000e+00 1886740808
0.787711 -0.418208 -0.768653 0.000000000000000e+00 1886740808
0.781327 -0.468421 -0.791004 0.000000000000000e+00 1886740808
0.871265 -0.301748 -0.782910 0.000000000000000e+00 1886740808
0.751423 -0.304216 -0.697044 0.000000000000000e+00 1886740808
0.776953 -0.412721 -0.771903 0.000000000000000e+00 1886740808
0.786226 -0.471850 -0.810682 0.000000000000000e+00 1886740808
0.747971 -0.258700 -0.683673 0.000000000000000e+00 1886740808
0.769159 -0.311205 -0.725956 0.000000000000000e+00 1886740808
0.804834 -0.427765 -0.814067 0.000000000000000e+00 1886740808
0.760200 -0.456713 -0.798312 0.000000000000000e+00 1886740808
0.772550 -0.266838 -0.718246 0.000000000000000e+00 1886740808
0.768478 -0.310735 -0.737947 0.000000000000000e+00 1886740808
0.761613 -0.405020 -0.784259 0.000000000000000e+00 1886740808
0.752173 -0.452377 -0.804434 0.000000000000000e+00 1886740808
0.746182 -0.257374 -0.705599 0.000000000000000e+00 1886740808
0.770703 -0.311436 -0.752948 0.000000000000000e+00 1886740808
0.744791 -0.396299 -0.780761 0.000000000000000e+00 1886740808
2.144086 -1.290922 -2.335247 0.000000000000000e+00 1634890835
0.785452 -0.270538 -0.755414 0.000000000000000e+00 1886740808
0.762663 -0.307988 -0.758024 0.000000000000000e+00 1886740808
0.768004 -0.408886 -0.819589 0.000000000000000e+00 1886740808
2.057712 -1.240295 -2.282362 0.000000000000000e+00 1634890835
0.733924 -0.252429 -0.717888 0.000000000000000e+00 1886740808
0.753919 -0.304257 -0.762317 0.000000000000000e+00 1886740808
2.095985 -1.116555 -2.276995 0.000000000000000e+00 1634890835
2.035672 -1.228397 -2.299387 0.000000000000000e+00 1634890835
0.753214 -0.258687 -0.749297 0.000000000000000e+00 1886740808
0.728761 -0.293908 -0.749632 0.000000000000000e+00 1886740808
2.098798 -1.118721 -2.321031 0.000000000000000e+00 1634890835
0.807112 -0.487600 -0.928408 0.000000000000000e+00 1886740808
0.727440 -0.249466 -0.735960 0.000000000000000e+00 1886740808
0.774443 -0.312119 -0.810398 0.000000000000000e+00 1886740808
2.028420 -1.081862 -2.283503 0.000000000000000e+00 1634890835
0.763519 -0.461804 -0.894387 0.000000000000000e+00 1886740808
0.745482 -0.255269 -0.767027 0.000000000000000e+00 1886740808
0.772124 -0.310970 -0.821935 0.000000000000000e+00 1886740808
2.022236 -1.079228 -2.317442 0.000000000000000e+00 1634890835
0.814957 -0.493502 -0.972171 0.000000000000000e+00 1886740808
0.722090 -0.246881 -0.755576 0.000000000000000e+00 1886740808
2.121100 -0.853664 -2.296950 0.000000000000000e+00 1634890835
0.821667 -0.438784 -0.958537 0.000000000000000e+00 1886740808
0.782851 -0.474635 -0.951031 0.000000000000000e+00 1886740808
0.729860 -0.249149 -0.776670 0.000000000000000e+00 1886740808
2.082567 -0.837557 -2.294190 0.000000000000000e+00 1634890835
0.780474 -0.417051 -0.926853 0.000000000000000e+00 1886740808
0.790579 -0.479912 -0.978081 0.000000000000000e+00 1886740808
0.769069 -0.262117 -0.832289 0.000000000000000e+00 1886740808
2.005918 -0.806143 -2.247947 0.000000000000000e+00 1634890835
0.829109 -0.443328 -1.002332 0.000000000000000e+00 1886740808
1.853710 -1.126688 -2.335587 0.000000000000000e+00 1634890835
2.082727 -0.708696 -2.292214 0.000000000000000e+00 1634890835
2.025715 -0.813495 -2.309396 0.000000000000000e+00 1634890835
0.791967 -0.423750 -0.974684 0.000000000000000e+00 1886740808
1.763683 -1.073342 -2.263140 0.000000000000000e+00 1634890835
2.068923 -0.702840 -2.315721 0.000000000000000e+00 1634890835
1.967844 -0.789657 -2.282257 0.000000000000000e+00 1634890835
0.787111 -0.421435 -0.986191 0.000000000000000e+00 1886740808
0.748512 -0.456124 -0.978231 0.000000000000000e+00 1886740808
2.008605 -0.681203 -2.286453 0.000000000000000e+00 1634890835
1.969877 -0.789864 -2.324215 0.000000000000000e+00 1634890835
0.795208 -0.426063 -1.014353 0.000000000000000e+00 1886740808
1.735957 -1.059256 -2.310740 0.000000000000000e+00 1634890835
1.978005 -0.669677 -2.289970 0.000000000000000e+00 1634890835
0.806978 -0.323321 -0.968665 0.000000000000000e+00 1886740808
1.761385 -0.944394 -2.287509 0.000000000000000e+00 1634890835
1.703140 -1.040643 -2.309151 0.000000000000000e+00 1634890835
1.962072 -0.663123 -2.310274 0.000000000000000e+00 1634890835
0.799683 -0.320141 -0.976602 0.000000000000000e+00 1886740808
0.765495 -0.410726 -1.012210 0.000000000000000e+00 1886740808
1.664577 -1.018489 -2.298892 0.000000000000000e+00 1634890835
1.898399 -0.640460 -2.273502 0.000000000000000e+00 1634890835
0.810294 -0.324124 -1.006808 0.000000000000000e+00 1886740808
1.735361 -0.931785 -2.336463 0.000000000000000e+00 1634890835
1.662873 -1.018886 -2.339443 0.000000000000000e+00 1634890835
0.817092 -0.275160 -0.995299 0.000000000000000e+00 1886740808
0.780222 -0.311834 -0.986380 0.000000000000000e+00 1886740808
1.694126 -0.910324 -2.322638 0.000000000000000e+00 1634890835
1.597237 -0.980082 -2.289233 0.000000000000000e+00 1634890835
0.787541 -0.264716 -0.975772 0.000000000000000e+00 1886740808
0.785429 -0.313649 -1.010359 0.000000000000000e+00 1886740808
1.643791 -0.883949 -2.294964 0.000000000000000e+00 1634890835
1.585913 -0.974570 -2.315788 0.000000000000000e+00 1634890835
0.795052 -0.266733 -1.002035 0.000000000000000e+00 1886740808
0.774668 -0.309082 -1.014028 0.000000000000000e+00 1886740808
1.676442 -0.902209 -2.383644 0.000000000000000e+00 1634890835
1.566279 -0.963954 -2.330350 0.000000000000000e+00 1634890835
0.801863 -0.268496 -1.028069 0.000000000000000e+00 1886740808
1.720853 -0.685987 -2.292288 0.000000000000000e+00 1634890835
1.610858 -0.867602 -2.332739 0.000000000000000e+00 1634890835
1.529503 -0.942771 -2.318851 0.000000000000000e+00 1634890835
0.772962 -0.258306 -1.008183 0.000000000000000e+00 1886740808
1.703352 -0.678394 -2.309130 0.000000000000000e+00 1634890835
1.565801 -0.844020 -2.309601 0.000000000000000e+00 1634890835
1.466921 -0.905621 -2.266417 0.000000000000000e+00 1634890835
0.764916 -0.255098 -1.015034 0.000000000000000e+00 1886740808
0.754769 -0.300323 -1.041374 0.000000000000000e+00 1886740808
1.537970 -0.829707 -2.310885 0.000000000000000e+00 1634890835
1.464239 -0.905422 -2.305678 0.000000000000000e+00 1634890835
1.727547 -0.574938 -2.332448 0.000000000000000e+00 1634890835
1.618271 -0.643298 -2.272614 0.000000000000000e+00 1634890835
1.519138 -0.820245 -2.325408 0.000000000000000e+00 1634890835
1.427109 -0.883918 -2.290573 0.000000000000000e+00 1634890835
0.771285 -0.256143 -1.059604 0.000000000000000e+00 1886740808
1.594711 -0.633316 -2.279676 0.000000000000000e+00 1634890835
1.519622 -0.821223 -2.370027 0.000000000000000e+00 1634890835
1.418811 -0.880265 -2.321463 0.000000000000000e+00 1634890835
1.661930 -0.550724 -2.323389 0.000000000000000e+00 1634890835
1.595870 -0.633144 -2.322433 0.000000000000000e+00 1634890835
1.459142 -0.789241 -2.318877 0.000000000000000e+00 1634890835
1.374192 -0.854057 -2.292385 0.000000000000000e+00 1634890835
1.586469 -0.524546 -2.257140 0.000000000000000e+00 1634890835
1.568526 -0.621661 -2.323982 0.000000000000000e+00 1634890835
1.414704 -0.765903 -2.291180 0.000000000000000e+00 1634890835
1.344103 -0.836837 -2.286296 0.000000000000000e+00 1634890835
1.603623 -0.529007 -2.322126 0.000000000000000e+00 1634890835
1.511476 -0.598424 -2.280243 0.000000000000000e+00 1634890835
1.418152 -0.768489 -2.340904 0.000000000000000e+00 1634890835
1.333636 -0.831831 -2.313434 0.000000000000000e+00 1634890835
1.580946 -0.520302 -2.330229 0.000000000000000e+00 1634890835
1.506547 -0.595832 -2.314447 0.000000000000000e+00 1634890835
1.387179 -0.752427 -2.334088 0.000000000000000e+00 1634890835
1.286719 -0.804064 -2.276601 0.000000000000000e+00 1634890835
1.516800 -0.497990 -2.275897 0.000000000000000e+00 1634890835
1.507415 -0.595519 -2.358475 0.000000000000000e+00 1634890835
1.375511 -0.746833 -2.359572 0.000000000000000e+00 1634890835
1.286245 -0.805307 -2.321550 0.000000000000000e+00 1634890835
1.517038 -0.496837 -2.317452 0.000000000000000e+00 1634890835
1.432201 -0.565167 -2.282384 0.000000000000000e+00 1634890835
1.307401 -0.710570 -2.286791 0.000000000000000e+00 1634890835
1.234711 -0.774561 -2.273745 0.000000000000000e+00 1634890835
1.471812 -0.480804 -2.289322 0.000000000000000e+00 1634890835
1.433101 -0.564868 -2.326500 0.000000000000000e+00 1634890835
1.309482 -0.712440 -2.335787 0.000000000000000e+00 1634890835
1.241621 -0.780469 -2.333261 0.000000000000000e+00 1634890835
1.414882 -0.461001 -2.241134 0.000000000000000e+00 1634890835
1.371088 -0.539781 -2.267729 0.000000000000000e+00 1634890835
1.264271 -0.688576 -2.300180 0.000000000000000e+00 1634890835
1.202984 -0.757750 -2.307340 0.000000000000000e+00 1634890835
1.406070 -0.456902 -2.268318 0.000000000000000e+00 1634890835
1.346547 -0.529471 -2.269388 0.000000000000000e+00 1634890835
1.249894 -0.681491 -2.319839 0.000000000000000e+00 1634890835
1.171487 -0.739486 -2.293777 0.000000000000000e+00 1634890835
1.392910 -0.451378 -2.288909 0.000000000000000e+00 1634890835
1.357942 -0.533279 -2.332358 0.000000000000000e+00 1634890835
1.227335 -0.669947 -2.324291 0.000000000000000e+00 1634890835
1.154410 -0.730308 -2.307937 0.000000000000000e+00 1634890835
1.364496 -0.440916 -2.284278 0.000000000000000e+00 1634890835
1.320648 -0.517962 -2.312044 0.000000000000000e+00 1634890835
1.202449 -0.657124 -2.323917 0.000000000000000e+00 1634890835
1.126392 -0.714194 -2.299838 0.000000000000000e+00 1634890835
1.337379 -0.430888 -2.281223 0.000000000000000e+00 1634890835
1.305268 -0.511247 -2.329573 0.000000000000000e+00 1634890835
1.193865 -0.653214 -2.355182 0.000000000000000e+00 1634890835
1.088762 -0.691941 -2.270819 0.000000000000000e+00 1634890835
1.334544 -0.428680 -2.319811 0.000000000000000e+00 1634890835
1.270477 -0.496937 -2.311996 0.000000000000000e+00 1634890835
1.145383 -0.627458 -2.306894 0.000000000000000e+00 1634890835
1.085636 -0.691612 -2.313555 0.000000000000000e+00 1634890835
1.284884 -0.411446 -2.276473 0.000000000000000e+00 1634890835
1.254285 -0.489909 -2.327769 0.000000000000000e+00 1634890835
1.117311 -0.612856 -2.298034 0.000000000000000e+00 1634890835
1.050086 -0.670621 -2.287047 0.000000000000000e+00 1634890835
1.269211 -0.405124 -2.292387 0.000000000000000e+00 1634890835
1.209217 -0.471617 -2.289051 0.000000000000000e+00 1634890835
1.090240 -0.598791 -2.290408 0.000000000000000e+00 1634890835
1.037927 -0.664549 -2.310929 0.000000000000000e+00 1634890835
1.255843 -0.399532 -2.312736 0.000000000000000e+00 1634890835
1.183074 -0.460726 -2.284857 0.000000000000000e+00 1634890835
1.089788 -0.599353 -2.339105 0.000000000000000e+00 1634890835
1.018110 -0.653582 -2.317953 0.000000000000000e+00 1634890835
1.219323 -0.386586 -2.289969 0.000000000000000e+00 1634890835
1.162101 -0.451855 -2.290233 0.000000000000000e+00 1634890835
1.057520 -0.582418 -2.319671 0.000000000000000e+00 1634890835
0.993888 -0.639773 -2.314540 0.000000000000000e+00 1634890835
1.205478 -0.380844 -2.309296 0.000000000000000e+00 1634890835
1.140470 -0.442731 -2.294067 0.000000000000000e+00 1634890835
1.045387 -0.576566 -2.344037 0.000000000000000e+00 1634890835
0.946281 -0.610848 -2.254751 0.000000000000000e+00 1634890835
1.179644 -0.371319 -2.305548 0.000000000000000e+00 1634890835
1.135590 -0.440104 -2.332023 0.000000000000000e+00 1634890835
1.019688 -0.563232 -2.337924 0.000000000000000e+00 1634890835
0.929709 -0.601901 -2.267343 0.000000000000000e+00 1634890835
1.162138 -0.364421 -2.317829 0.000000000000000e+00 1634890835
1.093578 -0.423092 -2.293281 0.000000000000000e+00 1634890835
0.994752 -0.550307 -2.332843 0.000000000000000e+00 1634890835
0.918560 -0.596481 -2.293597 0.000000000000000e+00 1634890835
1.130724 -0.353178 -2.301883 0.000000000000000e+00 1634890835
1.095168 -0.422952 -2.345834 0.000000000000000e+00 1634890835
0.992013 -0.549670 -2.380316 0.000000000000000e+00 1634890835
0.907532 -0.591168 -2.320961 0.000000000000000e+00 1634890835
1.096607 -0.341126 -2.279232 0.000000000000000e+00 1634890835
1.049298 -0.404488 -2.296377 0.000000000000000e+00 1634890835
0.945306 -0.524660 -2.321578 0.000000000000000e+00 1634890835
0.879303 -0.574642 -2.304119 0.000000000000000e+00 1634890835
1.093743 -0.338798 -2.321543 0.000000000000000e+00 1634890835
1.038217 -0.399449 -2.322117 0.000000000000000e+00 1634890835
0.930942 -0.517578 -2.340886 0.000000000000000e+00 1634890835
0.860084 -0.563980 -2.310151 0.000000000000000e+00 1634890835
1.063859 -0.328093 -2.306682 0.000000000000000e+00 1634890835
1.017302 -0.390624 -2.326103 0.000000000000000e+00 1634890835
0.919603 -0.512187 -2.368463 0.000000000000000e+00 1634890835
0.837876 -0.551346 -2.307784 0.000000000000000e+00 1634890835
1.019032 -0.312833 -2.257657 0.000000000000000e+00 1634890835
0.989291 -0.379082 -2.313251 0.000000000000000e+00 1634890835
0.866917 -0.483740 -2.287826 0.000000000000000e+00 1634890835
0.453838 -0.299728 -1.282401 0.000000000000000e+00 1936876886
1.014769 -0.310042 -2.297917 0.000000000000000e+00 1634890835
0.952584 -0.364232 -2.278589 0.000000000000000e+00 1634890835
0.855852 -0.478491 -2.315280 0.000000000000000e+00 1634890835
0.440072 -0.291741 -1.276317 0.000000000000000e+00 1936876886
1.002969 -0.304919 -2.322142 0.000000000000000e+00 1634890835
0.950310 -0.362549 -2.326183 0.000000000000000e+00 1634890835
0.829668 -0.464786 -2.301747 0.000000000000000e+00 1634890835
0.437228 -0.291004 -1.302175 0.000000000000000e+00 1936876886
0.963208 -0.291317 -2.280865 0.000000000000000e+00 1634890835
0.928915 -0.353559 -2.327714 0.000000000000000e+00 1634890835
0.469350 -0.263485 -1.335975 0.000000000000000e+00 1936876886
0.333422 -0.222831 -1.020254 0.000000000000000e+00 1953264973
0.963011 -0.289686 -2.333137 0.000000000000000e+00 1634890835
0.918166 -0.348618 -2.356229 0.000000000000000e+00 1634890835
0.434929 -0.244696 -1.270805 0.000000000000000e+00 1936876886
0.317565 -0.213149 -0.998939 0.000000000000000e+00 1953264973
0.512326 -0.153245 -1.270406 0.000000000000000e+00 1936876886
0.886667 -0.335802 -2.331179 0.000000000000000e+00 1634890835
0.367771 -0.207386 -1.103619 0.000000000000000e+00 1953264973
0.280412 -0.189061 -0.907296 0.000000000000000e+00 1953264973
0.497232 -0.147852 -1.262439 0.000000000000000e+00 1936876886
0.841872 -0.317989 -2.268641 0.000000000000000e+00 1634890835
0.334128 -0.188865 -1.030316 0.000000000000000e+00 1953264973
0.255564 -0.173122 -0.851075 0.000000000000000e+00 1953264973
0.473769 -0.140004 -1.232109 0.000000000000000e+00 1936876886
0.838994 -0.316021 -2.318348 0.000000000000000e+00 1634890835
0.311779 -0.176675 -0.988489 0.000000000000000e+00 1953264973
0.257529 -0.175317 -0.883274 0.000000000000000e+00 1953264973
