# .PCD v0.7 - Point Cloud Data file format
VERSION 0.7
FIELDS x y z rgb label
SIZE 4 4 4 4 4
TYPE F F F F U
COUNT 1 1 1 1 1
WIDTH 538
HEIGHT 1
VIEWPOINT 0 0 0 1 0 0 0
POINTS 538
DATA ascii
41.553719 -17.579510 10.066011 0.000000000000000e+00 1954047316
38.767639 -21.621206 10.164293 0.000000000000000e+00 1954047316
32.077396 -11.925877 -2.038013 0.000000000000000e+00 1851878480
31.425425 -13.145100 -1.915765 0.000000000000000e+00 1851878480
28.641563 -14.780346 -1.548802 0.000000000000000e+00 1851878480
27.750313 -15.755651 -1.378067 0.000000000000000e+00 1851878480
28.843527 -10.715442 -2.094583 0.000000000000000e+00 1851878480
28.167305 -11.778139 -1.980838 0.000000000000000e+00 1851878480
26.734858 -13.800679 -1.712543 0.000000000000000e+00 1851878480
26.051025 -14.799583 -1.562735 0.000000000000000e+00 1851878480
26.531065 -9.848868 -2.167897 0.000000000000000e+00 1851878480
26.095005 -10.907770 -2.079637 0.000000000000000e+00 1851878480
25.345449 -13.087512 -1.876817 0.000000000000000e+00 1851878480
24.847944 -14.124434 -1.747528 0.000000000000000e+00 1851878480
24.272778 -9.003697 -2.204313 0.000000000000000e+00 1851878480
24.579670 -10.270748 -2.189471 0.000000000000000e+00 1851878480
23.784660 -12.285372 -1.999238 0.000000000000000e+00 1851878480
23.565668 -13.403477 -1.901407 0.000000000000000e+00 1851878480
22.310196 -8.269399 -2.229401 0.000000000000000e+00 1851878480
22.553366 -9.420740 -2.220828 0.000000000000000e+00 1851878480
22.301888 -11.523070 -2.098091 0.000000000000000e+00 1851878480
21.961447 -12.498431 -1.999777 0.000000000000000e+00 1851878480
20.568199 -7.617908 -2.243017 0.000000000000000e+00 1851878480
20.737270 -8.659084 -2.237068 0.000000000000000e+00 1851878480
20.703342 -10.700440 -2.155512 0.000000000000000e+00 1851878480
20.404982 -11.619528 -2.070078 0.000000000000000e+00 1851878480
18.924500 -7.003770 -2.236718 0.000000000000000e+00 1851878480
19.026220 -7.941815 -2.231744 0.000000000000000e+00 1851878480
19.352938 -10.005610 -2.209518 0.000000000000000e+00 1851878480
19.021978 -10.838409 -2.127818 0.000000000000000e+00 1851878480
17.574160 -6.499039 -2.237991 0.000000000000000e+00 1851878480
17.691422 -7.382040 -2.242146 0.000000000000000e+00 1851878480
17.842054 -9.227349 -2.216784 0.000000000000000e+00 1851878480
17.784105 -10.139124 -2.174892 0.000000000000000e+00 1851878480
16.403400 -6.061432 -2.239326 0.000000000000000e+00 1851878480
16.399614 -6.840594 -2.233500 0.000000000000000e+00 1851878480
16.500710 -8.536319 -2.216731 0.000000000000000e+00 1851878480
16.577761 -9.456997 -2.200714 0.000000000000000e+00 1851878480
15.425234 -5.695599 -2.247516 0.000000000000000e+00 1851878480
15.372147 -6.409736 -2.239217 0.000000000000000e+00 1851878480
15.382217 -7.960179 -2.222129 0.000000000000000e+00 1851878480
15.435940 -8.810895 -2.210932 0.000000000000000e+00 1851878480
14.465270 -5.337019 -2.240827 0.000000000000000e+00 1851878480
14.483236 -6.036938 -2.247258 0.000000000000000e+00 1851878480
14.494375 -7.503085 -2.240900 0.000000000000000e+00 1851878480
14.453633 -8.255134 -2.222123 0.000000000000000e+00 1851878480
7.862377 -2.898617 -1.290518 1.880790849211783e-38 1684957512
7.780912 -3.242105 -1.281365 1.880790849211783e-38 1684957512
13.630380 -7.058059 -2.245946 0.000000000000000e+00 1851878480
13.559647 -7.749189 -2.227565 0.000000000000000e+00 1851878480
7.411911 -2.730427 -1.285136 1.880790849211783e-38 1684957512
7.356445 -3.064143 -1.281655 1.880790849211783e-38 1684957512
12.887581 -6.675531 -2.254982 0.000000000000000e+00 1851878480
12.815043 -7.328068 -2.240674 0.000000000000000e+00 1851878480
6.998008 -2.575947 -1.278263 1.880790849211783e-38 1684957512
7.030553 -2.927355 -1.292139 1.880790849211783e-38 1684957512
12.124292 -6.282152 -2.245436 0.000000000000000e+00 1851878480
12.071158 -6.906867 -2.238571 0.000000000000000e+00 1851878480
6.719675 -2.471566 -1.289900 1.880790849211783e-38 1684957512
6.644103 -2.765450 -1.284853 1.880790849211783e-38 1684957512
6.578655 -3.409785 -1.285868 1.880790849211783e-38 1684957512
11.402473 -6.528206 -2.235828 0.000000000000000e+00 1851878480
6.363307 -2.338659 -1.280823 1.880790849211783e-38 1684957512
6.321291 -2.630136 -1.283249 1.880790849211783e-38 1684957512
6.240536 -3.235561 -1.284009 1.880790849211783e-38 1684957512
10.825924 -6.201884 -2.238298 0.000000000000000e+00 1851878480
6.046099 -2.220334 -1.273516 1.880790849211783e-38 1684957512
6.038774 -2.511679 -1.284180 1.880790849211783e-38 1684957512
6.070976 -3.148654 -1.311818 1.880790849211783e-38 1684957512
10.235848 -5.867422 -2.225912 0.000000000000000e+00 1851878480
6.004679 -2.203388 -1.321123 1.880790849211783e-38 1684957512
6.045766 -2.513673 -1.344209 1.880790849211783e-38 1684957512
6.050124 -3.138850 -1.370017 1.880790849211783e-38 1684957512
9.854855 -5.652486 -2.248990 0.000000000000000e+00 1851878480
6.041285 -2.215069 -1.386037 1.880790849211783e-38 1684957512
6.045309 -2.512569 -1.402844 1.880790849211783e-38 1684957512
6.089646 -3.160370 -1.442315 1.880790849211783e-38 1684957512
9.375068 -5.380599 -2.240660 0.000000000000000e+00 1851878480
6.094252 -2.232718 -1.455745 1.880790849211783e-38 1684957512
6.101099 -2.534829 -1.475281 1.880790849211783e-38 1684957512
6.084394 -3.158665 -1.504610 1.880790849211783e-38 1684957512
9.008840 -5.173601 -2.250736 0.000000000000000e+00 1851878480
6.028290 -2.206792 -1.497124 1.880790849211783e-38 1684957512
6.067186 -2.519812 -1.526460 1.880790849211783e-38 1684957512
6.088308 -3.161721 -1.569413 1.880790849211783e-38 1684957512
8.592708 -4.937676 -2.240261 0.000000000000000e+00 1851878480
6.058975 -2.216255 -1.562387 1.880790849211783e-38 1684957512
6.042789 -2.508756 -1.579693 1.880790849211783e-38 1684957512
6.069805 -3.153139 -1.628554 1.880790849211783e-38 1684957512
8.213458 -4.722684 -2.231142 0.000000000000000e+00 1851878480
6.108754 -2.232671 -1.633566 1.880790849211783e-38 1684957512
6.018816 -2.497878 -1.632801 1.880790849211783e-38 1684957512
6.100531 -3.170139 -1.701314 1.880790849211783e-38 1684957512
7.901746 -4.546293 -2.233213 0.000000000000000e+00 1851878480
6.016470 -2.197168 -1.666583 1.880790849211783e-38 1684957512
6.075575 -2.520498 -1.708386 1.880790849211783e-38 1684957512
6.076614 -3.158745 -1.759199 1.880790849211783e-38 1684957512
7.640708 -4.398860 -2.243717 0.000000000000000e+00 1851878480
6.065298 -2.213202 -1.738515 1.880790849211783e-38 1684957512
6.033161 -2.501968 -1.756485 1.880790849211783e-38 1684957512
6.040051 -3.140777 -1.813081 1.880790849211783e-38 1684957512
7.377792 -4.250174 -2.248287 0.000000000000000e+00 1851878480
6.039951 -2.202161 -1.789666 1.880790849211783e-38 1684957512
6.029931 -2.499689 -1.815810 1.880790849211783e-38 1684957512
6.070567 -3.157692 -1.887350 1.880790849211783e-38 1684957512
7.103491 -4.094752 -2.243834 0.000000000000000e+00 1851878480
6.010959 -2.189798 -1.839474 1.880790849211783e-38 1684957512
6.101986 -2.528607 -1.898778 1.880790849211783e-38 1684957512
6.038703 -3.142163 -1.942538 1.880790849211783e-38 1684957512
6.844373 -3.947893 -2.238634 0.000000000000000e+00 1851878480
6.051044 -2.202593 -1.910806 1.880790849211783e-38 1684957512
6.054400 -2.507938 -1.945059 1.880790849211783e-38 1684957512
6.063668 -3.156211 -2.016274 1.880790849211783e-38 1684957512
6.645171 -3.835447 -2.248306 0.000000000000000e+00 1851878480
6.029788 -2.193041 -1.963233 1.880790849211783e-38 1684957512
6.065107 -2.511415 -2.009999 1.880790849211783e-38 1684957512
6.072318 -3.161776 -2.085301 1.880790849211783e-38 1684957512
6.430473 -3.713918 -2.248477 0.000000000000000e+00 1851878480
6.101147 -2.217150 -2.046605 1.880790849211783e-38 1684957512
6.015918 -2.490094 -2.055015 1.880790849211783e-38 1684957512
6.126395 -3.191017 -2.170984 1.880790849211783e-38 1684957512
6.211287 -3.589647 -2.242573 0.000000000000000e+00 1851878480
6.055415 -2.198694 -2.091260 1.880790849211783e-38 1684957512
6.054164 -2.504960 -2.130115 1.880790849211783e-38 1684957512
6.074814 -3.165227 -2.219633 1.880790849211783e-38 1684957512
5.985827 -3.461603 -2.229747 0.000000000000000e+00 1851878480
6.088060 -2.208692 -2.163175 1.880790849211783e-38 1684957512
6.079343 -2.514405 -2.201610 1.880790849211783e-38 1684957512
5.976227 -3.114926 -2.249842 0.000000000000000e+00 1851878480
5.894145 -3.410814 -2.263534 0.000000000000000e+00 1851878480
6.073654 -2.201603 -2.218885 1.880790849211783e-38 1684957512
6.030413 -2.493193 -2.246374 0.000000000000000e+00 1851878480
5.812116 -3.030431 -2.252864 0.000000000000000e+00 1851878480
5.704362 -3.303166 -2.256820 0.000000000000000e+00 1851878480
5.993623 -2.170747 -2.250011 0.000000000000000e+00 1851878480
5.861626 -2.422463 -2.244588 0.000000000000000e+00 1851878480
5.676396 -2.960693 -2.263942 0.000000000000000e+00 1851878480
5.520410 -3.198763 -2.248492 0.000000000000000e+00 1851878480
5.797993 -2.098100 -2.235305 0.000000000000000e+00 1851878480
5.723056 -2.364264 -2.251527 0.000000000000000e+00 1851878480
5.528232 -2.884418 -2.267270 0.000000000000000e+00 1851878480
5.349244 -3.101651 -2.241643 0.000000000000000e+00 1851878480
5.619977 -2.031931 -2.223943 0.000000000000000e+00 1851878480
5.543203 -2.289056 -2.239244 0.000000000000000e+00 1851878480
5.343598 -2.789063 -2.252283 0.000000000000000e+00 1851878480
5.208481 -3.022059 -2.244288 0.000000000000000e+00 1851878480
5.512217 -1.991243 -2.237816 0.000000000000000e+00 1851878480
5.441579 -2.246192 -2.255956 0.000000000000000e+00 1851878480
5.209825 -2.720201 -2.255515 0.000000000000000e+00 1851878480
5.071693 -2.944685 -2.245786 0.000000000000000e+00 1851878480
5.405996 -1.951170 -2.250470 0.000000000000000e+00 1851878480
5.266350 -2.172990 -2.239581 0.000000000000000e+00 1851878480
5.101643 -2.664665 -2.267467 0.000000000000000e+00 1851878480
4.957001 -2.880053 -2.254499 0.000000000000000e+00 1851878480
5.253235 -1.894369 -2.241427 0.000000000000000e+00 1851878480
5.199211 -2.144418 -2.266950 0.000000000000000e+00 1851878480
4.973132 -2.598471 -2.268062 0.000000000000000e+00 1851878480
4.803249 -2.792636 -2.242651 0.000000000000000e+00 1851878480
5.183386 -1.867528 -2.265806 0.000000000000000e+00 1851878480
5.031354 -2.074341 -2.248249 0.000000000000000e+00 1851878480
4.816254 -2.517412 -2.252820 0.000000000000000e+00 1851878480
4.686830 -2.726829 -2.245398 0.000000000000000e+00 1851878480
5.003264 -1.801027 -2.239725 0.000000000000000e+00 1851878480
4.920528 -2.027816 -2.252387 0.000000000000000e+00 1851878480
4.694366 -2.454590 -2.251096 0.000000000000000e+00 1851878480
4.574945 -2.663587 -2.247970 0.000000000000000e+00 1851878480
4.905414 -1.764221 -2.247907 0.000000000000000e+00 1851878480
4.834608 -1.991585 -2.266160 0.000000000000000e+00 1851878480
4.581823 -2.396623 -2.251509 0.000000000000000e+00 1851878480
4.464125 -2.600888 -2.248769 0.000000000000000e+00 1851878480
4.828002 -1.734807 -2.263965 0.000000000000000e+00 1851878480
4.723720 -1.945095 -2.266451 0.000000000000000e+00 1851878480
4.474389 -2.341290 -2.252241 0.000000000000000e+00 1851878480
4.328737 -2.523791 -2.234585 0.000000000000000e+00 1851878480
4.707195 -1.689859 -2.257924 0.000000000000000e+00 1851878480
4.565622 -1.879204 -2.241494 0.000000000000000e+00 1851878480
4.389784 -2.297875 -2.262590 0.000000000000000e+00 1851878480
4.257320 -2.483921 -2.251286 0.000000000000000e+00 1851878480
4.573464 -1.640342 -2.243317 0.000000000000000e+00 1851878480
4.479099 -1.842813 -2.249337 0.000000000000000e+00 1851878480
4.292480 -2.247783 -2.264628 0.000000000000000e+00 1851878480
4.152628 -2.424580 -2.248623 0.000000000000000e+00 1851878480
4.456668 -1.596974 -2.234673 0.000000000000000e+00 1851878480
4.394731 -1.807330 -2.256732 0.000000000000000e+00 1851878480
4.179575 -2.189486 -2.256309 0.000000000000000e+00 1851878480
4.054606 -2.369064 -2.247452 0.000000000000000e+00 1851878480
4.406600 -1.577557 -2.258044 0.000000000000000e+00 1851878480
4.275782 -1.757655 -2.244460 0.000000000000000e+00 1851878480
4.129631 -2.164147 -2.280421 0.000000000000000e+00 1851878480
3.940770 -2.304232 -2.235255 0.000000000000000e+00 1851878480
4.276269 -1.529459 -2.238681 0.000000000000000e+00 1851878480
4.263812 -1.751975 -2.287252 0.000000000000000e+00 1851878480
3.997901 -2.095921 -2.257561 0.000000000000000e+00 1851878480
3.849428 -2.252483 -2.233623 0.000000000000000e+00 1851878480
4.174112 -1.491501 -2.231867 0.000000000000000e+00 1851878480
4.132720 -1.697366 -2.264899 0.000000000000000e+00 1851878480
3.930750 -2.061516 -2.269129 0.000000000000000e+00 1851878480
3.756173 -2.199549 -2.228933 0.000000000000000e+00 1851878480
4.129227 -1.474050 -2.254420 0.000000000000000e+00 1851878480
4.038003 -1.657734 -2.260265 0.000000000000000e+00 1851878480
3.842571 -2.016060 -2.267049 0.000000000000000e+00 1851878480
3.719939 -2.179969 -2.256845 0.000000000000000e+00 1851878480
4.044063 -1.442252 -2.253906 0.000000000000000e+00 1851878480
3.950612 -1.621135 -2.258008 0.000000000000000e+00 1851878480
3.724261 -1.954758 -2.245016 0.000000000000000e+00 1851878480
3.627039 -2.127138 -2.249134 0.000000000000000e+00 1851878480
3.993674 -1.422893 -2.271631 0.000000000000000e+00 1634890835
3.846259 -1.577603 -2.244202 0.000000000000000e+00 1851878480
3.673761 -1.929022 -2.262149 0.000000000000000e+00 1851878480
3.541606 -2.078624 -2.244137 0.000000000000000e+00 1851878480
3.948651 -1.405465 -2.291720 0.000000000000000e+00 1634890835
3.769626 -1.545470 -2.244829 0.000000000000000e+00 1851878480
3.640440 -1.912293 -2.289239 0.000000000000000e+00 1851878480
3.459012 -2.031716 -2.239141 0.000000000000000e+00 1851878480
3.907830 -1.389552 -2.313666 0.000000000000000e+00 1634890835
3.671691 -1.504629 -2.231085 0.000000000000000e+00 1851878480
3.505607 -1.842216 -2.250756 0.000000000000000e+00 1851878480
3.401935 -1.999750 -2.249236 0.000000000000000e+00 1851878480
3.784212 -1.344245 -2.285083 0.000000000000000e+00 1634890835
3.627132 -1.485683 -2.248469 0.000000000000000e+00 1851878480
3.481258 -1.830174 -2.281579 0.000000000000000e+00 1851878480
3.324781 -1.955938 -2.244691 0.000000000000000e+00 1851878480
3.734581 -1.325269 -2.299554 0.000000000000000e+00 1634890835
3.577084 -1.464499 -2.261720 0.000000000000000e+00 1851878480
3.384805 -1.780206 -2.264006 0.000000000000000e+00 1851878480
3.293466 -1.939062 -2.270077 0.000000000000000e+00 1851878480
3.659815 -1.297407 -2.297492 0.000000000000000e+00 1634890835
3.536672 -1.447268 -2.280382 0.000000000000000e+00 1851878480
3.278095 -1.724805 -2.237307 0.000000000000000e+00 1851878480
3.197885 -1.884301 -2.249874 0.000000000000000e+00 1851878480
3.576250 -1.266469 -2.288428 0.000000000000000e+00 1634890835
3.525643 -1.442068 -2.317798 0.000000000000000e+00 1634890835
3.230577 -1.700524 -2.249383 0.000000000000000e+00 1851878480
3.116622 -1.837914 -2.237722 0.000000000000000e+00 1851878480
3.510160 -1.241761 -2.289160 0.000000000000000e+00 1634890835
3.423540 -1.399629 -2.294360 0.000000000000000e+00 1634890835
3.167712 -1.668146 -2.249738 0.000000000000000e+00 1851878480
3.113125 -1.837362 -2.280699 0.000000000000000e+00 1851878480
3.482181 -1.230561 -2.314034 0.000000000000000e+00 1634890835
3.371762 -1.377789 -2.303143 0.000000000000000e+00 1634890835
3.162706 -1.666231 -2.290739 0.000000000000000e+00 1851878480
2.999397 -1.771713 -2.241722 0.000000000000000e+00 1851878480
3.405638 -1.202224 -2.305784 0.000000000000000e+00 1634890835
3.307210 -1.350747 -2.302163 0.000000000000000e+00 1634890835
3.055291 -1.610347 -2.256481 0.000000000000000e+00 1851878480
2.981872 -1.762844 -2.273234 0.000000000000000e+00 1851878480
3.296770 -1.162530 -2.273771 0.000000000000000e+00 1634890835
3.265928 -1.333220 -2.316471 0.000000000000000e+00 1634890835
2.958099 -1.559810 -2.227353 0.000000000000000e+00 1851878480
2.880237 -1.704209 -2.239371 0.000000000000000e+00 1851878480
3.233560 -1.138993 -2.271518 0.000000000000000e+00 1634890835
3.192452 -1.302569 -2.306906 0.000000000000000e+00 1634890835
2.973766 -1.568775 -2.282546 0.000000000000000e+00 1851878480
2.848856 -1.687092 -2.258650 0.000000000000000e+00 1851878480
3.206750 -1.128298 -2.294140 0.000000000000000e+00 1634890835
3.101990 -1.265013 -2.283355 0.000000000000000e+00 1634890835
2.886274 -1.523310 -2.258024 0.000000000000000e+00 1851878480
2.781987 -1.648932 -2.248831 0.000000000000000e+00 1851878480
3.167323 -1.113174 -2.307343 0.000000000000000e+00 1634890835
3.076828 -1.254105 -2.306797 0.000000000000000e+00 1634890835
2.840628 -1.499909 -2.264797 0.000000000000000e+00 1851878480
2.744933 -1.628404 -2.262048 0.000000000000000e+00 1851878480
3.072532 -1.078634 -2.278924 0.000000000000000e+00 1634890835
3.022963 -1.231505 -2.308133 0.000000000000000e+00 1634890835
2.767328 -1.461883 -2.248269 0.000000000000000e+00 1851878480
0.825727 -0.490293 -0.693625 0.000000000000000e+00 1886740808
3.027128 -1.061472 -2.285754 0.000000000000000e+00 1634890835
2.920316 -1.189059 -2.270551 0.000000000000000e+00 1634890835
2.728570 -1.442089 -2.258644 0.000000000000000e+00 1851878480
0.847974 -0.503958 -0.726006 0.000000000000000e+00 1886740808
2.950262 -1.033315 -2.267663 0.000000000000000e+00 1634890835
2.918700 -1.187766 -2.310568 0.000000000000000e+00 1634890835
0.876756 -0.463599 -0.739387 0.000000000000000e+00 1886740808
0.826597 -0.491705 -0.721236 0.000000000000000e+00 1886740808
2.928899 -1.024623 -2.291388 0.000000000000000e+00 1634890835
2.864630 -1.165127 -2.308782 0.000000000000000e+00 1634890835
0.882021 -0.466608 -0.757722 0.000000000000000e+00 1886740808
0.815827 -0.485750 -0.725380 0.000000000000000e+00 1886740808
2.859940 -0.999302 -2.277124 0.000000000000000e+00 1634890835
2.816754 -1.145025 -2.311046 0.000000000000000e+00 1634890835
0.864341 -0.457479 -0.756337 0.000000000000000e+00 1886740808
0.766945 -0.457075 -0.694828 0.000000000000000e+00 1886740808
2.801949 -0.977855 -2.270326 0.000000000000000e+00 1634890835
2.741755 -1.113917 -2.289794 0.000000000000000e+00 1634890835
0.818473 -0.433417 -0.729453 0.000000000000000e+00 1886740808
0.815362 -0.486395 -0.752617 0.000000000000000e+00 1886740808
2.769679 -0.965404 -2.283602 0.000000000000000e+00 1634890835
0.878896 -0.356875 -0.747100 0.000000000000000e+00 1886740808
0.831480 -0.440527 -0.754701 0.000000000000000e+00 1886740808
0.765973 -0.457375 -0.720303 0.000000000000000e+00 1886740808
0.845490 -0.294338 -0.709299 0.000000000000000e+00 1886740808
0.862374 -0.349966 -0.746067 0.000000000000000e+00 1886740808
0.787463 -0.417419 -0.727867 0.000000000000000e+00 1886740808
0.740648 -0.442687 -0.709516 0.000000000000000e+00 1886740808
0.834247 -0.290058 -0.712058 0.000000000000000e+00 1886740808
0.829455 -0.336411 -0.730275 0.000000000000000e+00 1886740808
0.804427 -0.426631 -0.757147 0.000000000000000e+00 1886740808
0.782748 -0.468318 -0.763825 0.000000000000000e+00 1886740808
0.791076 -0.274696 -0.686928 0.000000000000000e+00 1886740808
0.777994 -0.315353 -0.697035 0.000000000000000e+00 1886740808
0.764466 -0.405651 -0.732653 0.000000000000000e+00 1886740808
0.733902 -0.439537 -0.729469 0.000000000000000e+00 1886740808
0.813991 -0.282284 -0.719049 0.000000000000000e+00 1886740808
0.771658 -0.312599 -0.703499 0.000000000000000e+00 1886740808
0.736938 -0.391252 -0.719110 0.000000000000000e+00 1886740808
0.770374 -0.461854 -0.779915 0.000000000000000e+00 1886740808
0.841341 -0.291385 -0.756022 0.000000000000000e+00 1886740808
0.754584 -0.305496 -0.699977 0.000000000000000e+00 1886740808
0.743467 -0.394932 -0.738634 0.000000000000000e+00 1886740808
0.755339 -0.453313 -0.778835 0.000000000000000e+00 1886740808
0.792988 -0.274270 -0.724820 0.000000000000000e+00 1886740808
0.741219 -0.299900 -0.699585 0.000000000000000e+00 1886740808
0.800809 -0.425626 -0.809995 0.000000000000000e+00 1886740808
0.765102 -0.459658 -0.803460 0.000000000000000e+00 1886740808
0.770221 -0.266033 -0.716081 0.000000000000000e+00 1886740808
0.780653 -0.315658 -0.749639 0.000000000000000e+00 1886740808
0.763229 -0.405879 -0.785923 0.000000000000000e+00 1886740808
0.822006 -0.494377 -0.879120 0.000000000000000e+00 1886740808
0.780777 -0.269306 -0.738313 0.000000000000000e+00 1886740808
0.736248 -0.297513 -0.719288 0.000000000000000e+00 1886740808
0.766559 -0.407881 -0.803580 0.000000000000000e+00 1886740808
2.125331 -1.279630 -2.314820 0.000000000000000e+00 1634890835
0.714971 -0.246261 -0.687628 0.000000000000000e+00 1886740808
0.753769 -0.304397 -0.749184 0.000000000000000e+00 1886740808
0.779222 -0.414858 -0.831560 0.000000000000000e+00 1886740808
2.032533 -1.225118 -2.254435 0.000000000000000e+00 1634890835
0.725400 -0.249497 -0.709551 0.000000000000000e+00 1886740808
0.799410 -0.322616 -0.808314 0.000000000000000e+00 1886740808
2.127925 -1.133570 -2.311694 0.000000000000000e+00 1634890835
1.993733 -1.203090 -2.252015 0.000000000000000e+00 1634890835
0.763088 -0.262078 -0.759120 0.000000000000000e+00 1886740808
0.804317 -0.324379 -0.827352 0.000000000000000e+00 1886740808
2.119165 -1.129577 -2.343555 0.000000000000000e+00 1634890835
0.794023 -0.479693 -0.913352 0.000000000000000e+00 1886740808
0.735363 -0.252183 -0.743977 0.000000000000000e+00 1886740808
0.770319 -0.310458 -0.806083 0.000000000000000e+00 1886740808
2.048359 -1.092496 -2.305949 0.000000000000000e+00 1634890835
0.790969 -0.478407 -0.926542 0.000000000000000e+00 1886740808
0.746589 -0.255648 -0.768166 0.000000000000000e+00 1886740808
0.763368 -0.307443 -0.812614 0.000000000000000e+00 1886740808
2.039990 -1.088703 -2.337787 0.000000000000000e+00 1634890835
0.772701 -0.467914 -0.921764 0.000000000000000e+00 1886740808
0.736341 -0.251754 -0.770488 0.000000000000000e+00 1886740808
2.095152 -0.843220 -2.268851 0.000000000000000e+00 1634890835
0.833819 -0.445273 -0.972713 0.000000000000000e+00 1886740808
0.780006 -0.472910 -0.947574 0.000000000000000e+00 1886740808
0.767491 -0.261995 -0.816715 0.000000000000000e+00 1886740808
2.078708 -0.836005 -2.289939 0.000000000000000e+00 1634890835
0.805071 -0.430196 -0.956064 0.000000000000000e+00 1886740808
0.789213 -0.479083 -0.976392 0.000000000000000e+00 1886740808
0.728926 -0.248435 -0.788846 0.000000000000000e+00 1886740808
2.065462 -0.830073 -2.314675 0.000000000000000e+00 1634890835
0.809319 -0.432746 -0.978407 0.000000000000000e+00 1886740808
1.842678 -1.119983 -2.321687 0.000000000000000e+00 1634890835
2.066886 -0.703306 -2.274780 0.000000000000000e+00 1634890835
2.040543 -0.819449 -2.326299 0.000000000000000e+00 1634890835
0.810998 -0.433932 -0.998106 0.000000000000000e+00 1886740808
1.766387 -1.074987 -2.266608 0.000000000000000e+00 1634890835
2.083472 -0.707783 -2.332006 0.000000000000000e+00 1634890835
1.981574 -0.795166 -2.298181 0.000000000000000e+00 1634890835
0.758976 -0.406371 -0.950940 0.000000000000000e+00 1886740808
0.779007 -0.474707 -1.018084 0.000000000000000e+00 1886740808
2.012139 -0.682402 -2.290476 0.000000000000000e+00 1634890835
1.950320 -0.782022 -2.301141 0.000000000000000e+00 1634890835
0.803334 -0.430417 -1.024718 0.000000000000000e+00 1886740808
1.737049 -1.059922 -2.312193 0.000000000000000e+00 1634890835
1.973614 -0.668190 -2.284887 0.000000000000000e+00 1634890835
0.782719 -0.313602 -0.939546 0.000000000000000e+00 1886740808
1.794905 -0.962366 -2.331042 0.000000000000000e+00 1634890835
1.701766 -1.039803 -2.307287 0.000000000000000e+00 1634890835
1.937506 -0.654820 -2.281348 0.000000000000000e+00 1634890835
0.809844 -0.324209 -0.989011 0.000000000000000e+00 1886740808
0.803070 -0.430886 -1.061894 0.000000000000000e+00 1886740808
1.652612 -1.011168 -2.282367 0.000000000000000e+00 1634890835
1.947417 -0.656998 -2.332206 0.000000000000000e+00 1634890835
0.792181 -0.316879 -0.984301 0.000000000000000e+00 1886740808
1.720265 -0.923679 -2.316139 0.000000000000000e+00 1634890835
1.600531 -0.980687 -2.251736 0.000000000000000e+00 1634890835
0.826763 -0.278416 -1.007079 0.000000000000000e+00 1886740808
0.775982 -0.310140 -0.981020 0.000000000000000e+00 1886740808
1.655973 -0.889823 -2.270331 0.000000000000000e+00 1634890835
1.569517 -0.963073 -2.249504 0.000000000000000e+00 1634890835
0.796927 -0.267870 -0.987401 0.000000000000000e+00 1886740808
0.761391 -0.304049 -0.979437 0.000000000000000e+00 1886740808
1.690342 -0.908982 -2.359955 0.000000000000000e+00 1634890835
1.587548 -0.975574 -2.318174 0.000000000000000e+00 1634890835
0.796854 -0.267337 -1.004306 0.000000000000000e+00 1886740808
0.757072 -0.302061 -0.990995 0.000000000000000e+00 1886740808
1.616863 -0.870146 -2.298932 0.000000000000000e+00 1634890835
1.556170 -0.957733 -2.315311 0.000000000000000e+00 1634890835
0.765185 -0.256215 -0.981044 0.000000000000000e+00 1886740808
1.720654 -0.685908 -2.292023 0.000000000000000e+00 1634890835
1.597949 -0.860649 -2.314045 0.000000000000000e+00 1634890835
1.533239 -0.945074 -2.324514 0.000000000000000e+00 1634890835
0.772427 -0.258127 -1.007485 0.000000000000000e+00 1886740808
1.697524 -0.676073 -2.301229 0.000000000000000e+00 1634890835
1.574230 -0.848564 -2.322035 0.000000000000000e+00 1634890835
1.511759 -0.933302 -2.335692 0.000000000000000e+00 1634890835
0.801007 -0.267134 -1.062926 0.000000000000000e+00 1886740808
0.747504 -0.297432 -1.031351 0.000000000000000e+00 1886740808
1.561120 -0.842197 -2.345670 0.000000000000000e+00 1634890835
1.467056 -0.907164 -2.310114 0.000000000000000e+00 1634890835
1.686087 -0.561140 -2.276471 0.000000000000000e+00 1634890835
1.637755 -0.651043 -2.299976 0.000000000000000e+00 1634890835
1.510722 -0.815701 -2.312526 0.000000000000000e+00 1634890835
1.426264 -0.883395 -2.289217 0.000000000000000e+00 1634890835
0.739180 -0.245481 -1.015497 0.000000000000000e+00 1886740808
1.611863 -0.640127 -2.304196 0.000000000000000e+00 1634890835
1.483361 -0.801627 -2.313474 0.000000000000000e+00 1634890835
1.402456 -0.870118 -2.294703 0.000000000000000e+00 1634890835
1.652401 -0.547566 -2.310068 0.000000000000000e+00 1634890835
1.574315 -0.624592 -2.291064 0.000000000000000e+00 1634890835
1.460135 -0.789778 -2.320456 0.000000000000000e+00 1634890835
1.402112 -0.871409 -2.338960 0.000000000000000e+00 1634890835
1.597523 -0.528201 -2.272868 0.000000000000000e+00 1634890835
1.534656 -0.608237 -2.273799 0.000000000000000e+00 1634890835
1.450331 -0.785191 -2.348879 0.000000000000000e+00 1634890835
1.343756 -0.836622 -2.285706 0.000000000000000e+00 1634890835
1.572807 -0.518841 -2.277503 0.000000000000000e+00 1634890835
1.521927 -0.602562 -2.296010 0.000000000000000e+00 1634890835
1.392965 -0.754840 -2.299328 0.000000000000000e+00 1634890835
1.346652 -0.839949 -2.336013 0.000000000000000e+00 1634890835
1.530624 -0.503741 -2.256057 0.000000000000000e+00 1634890835
1.516667 -0.599834 -2.329994 0.000000000000000e+00 1634890835
1.371544 -0.743946 -2.307780 0.000000000000000e+00 1634890835
1.298932 -0.811696 -2.298209 0.000000000000000e+00 1634890835
1.528460 -0.501819 -2.293392 0.000000000000000e+00 1634890835
1.507252 -0.595455 -2.358221 0.000000000000000e+00 1634890835
1.339771 -0.727427 -2.298263 0.000000000000000e+00 1634890835
1.273494 -0.797323 -2.298534 0.000000000000000e+00 1634890835
1.493026 -0.488973 -2.280769 0.000000000000000e+00 1634890835
1.462138 -0.576980 -2.330091 0.000000000000000e+00 1634890835
1.344305 -0.730627 -2.351339 0.000000000000000e+00 1634890835
1.277393 -0.801337 -2.352344 0.000000000000000e+00 1634890835
1.489789 -0.486677 -2.317285 0.000000000000000e+00 1634890835
1.436222 -0.566098 -2.331566 0.000000000000000e+00 1634890835
1.303964 -0.709438 -2.325945 0.000000000000000e+00 1634890835
1.215088 -0.763792 -2.283402 0.000000000000000e+00 1634890835
1.443891 -0.470453 -2.287083 0.000000000000000e+00 1634890835
1.379439 -0.543069 -2.281542 0.000000000000000e+00 1634890835
1.265236 -0.689101 -2.301934 0.000000000000000e+00 1634890835
1.191160 -0.750302 -2.284661 0.000000000000000e+00 1634890835
1.425685 -0.463275 -2.299961 0.000000000000000e+00 1634890835
1.372945 -0.539851 -2.313879 0.000000000000000e+00 1634890835
1.246330 -0.679547 -2.313224 0.000000000000000e+00 1634890835
1.148694 -0.725098 -2.249147 0.000000000000000e+00 1634890835
1.405992 -0.455618 -2.310406 0.000000000000000e+00 1634890835
1.353934 -0.531706 -2.325474 0.000000000000000e+00 1634890835
1.226281 -0.669371 -2.322295 0.000000000000000e+00 1634890835
1.143437 -0.723366 -2.285999 0.000000000000000e+00 1634890835
1.360290 -0.439556 -2.277236 0.000000000000000e+00 1634890835
1.317212 -0.516614 -2.306029 0.000000000000000e+00 1634890835
1.206958 -0.659588 -2.332632 0.000000000000000e+00 1634890835
1.132213 -0.717885 -2.311724 0.000000000000000e+00 1634890835
1.340505 -0.431896 -2.286557 0.000000000000000e+00 1634890835
1.277021 -0.500183 -2.279159 0.000000000000000e+00 1634890835
1.175197 -0.642999 -2.318354 0.000000000000000e+00 1634890835
1.116454 -0.709540 -2.328576 0.000000000000000e+00 1634890835
1.311947 -0.421421 -2.280531 0.000000000000000e+00 1634890835
1.236074 -0.483480 -2.249389 0.000000000000000e+00 1634890835
1.128536 -0.618229 -2.272964 0.000000000000000e+00 1634890835
1.052745 -0.670659 -2.243463 0.000000000000000e+00 1634890835
1.318370 -0.422170 -2.335802 0.000000000000000e+00 1634890835
1.274524 -0.497815 -2.365329 0.000000000000000e+00 1634890835
1.112746 -0.610352 -2.288644 0.000000000000000e+00 1634890835
1.069649 -0.683115 -2.329655 0.000000000000000e+00 1634890835
1.250728 -0.399225 -2.259004 0.000000000000000e+00 1634890835
1.203202 -0.469271 -2.277664 0.000000000000000e+00 1634890835
1.108562 -0.608854 -2.328900 0.000000000000000e+00 1634890835
1.026044 -0.656941 -2.284471 0.000000000000000e+00 1634890835
1.227884 -0.390637 -2.261246 0.000000000000000e+00 1634890835
1.178501 -0.458945 -2.276027 0.000000000000000e+00 1634890835
1.098444 -0.604113 -2.357684 0.000000000000000e+00 1634890835
1.034629 -0.664187 -2.355563 0.000000000000000e+00 1634890835
1.212138 -0.384307 -2.276475 0.000000000000000e+00 1634890835
1.180323 -0.458940 -2.326146 0.000000000000000e+00 1634890835
1.062034 -0.584904 -2.329571 0.000000000000000e+00 1634890835
0.982134 -0.632207 -2.287166 0.000000000000000e+00 1634890835
1.207339 -0.381432 -2.312862 0.000000000000000e+00 1634890835
1.142009 -0.443328 -2.297162 0.000000000000000e+00 1634890835
1.037971 -0.572475 -2.327408 0.000000000000000e+00 1634890835
0.959045 -0.619087 -2.285163 0.000000000000000e+00 1634890835
1.193548 -0.375695 -2.332724 0.000000000000000e+00 1634890835
1.127117 -0.436820 -2.314624 0.000000000000000e+00 1634890835
1.003428 -0.554251 -2.300644 0.000000000000000e+00 1634890835
0.926822 -0.600032 -2.260301 0.000000000000000e+00 1634890835
1.156429 -0.362631 -2.306443 0.000000000000000e+00 1634890835
1.096269 -0.424133 -2.298925 0.000000000000000e+00 1634890835
0.974490 -0.539098 -2.285326 0.000000000000000e+00 1634890835
0.915859 -0.594728 -2.286855 0.000000000000000e+00 1634890835
1.118640 -0.349404 -2.277284 0.000000000000000e+00 1634890835
1.096272 -0.423379 -2.348199 0.000000000000000e+00 1634890835
0.980422 -0.543248 -2.352504 0.000000000000000e+00 1634890835
0.885262 -0.576661 -2.264007 0.000000000000000e+00 1634890835
1.111973 -0.345907 -2.311170 0.000000000000000e+00 1634890835
1.048156 -0.404048 -2.293877 0.000000000000000e+00 1634890835
0.959451 -0.532511 -2.356316 0.000000000000000e+00 1634890835
0.876905 -0.573075 -2.297834 0.000000000000000e+00 1634890835
1.077744 -0.333842 -2.287585 0.000000000000000e+00 1634890835
1.016319 -0.391024 -2.273140 0.000000000000000e+00 1634890835
0.927973 -0.515927 -2.333421 0.000000000000000e+00 1634890835
0.841826 -0.552008 -2.261111 0.000000000000000e+00 1634890835
1.065500 -0.328599 -2.310239 0.000000000000000e+00 1634890835
1.015644 -0.389988 -2.322313 0.000000000000000e+00 1634890835
0.879734 -0.489982 -2.265780 0.000000000000000e+00 1634890835
0.844492 -0.555699 -2.326006 0.000000000000000e+00 1634890835
1.031050 -0.316522 -2.284282 0.000000000000000e+00 1634890835
0.976028 -0.374000 -2.282237 0.000000000000000e+00 1634890835
0.896614 -0.500311 -2.366196 0.000000000000000e+00 1634890835
0.448008 -0.295878 -1.265929 0.000000000000000e+00 1936876886
1.027076 -0.313802 -2.325785 0.000000000000000e+00 1634890835
0.973987 -0.372416 -2.329787 0.000000000000000e+00 1634890835
0.864296 -0.483212 -2.338123 0.000000000000000e+00 1634890835
0.454579 -0.301359 -1.318392 0.000000000000000e+00 1936876886
0.990712 -0.301193 -2.293765 0.000000000000000e+00 1634890835
0.959621 -0.366102 -2.348975 0.000000000000000e+00 1634890835
0.832292 -0.466255 -2.309025 0.000000000000000e+00 1634890835
0.428910 -0.285468 -1.277402 0.000000000000000e+00 1936876886
0.964780 -0.291793 -2.284589 0.000000000000000e+00 1634890835
0.947229 -0.360530 -2.373607 0.000000000000000e+00 1634890835
0.462960 -0.259897 -1.317784 0.000000000000000e+00 1936876886
0.329215 -0.220019 -1.007379 0.000000000000000e+00 1953264973
0.922317 -0.277445 -2.234545 0.000000000000000e+00 1634890835
0.884476 -0.335826 -2.269770 0.000000000000000e+00 1634890835
0.431840 -0.242959 -1.261780 0.000000000000000e+00 1936876886
0.311313 -0.208953 -0.979272 0.000000000000000e+00 1953264973
0.488827 -0.146216 -1.212137 0.000000000000000e+00 1936876886
0.849298 -0.321650 -2.232930 0.000000000000000e+00 1634890835
0.381091 -0.214897 -1.143591 0.000000000000000e+00 1953264973
0.283295 -0.191005 -0.916625 0.000000000000000e+00 1953264973
0.497531 -0.147940 -1.263198 0.000000000000000e+00 1936876886
0.879885 -0.332347 -2.371076 0.000000000000000e+00 1634890835
0.332965 -0.188208 -1.026732 0.000000000000000e+00 1953264973
0.263493 -0.178493 -0.877479 0.000000000000000e+00 1953264973
0.459628 -0.135825 -1.195334 0.000000000000000e+00 1936876886
0.824258 -0.310470 -2.277629 0.000000000000000e+00 1634890835
0.314997 -0.178498 -0.998691 0.000000000000000e+00 1953264973
0.245207 -0.166928 -0.841011 0.000000000000000e+00 1953264973
