# .PCD v0.7 - Point Cloud Data file format
VERSION 0.7
FIELDS x y z rgb label
SIZE 4 4 4 4 4
TYPE F F F F U
COUNT 1 1 1 1 1
WIDTH 530
HEIGHT 1
VIEWPOINT 0 0 0 1 0 0 0
POINTS 530
DATA ascii
33.795246 -18.801216 10.321149 0.000000000000000e+00 1954047316
30.830582 -11.453638 -2.238881 0.000000000000000e+00 1851878480
31.924019 -13.349008 -2.245024 0.000000000000000e+00 1851878480
26.944607 -10.002382 -2.201689 0.000000000000000e+00 1851878480
26.586763 -11.113325 -2.118828 0.000000000000000e+00 1851878480
26.031315 -13.441668 -1.927604 0.000000000000000e+00 1851878480
25.418880 -14.448973 -1.787682 0.000000000000000e+00 1851878480
24.274805 -9.004451 -2.204496 0.000000000000000e+00 1851878480
24.331808 -10.167177 -2.167392 0.000000000000000e+00 1851878480
23.610823 -12.195581 -1.984626 0.000000000000000e+00 1851878480
23.029530 -13.098536 -1.858148 0.000000000000000e+00 1851878480
22.094673 -8.189513 -2.207865 0.000000000000000e+00 1851878480
22.201529 -9.273775 -2.186183 0.000000000000000e+00 1851878480
21.732573 -11.228913 -2.044532 0.000000000000000e+00 1851878480
21.312904 -12.129341 -1.940721 0.000000000000000e+00 1851878480
20.434818 -7.568508 -2.228472 0.000000000000000e+00 1851878480
20.428217 -8.530035 -2.203727 0.000000000000000e+00 1851878480
20.414728 -10.551271 -2.125463 0.000000000000000e+00 1851878480
19.947256 -11.358877 -2.023642 0.000000000000000e+00 1851878480
18.882950 -6.988393 -2.231807 0.000000000000000e+00 1851878480
18.907398 -7.892217 -2.217806 0.000000000000000e+00 1851878480
19.143648 -9.897406 -2.185624 0.000000000000000e+00 1851878480
18.869547 -10.751556 -2.110767 0.000000000000000e+00 1851878480
17.583181 -6.502376 -2.239140 0.000000000000000e+00 1851878480
17.624224 -7.354000 -2.233629 0.000000000000000e+00 1851878480
17.739706 -9.174417 -2.204067 0.000000000000000e+00 1851878480
17.861616 -10.183314 -2.184372 0.000000000000000e+00 1851878480
16.421753 -6.068214 -2.241832 0.000000000000000e+00 1851878480
16.476736 -6.872763 -2.244004 0.000000000000000e+00 1851878480
16.549101 -8.561353 -2.223232 0.000000000000000e+00 1851878480
16.653957 -9.500464 -2.210829 0.000000000000000e+00 1851878480
15.354167 -5.669359 -2.237162 0.000000000000000e+00 1851878480
15.427079 -6.432641 -2.247219 0.000000000000000e+00 1851878480
15.476918 -8.009187 -2.235810 0.000000000000000e+00 1851878480
15.535954 -8.867983 -2.225257 0.000000000000000e+00 1851878480
14.470996 -5.339132 -2.241714 0.000000000000000e+00 1851878480
14.432693 -6.015871 -2.239416 0.000000000000000e+00 1851878480
14.469306 -7.490108 -2.237024 0.000000000000000e+00 1851878480
14.504353 -8.284101 -2.229921 0.000000000000000e+00 1851878480
13.712189 -5.055263 -2.250696 0.000000000000000e+00 1851878480
13.570105 -5.654313 -2.234732 0.000000000000000e+00 1851878480
13.662961 -7.074930 -2.251315 0.000000000000000e+00 1851878480
13.601993 -7.773389 -2.234522 0.000000000000000e+00 1851878480
12.946098 -4.769131 -2.244697 0.000000000000000e+00 1851878480
12.846679 -5.350962 -2.238175 0.000000000000000e+00 1851878480
12.779370 -6.619480 -2.236048 0.000000000000000e+00 1851878480
12.787548 -7.312345 -2.235867 0.000000000000000e+00 1851878480
12.225675 -4.500237 -2.233154 0.000000000000000e+00 1851878480
12.209579 -5.083777 -2.243987 0.000000000000000e+00 1851878480
12.178383 -6.310179 -2.255453 0.000000000000000e+00 1851878480
12.063830 -6.902674 -2.237213 0.000000000000000e+00 1851878480
11.619887 -4.273914 -2.230538 0.000000000000000e+00 1851878480
11.619517 -4.836349 -2.247011 0.000000000000000e+00 1851878480
11.515236 -5.968465 -2.250775 0.000000000000000e+00 1851878480
11.411966 -6.533641 -2.237689 0.000000000000000e+00 1851878480
11.193566 -4.113887 -2.253071 0.000000000000000e+00 1851878480
11.010319 -4.581128 -2.235141 0.000000000000000e+00 1851878480
10.896368 -5.649494 -2.241960 0.000000000000000e+00 1851878480
10.841981 -6.211082 -2.241619 0.000000000000000e+00 1851878480
10.678438 -3.921487 -2.249246 0.000000000000000e+00 1851878480
10.566689 -4.394953 -2.247067 0.000000000000000e+00 1851878480
10.403275 -5.395560 -2.247942 0.000000000000000e+00 1851878480
10.332983 -5.923102 -2.247035 0.000000000000000e+00 1851878480
10.127831 -3.716359 -2.228281 0.000000000000000e+00 1851878480
10.066752 -4.185495 -2.238231 0.000000000000000e+00 1851878480
9.963626 -5.169205 -2.256209 0.000000000000000e+00 1851878480
9.763883 -5.600307 -2.228229 0.000000000000000e+00 1851878480
9.773939 -3.583666 -2.242410 0.000000000000000e+00 1851878480
9.703988 -4.033200 -2.251859 0.000000000000000e+00 1851878480
9.478443 -4.919069 -2.244941 0.000000000000000e+00 1851878480
9.387518 -5.387744 -2.243635 0.000000000000000e+00 1851878480
9.412959 -3.448575 -2.248490 0.000000000000000e+00 1851878480
9.301647 -3.864564 -2.249192 0.000000000000000e+00 1851878480
9.080168 -4.713898 -2.245434 0.000000000000000e+00 1851878480
8.977276 -5.155475 -2.242850 0.000000000000000e+00 1851878480
9.001987 -3.295381 -2.235641 0.000000000000000e+00 1851878480
8.971044 -3.725837 -2.257050 0.000000000000000e+00 1851878480
8.748487 -4.543179 -2.255141 0.000000000000000e+00 1851878480
8.615995 -4.951058 -2.246332 0.000000000000000e+00 1851878480
8.678821 -3.174544 -2.237950 0.000000000000000e+00 1851878480
8.540723 -3.545811 -2.232698 0.000000000000000e+00 1851878480
8.354630 -4.340058 -2.241582 0.000000000000000e+00 1851878480
8.262212 -4.750717 -2.244386 0.000000000000000e+00 1851878480
8.420204 -3.077476 -2.251681 0.000000000000000e+00 1851878480
8.315825 -3.451163 -2.255939 0.000000000000000e+00 1851878480
8.081362 -4.199477 -2.253727 0.000000000000000e+00 1851878480
7.968885 -4.584921 -2.252188 0.000000000000000e+00 1851878480
8.112613 -2.962663 -2.247222 0.000000000000000e+00 1851878480
7.981104 -3.311021 -2.244200 0.000000000000000e+00 1851878480
7.761521 -4.034593 -2.246984 0.000000000000000e+00 1851878480
7.657528 -4.408544 -2.248656 0.000000000000000e+00 1851878480
7.818438 -2.852916 -2.241023 0.000000000000000e+00 1851878480
7.738565 -3.209203 -2.252994 0.000000000000000e+00 1851878480
7.523673 -3.912248 -2.258430 0.000000000000000e+00 1851878480
7.372605 -4.247185 -2.246707 0.000000000000000e+00 1851878480
7.537443 -2.748146 -2.233380 0.000000000000000e+00 1851878480
7.483527 -3.102273 -2.253535 0.000000000000000e+00 1851878480
7.247826 -3.770060 -2.253362 0.000000000000000e+00 1851878480
7.086509 -4.084962 -2.238470 0.000000000000000e+00 1851878480
7.321658 -2.667287 -2.240574 0.000000000000000e+00 1851878480
7.251718 -3.005046 -2.256545 0.000000000000000e+00 1851878480
7.014866 -3.650097 -2.256551 0.000000000000000e+00 1851878480
6.833705 -3.941740 -2.235145 0.000000000000000e+00 1851878480
7.070520 -2.573685 -2.232737 0.000000000000000e+00 1851878480
6.973027 -2.888464 -2.240180 0.000000000000000e+00 1851878480
6.797220 -3.538033 -2.260193 0.000000000000000e+00 1851878480
6.658459 -3.843116 -2.252801 0.000000000000000e+00 1851878480
6.918835 -2.516388 -2.252697 0.000000000000000e+00 1851878480
6.793528 -2.813036 -2.251400 0.000000000000000e+00 1851878480
6.592965 -3.432870 -2.264097 0.000000000000000e+00 1851878480
6.417157 -3.706227 -2.243821 0.000000000000000e+00 1851878480
6.664049 -2.421708 -2.235429 0.000000000000000e+00 1851878480
6.548181 -2.710407 -2.236834 0.000000000000000e+00 1851878480
6.365713 -3.315670 -2.255790 0.000000000000000e+00 1851878480
6.211281 -3.589643 -2.242571 0.000000000000000e+00 1851878480
6.512960 -2.364827 -2.249275 0.000000000000000e+00 1851878480
6.379318 -2.639494 -2.244518 0.000000000000000e+00 1851878480
6.212738 -3.237091 -2.270029 0.000000000000000e+00 1851878480
6.040468 -3.493202 -2.250101 0.000000000000000e+00 1851878480
6.307744 -2.288391 -2.241231 0.000000000000000e+00 1851878480
6.206422 -2.566965 -2.247631 0.000000000000000e+00 1851878480
5.975945 -3.114779 -2.249736 0.000000000000000e+00 1851878480
5.870984 -3.397412 -2.254640 0.000000000000000e+00 1851878480
6.148334 -2.228673 -2.246167 0.000000000000000e+00 1851878480
6.043383 -2.498555 -2.251206 0.000000000000000e+00 1851878480
5.806611 -3.027560 -2.250730 0.000000000000000e+00 1851878480
5.675226 -3.286294 -2.245293 0.000000000000000e+00 1851878480
5.999335 -2.172816 -2.252156 0.000000000000000e+00 1851878480
5.895106 -2.436300 -2.257408 0.000000000000000e+00 1851878480
5.634636 -2.938912 -2.247287 0.000000000000000e+00 1851878480
5.495674 -3.184430 -2.238416 0.000000000000000e+00 1851878480
5.833514 -2.110954 -2.248999 0.000000000000000e+00 1851878480
5.711329 -2.359420 -2.246913 0.000000000000000e+00 1851878480
5.503338 -2.871429 -2.257061 0.000000000000000e+00 1851878480
5.402524 -3.132545 -2.263970 0.000000000000000e+00 1851878480
5.681658 -2.054232 -2.248352 0.000000000000000e+00 1851878480
5.550991 -2.292272 -2.242390 0.000000000000000e+00 1851878480
5.355763 -2.795413 -2.257411 0.000000000000000e+00 1851878480
5.210946 -3.023489 -2.245350 0.000000000000000e+00 1851878480
5.495799 -1.985313 -2.231151 0.000000000000000e+00 1851878480
5.372285 -2.217588 -2.227228 0.000000000000000e+00 1851878480
5.202815 -2.716541 -2.252481 0.000000000000000e+00 1851878480
5.054304 -2.934589 -2.238086 0.000000000000000e+00 1851878480
5.382490 -1.942686 -2.240685 0.000000000000000e+00 1851878480
5.313363 -2.192389 -2.259573 0.000000000000000e+00 1851878480
5.049188 -2.637266 -2.244152 0.000000000000000e+00 1851878480
4.943848 -2.872411 -2.248517 0.000000000000000e+00 1851878480
5.230332 -1.886110 -2.231655 0.000000000000000e+00 1851878480
5.171654 -2.133052 -2.254935 0.000000000000000e+00 1851878480
4.920925 -2.571194 -2.244253 0.000000000000000e+00 1851878480
4.821872 -2.803463 -2.251346 0.000000000000000e+00 1851878480
5.103392 -1.838706 -2.230839 0.000000000000000e+00 1851878480
5.068463 -2.089640 -2.264831 0.000000000000000e+00 1851878480
4.839786 -2.529711 -2.263827 0.000000000000000e+00 1851878480
4.723442 -2.748130 -2.262938 0.000000000000000e+00 1851878480
4.959500 -1.785273 -2.220134 0.000000000000000e+00 1851878480
4.910132 -2.023531 -2.247627 0.000000000000000e+00 1851878480
4.719511 -2.467738 -2.263154 0.000000000000000e+00 1851878480
4.549434 -2.648735 -2.235435 0.000000000000000e+00 1851878480
4.853456 -1.745535 -2.224097 0.000000000000000e+00 1851878480
4.786884 -1.971925 -2.243789 0.000000000000000e+00 1851878480
4.569050 -2.389941 -2.245232 0.000000000000000e+00 1851878480
4.444954 -2.589719 -2.239112 0.000000000000000e+00 1851878480
4.746248 -1.705431 -2.225628 0.000000000000000e+00 1851878480
4.735680 -1.950020 -2.272190 0.000000000000000e+00 1851878480
4.462068 -2.334843 -2.246039 0.000000000000000e+00 1851878480
4.369677 -2.547660 -2.255718 0.000000000000000e+00 1851878480
4.660577 -1.673123 -2.235563 0.000000000000000e+00 1851878480
4.538486 -1.868035 -2.228172 0.000000000000000e+00 1851878480
4.346440 -2.275187 -2.240250 0.000000000000000e+00 1851878480
4.276073 -2.494862 -2.261202 0.000000000000000e+00 1851878480
4.536549 -1.627101 -2.225209 0.000000000000000e+00 1851878480
4.460559 -1.835185 -2.240026 0.000000000000000e+00 1851878480
4.305649 -2.254679 -2.271576 0.000000000000000e+00 1851878480
4.146000 -2.420710 -2.245034 0.000000000000000e+00 1851878480
4.474514 -1.603369 -2.243622 0.000000000000000e+00 1851878480
4.361246 -1.793559 -2.239537 0.000000000000000e+00 1851878480
4.193832 -2.196954 -2.264006 0.000000000000000e+00 1851878480
4.066005 -2.375724 -2.253770 0.000000000000000e+00 1851878480
4.381520 -1.568578 -2.245193 0.000000000000000e+00 1851878480
4.292550 -1.764547 -2.253262 0.000000000000000e+00 1851878480
4.091678 -2.144258 -2.259464 0.000000000000000e+00 1851878480
4.017474 -2.349082 -2.278763 0.000000000000000e+00 1851878480
4.293699 -1.535693 -2.247805 0.000000000000000e+00 1851878480
4.214297 -1.731629 -2.260691 0.000000000000000e+00 1851878480
3.961860 -2.077025 -2.237209 0.000000000000000e+00 1851878480
3.842318 -2.248323 -2.229497 0.000000000000000e+00 1851878480
4.175638 -1.492047 -2.232682 0.000000000000000e+00 1851878480
4.145086 -1.702445 -2.271676 0.000000000000000e+00 1851878480
3.890727 -2.040525 -2.246024 0.000000000000000e+00 1851878480
3.762678 -2.203359 -2.232793 0.000000000000000e+00 1851878480
4.130593 -1.474538 -2.255166 0.000000000000000e+00 1851878480
4.024993 -1.652393 -2.252983 0.000000000000000e+00 1851878480
3.847339 -2.018561 -2.269862 0.000000000000000e+00 1851878480
3.709044 -2.173584 -2.250235 0.000000000000000e+00 1851878480
4.125450 -1.471278 -2.299266 0.000000000000000e+00 1634890835
3.898886 -1.599909 -2.228444 0.000000000000000e+00 1851878480
3.705109 -1.944706 -2.233471 0.000000000000000e+00 1851878480
3.624280 -2.125519 -2.247423 0.000000000000000e+00 1851878480
3.984182 -1.419511 -2.266232 0.000000000000000e+00 1634890835
3.853513 -1.580578 -2.248435 0.000000000000000e+00 1851878480
3.633559 -1.907913 -2.237394 0.000000000000000e+00 1851878480
3.566868 -2.093450 -2.260144 0.000000000000000e+00 1851878480
3.909760 -1.391622 -2.269149 0.000000000000000e+00 1634890835
3.841458 -1.574920 -2.287606 0.000000000000000e+00 1851878480
3.599983 -1.891042 -2.263798 0.000000000000000e+00 1851878480
3.499348 -2.055408 -2.265252 0.000000000000000e+00 1851878480
3.812673 -1.355716 -2.257327 0.000000000000000e+00 1634890835
3.712064 -1.521173 -2.255617 0.000000000000000e+00 1851878480
3.498577 -1.838522 -2.246243 0.000000000000000e+00 1851878480
3.412176 -2.005770 -2.256008 0.000000000000000e+00 1851878480
3.812970 -1.354461 -2.302449 0.000000000000000e+00 1634890835
3.618441 -1.482123 -2.243081 0.000000000000000e+00 1851878480
3.460581 -1.819304 -2.268027 0.000000000000000e+00 1851878480
3.330030 -1.959026 -2.248235 0.000000000000000e+00 1851878480
3.665161 -1.300634 -2.256809 0.000000000000000e+00 1634890835
3.408607 -1.792724 -2.279926 0.000000000000000e+00 1851878480
3.268383 -1.924294 -2.252788 0.000000000000000e+00 1851878480
3.668368 -1.300439 -2.302861 0.000000000000000e+00 1634890835
3.556398 -1.455340 -2.293102 0.000000000000000e+00 1634890835
3.301356 -1.737044 -2.253182 0.000000000000000e+00 1851878480
3.181633 -1.874725 -2.238440 0.000000000000000e+00 1851878480
3.592321 -1.272160 -2.298712 0.000000000000000e+00 1634890835
3.467113 -1.418128 -2.279319 0.000000000000000e+00 1634890835
3.228617 -1.699492 -2.248019 0.000000000000000e+00 1851878480
3.110886 -1.834531 -2.233604 0.000000000000000e+00 1851878480
3.500731 -1.238425 -2.283011 0.000000000000000e+00 1634890835
3.444489 -1.408193 -2.308400 0.000000000000000e+00 1634890835
3.188277 -1.678976 -2.264344 0.000000000000000e+00 1851878480
3.061390 -1.806828 -2.242797 0.000000000000000e+00 1851878480
3.443555 -1.216911 -2.288366 0.000000000000000e+00 1634890835
3.401417 -1.389907 -2.323400 0.000000000000000e+00 1634890835
3.101013 -1.633729 -2.246056 0.000000000000000e+00 1851878480
3.012939 -1.779712 -2.251843 0.000000000000000e+00 1851878480
3.398530 -1.199715 -2.300972 0.000000000000000e+00 1634890835
3.316555 -1.354563 -2.308668 0.000000000000000e+00 1634890835
3.053762 -1.609541 -2.255351 0.000000000000000e+00 1851878480
2.938913 -1.737447 -2.240484 0.000000000000000e+00 1851878480
3.344133 -1.179232 -2.306437 0.000000000000000e+00 1634890835
3.240406 -1.322801 -2.298369 0.000000000000000e+00 1634890835
3.004622 -1.584342 -2.262384 0.000000000000000e+00 1851878480
2.871736 -1.699178 -2.232761 0.000000000000000e+00 1851878480
3.271040 -1.152195 -2.297847 0.000000000000000e+00 1634890835
3.177064 -1.296290 -2.295786 0.000000000000000e+00 1634890835
2.932674 -1.547097 -2.251005 0.000000000000000e+00 1851878480
2.843608 -1.683985 -2.254490 0.000000000000000e+00 1851878480
3.197765 -1.125136 -2.287713 0.000000000000000e+00 1634890835
3.129734 -1.276327 -2.303777 0.000000000000000e+00 1634890835
2.891675 -1.526160 -2.262249 0.000000000000000e+00 1851878480
2.738270 -1.623020 -2.213492 0.000000000000000e+00 1851878480
3.161002 -1.110953 -2.302737 0.000000000000000e+00 1634890835
3.076770 -1.254082 -2.306754 0.000000000000000e+00 1634890835
2.788042 -1.472142 -2.222870 0.000000000000000e+00 1851878480
2.748940 -1.630781 -2.265350 0.000000000000000e+00 1851878480
3.118532 -1.094782 -2.313043 0.000000000000000e+00 1634890835
3.018520 -1.229695 -2.304739 0.000000000000000e+00 1634890835
2.769771 -1.463174 -2.250254 0.000000000000000e+00 1851878480
0.871515 -0.517480 -0.732087 0.000000000000000e+00 1886740808
3.026142 -1.061126 -2.285010 0.000000000000000e+00 1634890835
2.930473 -1.193194 -2.278448 0.000000000000000e+00 1634890835
2.763921 -1.460773 -2.287908 0.000000000000000e+00 1634890835
0.863440 -0.513150 -0.739248 0.000000000000000e+00 1886740808
2.967354 -1.039302 -2.280801 0.000000000000000e+00 1634890835
2.895729 -1.178418 -2.292384 0.000000000000000e+00 1634890835
0.931941 -0.492779 -0.785925 0.000000000000000e+00 1886740808
0.863850 -0.513865 -0.753740 0.000000000000000e+00 1886740808
2.919808 -1.021443 -2.284276 0.000000000000000e+00 1634890835
2.864946 -1.165255 -2.309037 0.000000000000000e+00 1634890835
0.848076 -0.448651 -0.728561 0.000000000000000e+00 1886740808
0.818162 -0.487139 -0.727456 0.000000000000000e+00 1886740808
2.865857 -1.001370 -2.281836 0.000000000000000e+00 1634890835
2.779959 -1.130068 -2.280857 0.000000000000000e+00 1634890835
0.854011 -0.452012 -0.747297 0.000000000000000e+00 1886740808
0.784796 -0.467713 -0.711001 0.000000000000000e+00 1886740808
2.836774 -0.990008 -2.298543 0.000000000000000e+00 1634890835
2.688779 -1.092394 -2.245550 0.000000000000000e+00 1634890835
0.816441 -0.432341 -0.727642 0.000000000000000e+00 1886740808
0.772180 -0.460635 -0.712758 0.000000000000000e+00 1886740808
2.777922 -0.968277 -2.290399 0.000000000000000e+00 1634890835
0.826725 -0.335691 -0.702752 0.000000000000000e+00 1886740808
0.803999 -0.425967 -0.729758 0.000000000000000e+00 1886740808
0.766954 -0.457961 -0.721226 0.000000000000000e+00 1886740808
0.865104 -0.301166 -0.725753 0.000000000000000e+00 1886740808
0.848050 -0.344153 -0.733675 0.000000000000000e+00 1886740808
0.771911 -0.409175 -0.713493 0.000000000000000e+00 1886740808
0.767459 -0.458713 -0.735200 0.000000000000000e+00 1886740808
0.858704 -0.298561 -0.732933 0.000000000000000e+00 1886740808
0.798942 -0.324035 -0.703411 0.000000000000000e+00 1886740808
0.777445 -0.412321 -0.731751 0.000000000000000e+00 1886740808
0.730962 -0.437334 -0.713290 0.000000000000000e+00 1886740808
0.853560 -0.296393 -0.741185 0.000000000000000e+00 1886740808
0.795672 -0.322519 -0.712874 0.000000000000000e+00 1886740808
0.762479 -0.404597 -0.730749 0.000000000000000e+00 1886740808
0.777123 -0.465423 -0.772430 0.000000000000000e+00 1886740808
0.771089 -0.267407 -0.681151 0.000000000000000e+00 1886740808
0.784482 -0.317793 -0.715190 0.000000000000000e+00 1886740808
0.740535 -0.393162 -0.722619 0.000000000000000e+00 1886740808
0.766434 -0.459492 -0.775926 0.000000000000000e+00 1886740808
0.803433 -0.278256 -0.721958 0.000000000000000e+00 1886740808
0.800841 -0.324223 -0.742887 0.000000000000000e+00 1886740808
0.800996 -0.425492 -0.795789 0.000000000000000e+00 1886740808
0.818481 -0.491207 -0.843941 0.000000000000000e+00 1886740808
0.826073 -0.285713 -0.755061 0.000000000000000e+00 1886740808
0.799229 -0.323371 -0.754337 0.000000000000000e+00 1886740808
0.765250 -0.406727 -0.774029 0.000000000000000e+00 1886740808
0.759666 -0.456392 -0.797751 0.000000000000000e+00 1886740808
0.752584 -0.259941 -0.699683 0.000000000000000e+00 1886740808
0.821630 -0.332227 -0.788987 0.000000000000000e+00 1886740808
0.764391 -0.406497 -0.787119 0.000000000000000e+00 1886740808
0.748853 -0.450380 -0.800884 0.000000000000000e+00 1886740808
0.781148 -0.269434 -0.738663 0.000000000000000e+00 1886740808
0.780742 -0.315493 -0.762756 0.000000000000000e+00 1886740808
0.743317 -0.395514 -0.779216 0.000000000000000e+00 1886740808
2.095063 -1.261407 -2.281854 0.000000000000000e+00 1634890835
0.760768 -0.262036 -0.731674 0.000000000000000e+00 1886740808
0.769995 -0.310949 -0.765311 0.000000000000000e+00 1886740808
0.750979 -0.399822 -0.801421 0.000000000000000e+00 1886740808
2.057751 -1.240318 -2.282406 0.000000000000000e+00 1634890835
0.768754 -0.264408 -0.751957 0.000000000000000e+00 1886740808
0.771696 -0.311431 -0.780292 0.000000000000000e+00 1886740808
2.131221 -1.135326 -2.315274 0.000000000000000e+00 1634890835
2.043954 -1.233395 -2.308741 0.000000000000000e+00 1634890835
0.782514 -0.268750 -0.778444 0.000000000000000e+00 1886740808
0.769365 -0.310283 -0.791398 0.000000000000000e+00 1886740808
2.087733 -1.112823 -2.308795 0.000000000000000e+00 1634890835
0.795739 -0.480729 -0.915325 0.000000000000000e+00 1886740808
0.790031 -0.270931 -0.799285 0.000000000000000e+00 1886740808
0.773190 -0.311615 -0.809087 0.000000000000000e+00 1886740808
2.032171 -1.083863 -2.287726 0.000000000000000e+00 1634890835
0.794700 -0.480664 -0.930912 0.000000000000000e+00 1886740808
0.742655 -0.254301 -0.764119 0.000000000000000e+00 1886740808
0.764027 -0.307709 -0.813316 0.000000000000000e+00 1886740808
2.035891 -1.086515 -2.333090 0.000000000000000e+00 1634890835
0.804692 -0.487286 -0.959925 0.000000000000000e+00 1886740808
0.748290 -0.255839 -0.782990 0.000000000000000e+00 1886740808
2.145918 -0.863652 -2.323826 0.000000000000000e+00 1634890835
0.848524 -0.453125 -0.989867 0.000000000000000e+00 1886740808
0.812274 -0.492473 -0.986774 0.000000000000000e+00 1886740808
0.737906 -0.251895 -0.785233 0.000000000000000e+00 1886740808
2.127157 -0.855490 -2.343311 0.000000000000000e+00 1634890835
0.831015 -0.444059 -0.986874 0.000000000000000e+00 1886740808
0.777648 -0.472063 -0.962084 0.000000000000000e+00 1886740808
0.753331 -0.256753 -0.815257 0.000000000000000e+00 1886740808
2.065037 -0.829902 -2.314199 0.000000000000000e+00 1634890835
0.808503 -0.432310 -0.977421 0.000000000000000e+00 1886740808
1.852224 -1.125784 -2.333714 0.000000000000000e+00 1634890835
2.102780 -0.715520 -2.314285 0.000000000000000e+00 1634890835
2.027647 -0.814271 -2.311598 0.000000000000000e+00 1634890835
0.755222 -0.404089 -0.929461 0.000000000000000e+00 1886740808
1.792545 -1.090907 -2.300174 0.000000000000000e+00 1634890835
2.078046 -0.705939 -2.325932 0.000000000000000e+00 1634890835
1.964037 -0.788129 -2.277842 0.000000000000000e+00 1634890835
0.796326 -0.426369 -0.997737 0.000000000000000e+00 1886740808
0.754804 -0.459958 -0.986454 0.000000000000000e+00 1886740808
2.013731 -0.682942 -2.292288 0.000000000000000e+00 1634890835
1.953919 -0.783465 -2.305386 0.000000000000000e+00 1634890835
0.818216 -0.438390 -1.043701 0.000000000000000e+00 1886740808
1.710517 -1.043733 -2.276876 0.000000000000000e+00 1634890835
2.005812 -0.679091 -2.322163 0.000000000000000e+00 1634890835
0.819812 -0.328463 -0.984071 0.000000000000000e+00 1886740808
1.793561 -0.961645 -2.329296 0.000000000000000e+00 1634890835
1.696469 -1.036566 -2.300106 0.000000000000000e+00 1634890835
1.918247 -0.648311 -2.258671 0.000000000000000e+00 1634890835
0.797515 -0.319273 -0.973954 0.000000000000000e+00 1886740808
0.789701 -0.423714 -1.044217 0.000000000000000e+00 1886740808
1.658367 -1.014690 -2.290316 0.000000000000000e+00 1634890835
1.900713 -0.641241 -2.276272 0.000000000000000e+00 1634890835
0.796893 -0.318764 -0.990156 0.000000000000000e+00 1886740808
1.718778 -0.922881 -2.314137 0.000000000000000e+00 1634890835
1.634719 -1.001635 -2.299834 0.000000000000000e+00 1634890835
0.797757 -0.268649 -0.971747 0.000000000000000e+00 1886740808
0.784804 -0.313666 -0.992173 0.000000000000000e+00 1886740808
1.689516 -0.907846 -2.316317 0.000000000000000e+00 1634890835
1.610271 -0.988080 -2.307915 0.000000000000000e+00 1634890835
0.800469 -0.269061 -0.991789 0.000000000000000e+00 1886740808
0.786328 -0.314008 -1.011516 0.000000000000000e+00 1886740808
1.658535 -0.891877 -2.315548 0.000000000000000e+00 1634890835
1.567607 -0.963320 -2.289057 0.000000000000000e+00 1634890835
0.781776 -0.262279 -0.985303 0.000000000000000e+00 1886740808
0.769801 -0.307140 -1.007658 0.000000000000000e+00 1886740808
1.634983 -0.879897 -2.324695 0.000000000000000e+00 1634890835
1.547301 -0.952274 -2.302115 0.000000000000000e+00 1634890835
0.779405 -0.260976 -0.999276 0.000000000000000e+00 1886740808
1.709311 -0.681386 -2.276914 0.000000000000000e+00 1634890835
1.592727 -0.857836 -2.306483 0.000000000000000e+00 1634890835
1.540289 -0.949420 -2.335203 0.000000000000000e+00 1634890835
0.789066 -0.263688 -1.029187 0.000000000000000e+00 1886740808
1.706905 -0.679809 -2.313946 0.000000000000000e+00 1634890835
1.584396 -0.854044 -2.337030 0.000000000000000e+00 1634890835
1.510117 -0.932289 -2.333154 0.000000000000000e+00 1634890835
0.755413 -0.251929 -1.002424 0.000000000000000e+00 1886740808
0.776434 -0.308943 -1.071265 0.000000000000000e+00 1886740808
1.526326 -0.823426 -2.293390 0.000000000000000e+00 1634890835
1.456165 -0.900429 -2.292963 0.000000000000000e+00 1634890835
1.685520 -0.560951 -2.275705 0.000000000000000e+00 1634890835
1.654719 -0.657787 -2.323800 0.000000000000000e+00 1634890835
1.511996 -0.816388 -2.314475 0.000000000000000e+00 1634890835
1.451823 -0.899226 -2.330240 0.000000000000000e+00 1634890835
0.771870 -0.256337 -1.060408 0.000000000000000e+00 1886740808
1.598429 -0.634792 -2.284991 0.000000000000000e+00 1634890835
1.483838 -0.801885 -2.314218 0.000000000000000e+00 1634890835
1.391679 -0.863431 -2.277069 0.000000000000000e+00 1634890835
1.669165 -0.553121 -2.333505 0.000000000000000e+00 1634890835
1.578990 -0.626447 -2.297867 0.000000000000000e+00 1634890835
1.430324 -0.773653 -2.273080 0.000000000000000e+00 1634890835
1.368348 -0.850425 -2.282637 0.000000000000000e+00 1634890835
1.599208 -0.528759 -2.275265 0.000000000000000e+00 1634890835
1.536969 -0.609154 -2.277227 0.000000000000000e+00 1634890835
1.404930 -0.760612 -2.275351 0.000000000000000e+00 1634890835
1.348709 -0.839705 -2.294130 0.000000000000000e+00 1634890835
1.580669 -0.521435 -2.288888 0.000000000000000e+00 1634890835
1.519826 -0.601730 -2.292841 0.000000000000000e+00 1634890835
1.387921 -0.752107 -2.291002 0.000000000000000e+00 1634890835
1.314994 -0.820203 -2.281096 0.000000000000000e+00 1634890835
1.570220 -0.516772 -2.314419 0.000000000000000e+00 1634890835
1.483382 -0.586670 -2.278860 0.000000000000000e+00 1634890835
1.380262 -0.748675 -2.322450 0.000000000000000e+00 1634890835
1.306072 -0.816158 -2.310843 0.000000000000000e+00 1634890835
1.537531 -0.504797 -2.307003 0.000000000000000e+00 1634890835
1.459164 -0.576457 -2.282984 0.000000000000000e+00 1634890835
1.352153 -0.734150 -2.319503 0.000000000000000e+00 1634890835
1.249492 -0.782296 -2.255214 0.000000000000000e+00 1634890835
1.476584 -0.483588 -2.255653 0.000000000000000e+00 1634890835
1.433083 -0.565515 -2.283789 0.000000000000000e+00 1634890835
1.302392 -0.707847 -2.278029 0.000000000000000e+00 1634890835
1.260486 -0.790731 -2.321211 0.000000000000000e+00 1634890835
1.453792 -0.474917 -2.261293 0.000000000000000e+00 1634890835
1.430366 -0.563790 -2.322060 0.000000000000000e+00 1634890835
1.309966 -0.712703 -2.336652 0.000000000000000e+00 1634890835
1.244835 -0.782490 -2.339302 0.000000000000000e+00 1634890835
1.455881 -0.474360 -2.306075 0.000000000000000e+00 1634890835
1.358836 -0.534958 -2.247465 0.000000000000000e+00 1634890835
1.266011 -0.689523 -2.303344 0.000000000000000e+00 1634890835
1.185316 -0.746622 -2.273453 0.000000000000000e+00 1634890835
1.413741 -0.459394 -2.280694 0.000000000000000e+00 1634890835
1.374321 -0.540392 -2.316199 0.000000000000000e+00 1634890835
1.266443 -0.690514 -2.350555 0.000000000000000e+00 1634890835
1.157579 -0.730706 -2.266543 0.000000000000000e+00 1634890835
1.395939 -0.452360 -2.293887 0.000000000000000e+00 1634890835
1.342926 -0.527382 -2.306566 0.000000000000000e+00 1634890835
1.212792 -0.662008 -2.296751 0.000000000000000e+00 1634890835
1.154075 -0.730095 -2.307267 0.000000000000000e+00 1634890835
1.348581 -0.435773 -2.257634 0.000000000000000e+00 1634890835
1.329827 -0.521562 -2.328114 0.000000000000000e+00 1634890835
1.198442 -0.654934 -2.316174 0.000000000000000e+00 1634890835
1.113263 -0.705870 -2.273033 0.000000000000000e+00 1634890835
1.334593 -0.429991 -2.276472 0.000000000000000e+00 1634890835
1.285827 -0.503633 -2.294876 0.000000000000000e+00 1634890835
1.186537 -0.649204 -2.340725 0.000000000000000e+00 1634890835
1.112803 -0.707220 -2.320962 0.000000000000000e+00 1634890835
1.299807 -0.417522 -2.259429 0.000000000000000e+00 1634890835
1.268332 -0.496097 -2.308091 0.000000000000000e+00 1634890835
1.155813 -0.633172 -2.327902 0.000000000000000e+00 1634890835
1.063081 -0.677243 -2.265489 0.000000000000000e+00 1634890835
1.303423 -0.417383 -2.309320 0.000000000000000e+00 1634890835
1.248483 -0.487643 -2.317000 0.000000000000000e+00 1634890835
1.130105 -0.619874 -2.324347 0.000000000000000e+00 1634890835
1.031690 -0.658873 -2.246982 0.000000000000000e+00 1634890835
1.271839 -0.405963 -2.297135 0.000000000000000e+00 1634890835
1.233236 -0.480984 -2.334518 0.000000000000000e+00 1634890835
1.093669 -0.600674 -2.297611 0.000000000000000e+00 1634890835
1.044270 -0.668610 -2.325051 0.000000000000000e+00 1634890835
1.252131 -0.398351 -2.305900 0.000000000000000e+00 1634890835
1.193180 -0.464662 -2.304375 0.000000000000000e+00 1634890835
1.071710 -0.589410 -2.300301 0.000000000000000e+00 1634890835
1.007406 -0.646711 -2.293584 0.000000000000000e+00 1634890835
1.232527 -0.390772 -2.314767 0.000000000000000e+00 1634890835
1.178395 -0.458190 -2.322345 0.000000000000000e+00 1634890835
1.050122 -0.578343 -2.303442 0.000000000000000e+00 1634890835
0.988893 -0.636558 -2.302907 0.000000000000000e+00 1634890835
1.189294 -0.375731 -2.278294 0.000000000000000e+00 1634890835
1.149693 -0.446311 -2.312619 0.000000000000000e+00 1634890835
1.047797 -0.577895 -2.349441 0.000000000000000e+00 1634890835
0.960348 -0.619928 -2.288268 0.000000000000000e+00 1634890835
1.179745 -0.371350 -2.305746 0.000000000000000e+00 1634890835
1.105434 -0.428417 -2.270095 0.000000000000000e+00 1634890835
1.016936 -0.561712 -2.331615 0.000000000000000e+00 1634890835
0.969511 -0.627669 -2.364412 0.000000000000000e+00 1634890835
1.136865 -0.356496 -2.267422 0.000000000000000e+00 1634890835
1.109594 -0.429288 -2.326867 0.000000000000000e+00 1634890835
0.995852 -0.550916 -2.335424 0.000000000000000e+00 1634890835
0.915503 -0.594497 -2.285967 0.000000000000000e+00 1634890835
1.145919 -0.357924 -2.332816 0.000000000000000e+00 1634890835
1.078595 -0.416552 -2.310335 0.000000000000000e+00 1634890835
0.952266 -0.527647 -2.284945 0.000000000000000e+00 1634890835
0.884768 -0.576339 -2.262742 0.000000000000000e+00 1634890835
1.129393 -0.351325 -2.347376 0.000000000000000e+00 1634890835
1.057660 -0.407712 -2.314678 0.000000000000000e+00 1634890835
0.954692 -0.529869 -2.344628 0.000000000000000e+00 1634890835
0.871830 -0.569758 -2.284535 0.000000000000000e+00 1634890835
1.086067 -0.336420 -2.305250 0.000000000000000e+00 1634890835
1.021284 -0.392935 -2.284246 0.000000000000000e+00 1634890835
0.908655 -0.505187 -2.284844 0.000000000000000e+00 1634890835
0.855307 -0.560848 -2.297321 0.000000000000000e+00 1634890835
1.072757 -0.330837 -2.325975 0.000000000000000e+00 1634890835
1.012887 -0.388929 -2.316007 0.000000000000000e+00 1634890835
0.898048 -0.500182 -2.312948 0.000000000000000e+00 1634890835
0.836683 -0.550561 -2.304498 0.000000000000000e+00 1634890835
1.031044 -0.316520 -2.284269 0.000000000000000e+00 1634890835
0.979722 -0.375416 -2.290876 0.000000000000000e+00 1634890835
0.877299 -0.489533 -2.315223 0.000000000000000e+00 1634890835
0.456505 -0.301489 -1.289937 0.000000000000000e+00 1936876886
0.997138 -0.304655 -2.257993 0.000000000000000e+00 1634890835
0.963553 -0.368426 -2.304827 0.000000000000000e+00 1634890835
0.843740 -0.471719 -2.282513 0.000000000000000e+00 1634890835
0.459995 -0.304949 -1.334101 0.000000000000000e+00 1936876886
0.996450 -0.302937 -2.307050 0.000000000000000e+00 1634890835
0.940670 -0.358872 -2.302585 0.000000000000000e+00 1634890835
0.821506 -0.460213 -2.279102 0.000000000000000e+00 1634890835
0.427372 -0.284444 -1.272820 0.000000000000000e+00 1936876886
0.993257 -0.300405 -2.352021 0.000000000000000e+00 1634890835
0.913600 -0.347730 -2.289338 0.000000000000000e+00 1634890835
0.463651 -0.260285 -1.319752 0.000000000000000e+00 1936876886
0.334383 -0.223474 -1.023196 0.000000000000000e+00 1953264973
0.954837 -0.287227 -2.313333 0.000000000000000e+00 1634890835
0.894668 -0.339696 -2.295926 0.000000000000000e+00 1634890835
0.426086 -0.239721 -1.244967 0.000000000000000e+00 1936876886
0.300346 -0.201592 -0.944774 0.000000000000000e+00 1953264973
0.480602 -0.143755 -1.191741 0.000000000000000e+00 1936876886
0.880519 -0.333474 -2.315014 0.000000000000000e+00 1634890835
0.384798 -0.216987 -1.154713 0.000000000000000e+00 1953264973
0.288105 -0.194249 -0.932189 0.000000000000000e+00 1953264973
0.491786 -0.146232 -1.248614 0.000000000000000e+00 1936876886
0.867919 -0.327828 -2.338831 0.000000000000000e+00 1634890835
0.341937 -0.193279 -1.054398 0.000000000000000e+00 1953264973
0.255983 -0.173406 -0.852469 0.000000000000000e+00 1953264973
0.478333 -0.141353 -1.243979 0.000000000000000e+00 1936876886
0.847486 -0.319220 -2.341816 0.000000000000000e+00 1634890835
0.307121 -0.174035 -0.973721 0.000000000000000e+00 1953264973
0.241464 -0.164380 -0.828173 0.000000000000000e+00 1953264973
