# .PCD v0.7 - Point Cloud Data file format
VERSION 0.7
FIELDS x y z rgb label
SIZE 4 4 4 4 4
TYPE F F F F U
COUNT 1 1 1 1 1
WIDTH 538
HEIGHT 1
VIEWPOINT 0 0 0 1 0 0 0
POINTS 538
DATA ascii
41.181686 -17.422117 9.975886 0.000000000000000e+00 1954047316
38.435890 -21.436184 10.077312 0.000000000000000e+00 1954047316
32.329597 -12.019641 -2.054036 0.000000000000000e+00 1851878480
31.525202 -13.186836 -1.921847 0.000000000000000e+00 1851878480
28.734291 -14.828197 -1.553816 0.000000000000000e+00 1851878480
27.750528 -15.755774 -1.378078 0.000000000000000e+00 1851878480
28.931768 -10.748223 -2.100991 0.000000000000000e+00 1851878480
28.087444 -11.744745 -1.975221 0.000000000000000e+00 1851878480
26.730946 -13.798659 -1.712291 0.000000000000000e+00 1851878480
25.974079 -14.755871 -1.558118 0.000000000000000e+00 1851878480
26.487341 -9.832637 -2.164324 0.000000000000000e+00 1851878480
26.150640 -10.931026 -2.084070 0.000000000000000e+00 1851878480
25.246679 -13.036510 -1.869503 0.000000000000000e+00 1851878480
24.782894 -14.087458 -1.742954 0.000000000000000e+00 1851878480
24.244944 -8.993373 -2.201785 0.000000000000000e+00 1851878480
24.518429 -10.245157 -2.184016 0.000000000000000e+00 1851878480
23.751272 -12.268128 -1.996433 0.000000000000000e+00 1851878480
23.519295 -13.377100 -1.897665 0.000000000000000e+00 1851878480
22.311699 -8.269957 -2.229551 0.000000000000000e+00 1851878480
22.504652 -9.400393 -2.216031 0.000000000000000e+00 1851878480
22.290173 -11.517016 -2.096989 0.000000000000000e+00 1851878480
21.950851 -12.492401 -1.998812 0.000000000000000e+00 1851878480
20.539633 -7.607327 -2.239902 0.000000000000000e+00 1851878480
20.712145 -8.648593 -2.234357 0.000000000000000e+00 1851878480
20.768589 -10.734161 -2.162305 0.000000000000000e+00 1851878480
20.427118 -11.632133 -2.072324 0.000000000000000e+00 1851878480
18.935648 -7.007896 -2.238036 0.000000000000000e+00 1851878480
19.032219 -7.944319 -2.232447 0.000000000000000e+00 1851878480
19.334089 -9.995866 -2.207367 0.000000000000000e+00 1851878480
19.056156 -10.857883 -2.131642 0.000000000000000e+00 1851878480
17.559500 -6.493618 -2.236124 0.000000000000000e+00 1851878480
17.638742 -7.360059 -2.235470 0.000000000000000e+00 1851878480
17.834726 -9.223560 -2.215873 0.000000000000000e+00 1851878480
17.796204 -10.146021 -2.176372 0.000000000000000e+00 1851878480
16.427740 -6.070426 -2.242649 0.000000000000000e+00 1851878480
16.467037 -6.868718 -2.242683 0.000000000000000e+00 1851878480
16.519529 -8.546056 -2.219259 0.000000000000000e+00 1851878480
16.578852 -9.457620 -2.200859 0.000000000000000e+00 1851878480
15.307384 -5.652085 -2.230345 0.000000000000000e+00 1851878480
15.365300 -6.406881 -2.238220 0.000000000000000e+00 1851878480
15.438826 -7.989474 -2.230307 0.000000000000000e+00 1851878480
15.372658 -8.774774 -2.201868 0.000000000000000e+00 1851878480
14.506670 -5.352294 -2.247241 0.000000000000000e+00 1851878480
14.471592 -6.032084 -2.245452 0.000000000000000e+00 1851878480
14.475998 -7.493572 -2.238059 0.000000000000000e+00 1851878480
14.473994 -8.266763 -2.225253 0.000000000000000e+00 1851878480
13.652339 -5.033198 -2.240873 0.000000000000000e+00 1851878480
13.592571 -5.663674 -2.238432 0.000000000000000e+00 1851878480
13.585595 -7.034869 -2.238567 0.000000000000000e+00 1851878480
13.579996 -7.760819 -2.230908 0.000000000000000e+00 1851878480
7.340665 -2.704181 -1.272782 1.880790849211783e-38 1684957512
7.360970 -3.066027 -1.282443 1.880790849211783e-38 1684957512
12.800497 -6.630424 -2.239745 0.000000000000000e+00 1851878480
12.820678 -7.331290 -2.241660 0.000000000000000e+00 1851878480
7.000309 -2.576794 -1.278683 1.880790849211783e-38 1684957512
6.984876 -2.908336 -1.283743 1.880790849211783e-38 1684957512
12.184327 -6.313259 -2.256554 0.000000000000000e+00 1851878480
12.083567 -6.913967 -2.240873 0.000000000000000e+00 1851878480
6.640399 -2.442407 -1.274682 1.880790849211783e-38 1684957512
6.646114 -2.766287 -1.285242 1.880790849211783e-38 1684957512
6.563487 -3.401923 -1.282903 1.880790849211783e-38 1684957512
11.444077 -6.552024 -2.243985 0.000000000000000e+00 1851878480
6.368903 -2.340715 -1.281950 1.880790849211783e-38 1684957512
6.318243 -2.628868 -1.282630 1.880790849211783e-38 1684957512
6.272280 -3.252020 -1.290540 1.880790849211783e-38 1684957512
10.830624 -6.204576 -2.239270 0.000000000000000e+00 1851878480
6.094869 -2.238244 -1.283789 1.880790849211783e-38 1684957512
6.086934 -2.531710 -1.294421 1.880790849211783e-38 1684957512
5.964488 -3.093425 -1.288808 1.880790849211783e-38 1684957512
5.971425 -3.422958 -1.298561 1.880790849211783e-38 1684957512
5.834525 -2.140951 -1.283687 1.880790849211783e-38 1684957512
5.792625 -2.408424 -1.287926 1.880790849211783e-38 1684957512
5.706044 -2.960339 -1.292102 1.880790849211783e-38 1684957512
5.586129 -3.204057 -1.274818 1.880790849211783e-38 1684957512
5.662313 -2.076117 -1.299090 1.880790849211783e-38 1684957512
5.624746 -2.337773 -1.305251 1.880790849211783e-38 1684957512
5.681065 -2.948327 -1.345543 1.880790849211783e-38 1684957512
5.645091 -3.239866 -1.349188 1.880790849211783e-38 1684957512
5.633055 -2.063751 -1.345577 1.880790849211783e-38 1684957512
5.662708 -2.352690 -1.369275 1.880790849211783e-38 1684957512
5.630842 -2.923207 -1.392451 1.880790849211783e-38 1684957512
5.643168 -3.240761 -1.409869 1.880790849211783e-38 1684957512
5.648604 -2.067799 -1.402829 1.880790849211783e-38 1684957512
5.624061 -2.335774 -1.414973 1.880790849211783e-38 1684957512
5.624300 -2.920757 -1.449804 1.880790849211783e-38 1684957512
5.647573 -3.245297 -1.472416 1.880790849211783e-38 1684957512
5.602363 -2.049235 -1.444644 1.880790849211783e-38 1684957512
5.656713 -2.348470 -1.478766 1.880790849211783e-38 1684957512
5.702515 -2.962339 -1.530009 1.880790849211783e-38 1684957512
5.666050 -3.257942 -1.539153 1.880790849211783e-38 1684957512
5.663623 -2.069981 -1.514532 1.880790849211783e-38 1684957512
5.672698 -2.354235 -1.538905 1.880790849211783e-38 1684957512
5.643685 -2.932739 -1.573908 1.880790849211783e-38 1684957512
5.665366 -3.259585 -1.601161 1.880790849211783e-38 1684957512
5.608273 -2.048098 -1.553511 1.880790849211783e-38 1684957512
5.640848 -2.340148 -1.586145 1.880790849211783e-38 1684957512
5.656118 -2.940163 -1.637464 1.880790849211783e-38 1684957512
5.641504 -3.247891 -1.656644 1.880790849211783e-38 1684957512
5.634015 -2.055829 -1.614895 1.880790849211783e-38 1684957512
5.659848 -2.347154 -1.647800 1.880790849211783e-38 1684957512
5.684394 -2.955838 -1.706321 1.880790849211783e-38 1684957512
5.625455 -3.240693 -1.714285 1.880790849211783e-38 1684957512
5.680279 -2.071025 -1.683094 1.880790849211783e-38 1684957512
5.673534 -2.351946 -1.708487 1.880790849211783e-38 1684957512
5.646215 -2.936960 -1.755419 1.880790849211783e-38 1684957512
5.640913 -3.251660 -1.781838 1.880790849211783e-38 1684957512
5.637120 -2.053608 -1.725072 1.880790849211783e-38 1684957512
5.656723 -2.344094 -1.760224 1.880790849211783e-38 1684957512
5.615253 -2.921827 -1.806322 1.880790849211783e-38 1684957512
5.650737 -3.259394 -1.848224 1.880790849211783e-38 1684957512
5.622706 -2.046677 -1.775545 1.880790849211783e-38 1684957512
5.698132 -2.360359 -1.830603 1.880790849211783e-38 1684957512
5.664665 -2.948525 -1.883598 1.880790849211783e-38 1684957512
5.613060 -3.239735 -1.899105 1.880790849211783e-38 1684957512
5.672697 -2.063166 -1.846968 1.880790849211783e-38 1684957512
5.657443 -2.342611 -1.874898 1.880790849211783e-38 1684957512
5.671533 -2.953092 -1.947667 1.880790849211783e-38 1684957512
5.661851 -3.270001 -1.979721 1.880790849211783e-38 1684957512
5.638233 -2.048928 -1.891323 1.880790849211783e-38 1684957512
5.690840 -2.355538 -1.943969 1.880790849211783e-38 1684957512
5.684937 -2.961078 -2.014547 1.880790849211783e-38 1684957512
5.632446 -3.255121 -2.033584 1.880790849211783e-38 1684957512
5.632193 -2.045024 -1.945099 1.880790849211783e-38 1684957512
5.613425 -2.322600 -1.975044 1.880790849211783e-38 1684957512
5.705537 -2.972819 -2.084706 1.880790849211783e-38 1684957512
5.604988 -3.241363 -2.087882 1.880790849211783e-38 1684957512
5.650914 -2.050099 -2.007850 1.880790849211783e-38 1684957512
5.683242 -2.350579 -2.058164 1.880790849211783e-38 1684957512
5.670471 -2.955560 -2.134735 1.880790849211783e-38 1684957512
5.679164 -3.286410 -2.180975 1.880790849211783e-38 1684957512
5.604259 -2.031455 -2.047401 1.880790849211783e-38 1684957512
5.644593 -2.333681 -2.102654 1.880790849211783e-38 1684957512
5.688202 -2.965822 -2.204833 1.880790849211783e-38 1684957512
5.625081 -3.257257 -2.225454 1.880790849211783e-38 1684957512
5.663639 -2.051234 -2.126135 1.880790849211783e-38 1684957512
5.654993 -2.337067 -2.165462 1.880790849211783e-38 1684957512
5.672940 -2.958890 -2.262564 0.000000000000000e+00 1851878480
5.519884 -3.198458 -2.248277 0.000000000000000e+00 1851878480
5.625479 -2.035673 -2.168795 1.880790849211783e-38 1684957512
5.645590 -2.332262 -2.221051 1.880790849211783e-38 1684957512
5.474270 -2.856263 -2.245139 0.000000000000000e+00 1851878480
5.378865 -3.118826 -2.254056 0.000000000000000e+00 1851878480
5.687467 -2.056332 -2.250651 1.880790849211783e-38 1684957512
5.598756 -2.311997 -2.261685 0.000000000000000e+00 1851878480
5.375760 -2.805850 -2.265839 0.000000000000000e+00 1851878480
5.194571 -3.013988 -2.238295 0.000000000000000e+00 1851878480
5.542858 -2.002312 -2.250256 0.000000000000000e+00 1851878480
5.376350 -2.219266 -2.228914 0.000000000000000e+00 1851878480
5.240735 -2.736340 -2.268897 0.000000000000000e+00 1851878480
5.096420 -2.959042 -2.256735 0.000000000000000e+00 1851878480
5.393059 -1.946501 -2.245085 0.000000000000000e+00 1851878480
5.288756 -2.182235 -2.249109 0.000000000000000e+00 1851878480
5.066658 -2.646392 -2.251917 0.000000000000000e+00 1851878480
4.936841 -2.868340 -2.245330 0.000000000000000e+00 1851878480
5.224576 -1.884034 -2.229199 0.000000000000000e+00 1851878480
5.134125 -2.117573 -2.238571 0.000000000000000e+00 1851878480
4.948084 -2.585384 -2.256639 0.000000000000000e+00 1851878480
4.829411 -2.807846 -2.254866 0.000000000000000e+00 1851878480
5.094762 -1.835597 -2.227066 0.000000000000000e+00 1851878480
5.068539 -2.089671 -2.264864 0.000000000000000e+00 1851878480
4.824899 -2.521930 -2.256863 0.000000000000000e+00 1851878480
4.698244 -2.733469 -2.250866 0.000000000000000e+00 1851878480
5.012352 -1.804298 -2.243793 0.000000000000000e+00 1851878480
4.851399 -1.999327 -2.220742 0.000000000000000e+00 1851878480
4.645679 -2.429133 -2.227749 0.000000000000000e+00 1851878480
4.549839 -2.648971 -2.235634 0.000000000000000e+00 1851878480
4.910819 -1.766165 -2.250384 0.000000000000000e+00 1851878480
4.730264 -1.948601 -2.217250 0.000000000000000e+00 1851878480
4.593124 -2.402534 -2.257062 0.000000000000000e+00 1851878480
4.460509 -2.598782 -2.246948 0.000000000000000e+00 1851878480
4.746921 -1.705673 -2.225944 0.000000000000000e+00 1851878480
4.669071 -1.922592 -2.240230 0.000000000000000e+00 1851878480
4.471678 -2.339872 -2.250876 0.000000000000000e+00 1851878480
4.326907 -2.522724 -2.233640 0.000000000000000e+00 1851878480
4.704240 -1.688798 -2.256507 0.000000000000000e+00 1851878480
4.554427 -1.874597 -2.235998 0.000000000000000e+00 1851878480
4.324189 -2.263539 -2.228781 0.000000000000000e+00 1851878480
4.235412 -2.471139 -2.239701 0.000000000000000e+00 1851878480
4.569634 -1.638968 -2.241438 0.000000000000000e+00 1851878480
4.433320 -1.823978 -2.226347 0.000000000000000e+00 1851878480
4.221473 -2.210599 -2.227166 0.000000000000000e+00 1851878480
4.113886 -2.401960 -2.227645 0.000000000000000e+00 1851878480
4.494156 -1.610407 -2.253470 0.000000000000000e+00 1851878480
4.396874 -1.808211 -2.257833 0.000000000000000e+00 1851878480
4.186492 -2.193109 -2.260043 0.000000000000000e+00 1851878480
4.032782 -2.356312 -2.235354 0.000000000000000e+00 1851878480
4.421390 -1.582852 -2.265623 0.000000000000000e+00 1851878480
4.272036 -1.756115 -2.242494 0.000000000000000e+00 1851878480
4.064751 -2.130146 -2.244594 0.000000000000000e+00 1851878480
3.961260 -2.316212 -2.246877 0.000000000000000e+00 1851878480
4.303327 -1.539137 -2.252845 0.000000000000000e+00 1851878480
4.229504 -1.737877 -2.268848 0.000000000000000e+00 1851878480
3.992953 -2.093326 -2.254767 0.000000000000000e+00 1851878480
3.861747 -2.259692 -2.240771 0.000000000000000e+00 1851878480
4.172621 -1.490968 -2.231070 0.000000000000000e+00 1851878480
4.066576 -1.670200 -2.228649 0.000000000000000e+00 1851878480
3.908920 -2.050067 -2.256527 0.000000000000000e+00 1851878480
3.824228 -2.239401 -2.269317 0.000000000000000e+00 1851878480
4.073680 -1.454221 -2.224093 0.000000000000000e+00 1851878480
4.046890 -1.661382 -2.265239 0.000000000000000e+00 1851878480
3.782007 -1.984284 -2.231317 0.000000000000000e+00 1851878480
3.729491 -2.185567 -2.262640 0.000000000000000e+00 1851878480
4.020922 -1.433999 -2.241009 0.000000000000000e+00 1851878480
3.916474 -1.607126 -2.238497 0.000000000000000e+00 1851878480
3.754526 -1.970644 -2.263260 0.000000000000000e+00 1851878480
3.606377 -2.115020 -2.236322 0.000000000000000e+00 1851878480
4.015241 -1.430577 -2.283898 0.000000000000000e+00 1634890835
3.838208 -1.574301 -2.239505 0.000000000000000e+00 1851878480
3.655968 -1.919680 -2.251193 0.000000000000000e+00 1851878480
3.542223 -2.078986 -2.244528 0.000000000000000e+00 1851878480
3.948971 -1.405579 -2.291906 0.000000000000000e+00 1634890835
3.765513 -1.543784 -2.242380 0.000000000000000e+00 1851878480
3.574826 -1.877827 -2.247979 0.000000000000000e+00 1851878480
3.492408 -2.051332 -2.260760 0.000000000000000e+00 1851878480
3.880604 -1.379871 -2.297546 0.000000000000000e+00 1634890835
3.733871 -1.530110 -2.268868 0.000000000000000e+00 1851878480
3.520943 -1.850276 -2.260602 0.000000000000000e+00 1851878480
3.411817 -2.005559 -2.255770 0.000000000000000e+00 1851878480
3.783220 -1.343893 -2.284484 0.000000000000000e+00 1634890835
3.664664 -1.501056 -2.271735 0.000000000000000e+00 1851878480
3.444684 -1.810947 -2.257609 0.000000000000000e+00 1851878480
3.306733 -1.945321 -2.232506 0.000000000000000e+00 1851878480
3.705840 -1.315070 -2.281857 0.000000000000000e+00 1634890835
3.566899 -1.460329 -2.255280 0.000000000000000e+00 1851878480
3.367988 -1.771361 -2.252758 0.000000000000000e+00 1851878480
3.237890 -1.906341 -2.231770 0.000000000000000e+00 1851878480
3.659703 -1.297366 -2.297421 0.000000000000000e+00 1634890835
3.488073 -1.427381 -2.249047 0.000000000000000e+00 1851878480
3.300622 -1.736658 -2.252681 0.000000000000000e+00 1851878480
3.187556 -1.878215 -2.242607 0.000000000000000e+00 1851878480
3.573226 -1.265398 -2.286493 0.000000000000000e+00 1634890835
3.473549 -1.420760 -2.283551 0.000000000000000e+00 1634890835
3.237750 -1.704299 -2.254378 0.000000000000000e+00 1851878480
3.126159 -1.843538 -2.244570 0.000000000000000e+00 1851878480
3.490380 -1.234764 -2.276261 0.000000000000000e+00 1634890835
3.486479 -1.425360 -2.336541 0.000000000000000e+00 1634890835
3.211063 -1.690975 -2.280527 0.000000000000000e+00 1851878480
3.058254 -1.804977 -2.240500 0.000000000000000e+00 1851878480
3.436913 -1.214564 -2.283952 0.000000000000000e+00 1634890835
3.386004 -1.383609 -2.312872 0.000000000000000e+00 1634890835
3.114455 -1.640810 -2.255791 0.000000000000000e+00 1851878480
3.033230 -1.791698 -2.267009 0.000000000000000e+00 1851878480
3.402265 -1.201033 -2.303500 0.000000000000000e+00 1634890835
3.306605 -1.350500 -2.301742 0.000000000000000e+00 1634890835
3.087416 -1.627279 -2.280206 0.000000000000000e+00 1851878480
2.941671 -1.739077 -2.242587 0.000000000000000e+00 1851878480
3.330963 -1.174588 -2.297353 0.000000000000000e+00 1634890835
3.251628 -1.327382 -2.306329 0.000000000000000e+00 1634890835
2.986949 -1.575023 -2.249077 0.000000000000000e+00 1851878480
2.901869 -1.717008 -2.256189 0.000000000000000e+00 1851878480
3.234705 -1.139396 -2.272322 0.000000000000000e+00 1634890835
3.140496 -1.281370 -2.269362 0.000000000000000e+00 1634890835
2.948386 -1.555386 -2.263065 0.000000000000000e+00 1851878480
2.835275 -1.679050 -2.247883 0.000000000000000e+00 1851878480
3.194903 -1.124129 -2.285665 0.000000000000000e+00 1634890835
3.109507 -1.268079 -2.288888 0.000000000000000e+00 1634890835
2.889751 -1.525145 -2.260744 0.000000000000000e+00 1851878480
2.790298 -1.653858 -2.255549 0.000000000000000e+00 1851878480
3.133237 -1.101195 -2.282512 0.000000000000000e+00 1634890835
3.076904 -1.254136 -2.306854 0.000000000000000e+00 1634890835
2.822406 -1.490287 -2.250268 0.000000000000000e+00 1851878480
2.737423 -1.623950 -2.255860 0.000000000000000e+00 1851878480
3.075794 -1.079779 -2.281344 0.000000000000000e+00 1634890835
3.015738 -1.228561 -2.302615 0.000000000000000e+00 1634890835
2.821697 -1.490604 -2.292440 0.000000000000000e+00 1851878480
0.865341 -0.513814 -0.726901 0.000000000000000e+00 1886740808
3.038173 -1.065345 -2.294094 0.000000000000000e+00 1634890835
3.008360 -1.224908 -2.339005 0.000000000000000e+00 1634890835
2.719376 -1.437229 -2.251034 0.000000000000000e+00 1851878480
0.828026 -0.492103 -0.708928 0.000000000000000e+00 1886740808
2.967584 -1.039382 -2.280978 0.000000000000000e+00 1634890835
2.862610 -1.164940 -2.266165 0.000000000000000e+00 1634890835
0.867103 -0.458495 -0.731246 0.000000000000000e+00 1886740808
0.866270 -0.515304 -0.755852 0.000000000000000e+00 1886740808
2.916770 -1.020380 -2.281899 0.000000000000000e+00 1634890835
2.872247 -1.168225 -2.314921 0.000000000000000e+00 1634890835
0.854485 -0.452041 -0.734066 0.000000000000000e+00 1886740808
0.770508 -0.458766 -0.685086 0.000000000000000e+00 1886740808
2.899400 -1.013091 -2.308544 0.000000000000000e+00 1634890835
2.832786 -1.151542 -2.324199 0.000000000000000e+00 1634890835
0.850984 -0.450409 -0.744648 0.000000000000000e+00 1886740808
0.805256 -0.479907 -0.729537 0.000000000000000e+00 1886740808
2.826603 -0.986458 -2.290302 0.000000000000000e+00 1634890835
2.766930 -1.124145 -2.310818 0.000000000000000e+00 1634890835
0.819781 -0.434110 -0.730619 0.000000000000000e+00 1886740808
0.780977 -0.465883 -0.720879 0.000000000000000e+00 1886740808
2.742209 -0.955829 -2.260953 0.000000000000000e+00 1634890835
0.834056 -0.338668 -0.708984 0.000000000000000e+00 1886740808
0.839778 -0.444923 -0.762233 0.000000000000000e+00 1886740808
0.764015 -0.456206 -0.718462 0.000000000000000e+00 1886740808
0.862122 -0.300128 -0.723252 0.000000000000000e+00 1886740808
0.829415 -0.336590 -0.717554 0.000000000000000e+00 1886740808
0.782109 -0.414580 -0.722918 0.000000000000000e+00 1886740808
0.755480 -0.451553 -0.723724 0.000000000000000e+00 1886740808
0.847767 -0.294759 -0.723598 0.000000000000000e+00 1886740808
0.814113 -0.330188 -0.716768 0.000000000000000e+00 1886740808
0.761507 -0.403868 -0.716749 0.000000000000000e+00 1886740808
0.745111 -0.445799 -0.727098 0.000000000000000e+00 1886740808
0.814915 -0.282974 -0.707628 0.000000000000000e+00 1886740808
0.801041 -0.324695 -0.717684 0.000000000000000e+00 1886740808
0.773177 -0.410273 -0.741001 0.000000000000000e+00 1886740808
0.755724 -0.452606 -0.751160 0.000000000000000e+00 1886740808
0.843738 -0.292601 -0.745326 0.000000000000000e+00 1886740808
0.815216 -0.330244 -0.743209 0.000000000000000e+00 1886740808
0.739473 -0.392598 -0.721583 0.000000000000000e+00 1886740808
0.758750 -0.454886 -0.768148 0.000000000000000e+00 1886740808
0.784891 -0.271834 -0.705296 0.000000000000000e+00 1886740808
0.777343 -0.314710 -0.721089 0.000000000000000e+00 1886740808
0.831716 -0.441811 -0.826310 0.000000000000000e+00 1886740808
0.774637 -0.464895 -0.798733 0.000000000000000e+00 1886740808
0.821671 -0.284190 -0.751037 0.000000000000000e+00 1886740808
0.795620 -0.321911 -0.750930 0.000000000000000e+00 1886740808
0.784554 -0.416987 -0.793555 0.000000000000000e+00 1886740808
0.742289 -0.445953 -0.779503 0.000000000000000e+00 1886740808
0.779712 -0.269311 -0.724904 0.000000000000000e+00 1886740808
0.761111 -0.307756 -0.730873 0.000000000000000e+00 1886740808
0.763418 -0.405980 -0.786118 0.000000000000000e+00 1886740808
0.754789 -0.453950 -0.807232 0.000000000000000e+00 1886740808
0.719930 -0.248319 -0.680775 0.000000000000000e+00 1886740808
0.762805 -0.308245 -0.745232 0.000000000000000e+00 1886740808
0.789379 -0.420023 -0.827503 0.000000000000000e+00 1886740808
2.134827 -1.285347 -2.325162 0.000000000000000e+00 1634890835
0.775269 -0.267030 -0.745620 0.000000000000000e+00 1886740808
0.749365 -0.302618 -0.744807 0.000000000000000e+00 1886740808
0.759849 -0.404544 -0.810886 0.000000000000000e+00 1886740808
2.045566 -1.232974 -2.268891 0.000000000000000e+00 1634890835
0.754057 -0.259353 -0.737581 0.000000000000000e+00 1886740808
0.750843 -0.303016 -0.759207 0.000000000000000e+00 1886740808
2.122207 -1.130524 -2.305482 0.000000000000000e+00 1634890835
2.013293 -1.214893 -2.274109 0.000000000000000e+00 1634890835
0.795335 -0.273153 -0.791199 0.000000000000000e+00 1886740808
0.754944 -0.304467 -0.776565 0.000000000000000e+00 1886740808
2.084524 -1.111112 -2.305246 0.000000000000000e+00 1634890835
0.841428 -0.508331 -0.967881 0.000000000000000e+00 1886740808
0.777781 -0.266730 -0.786892 0.000000000000000e+00 1886740808
0.768275 -0.309634 -0.803944 0.000000000000000e+00 1886740808
2.030924 -1.083197 -2.286322 0.000000000000000e+00 1634890835
0.837998 -0.506852 -0.981632 0.000000000000000e+00 1886740808
0.736116 -0.252062 -0.757391 0.000000000000000e+00 1886740808
0.763735 -0.307591 -0.813005 0.000000000000000e+00 1886740808
2.027886 -1.082244 -2.323917 0.000000000000000e+00 1634890835
0.779902 -0.472274 -0.930353 0.000000000000000e+00 1886740808
0.753914 -0.257762 -0.788875 0.000000000000000e+00 1886740808
2.111602 -0.849841 -2.286664 0.000000000000000e+00 1634890835
0.850019 -0.453924 -0.991611 0.000000000000000e+00 1886740808
0.782706 -0.474547 -0.950855 0.000000000000000e+00 1886740808
0.739843 -0.252557 -0.787294 0.000000000000000e+00 1886740808
2.024016 -0.814009 -2.229689 0.000000000000000e+00 1634890835
0.801236 -0.428146 -0.951510 0.000000000000000e+00 1886740808
0.781545 -0.474428 -0.966906 0.000000000000000e+00 1886740808
0.736450 -0.251000 -0.796988 0.000000000000000e+00 1886740808
2.028033 -0.815031 -2.272731 0.000000000000000e+00 1634890835
0.800671 -0.428122 -0.967953 0.000000000000000e+00 1886740808
1.819788 -1.106070 -2.292846 0.000000000000000e+00 1634890835
2.104260 -0.716023 -2.315913 0.000000000000000e+00 1634890835
2.026825 -0.813940 -2.310661 0.000000000000000e+00 1634890835
0.812341 -0.434651 -0.999758 0.000000000000000e+00 1886740808
1.804395 -1.098119 -2.315381 0.000000000000000e+00 1634890835
2.021405 -0.686698 -2.262534 0.000000000000000e+00 1634890835
1.984964 -0.796527 -2.302113 0.000000000000000e+00 1634890835
0.795394 -0.425870 -0.996569 0.000000000000000e+00 1886740808
0.764057 -0.465597 -0.998546 0.000000000000000e+00 1886740808
2.061503 -0.699143 -2.346668 0.000000000000000e+00 1634890835
1.958125 -0.785151 -2.310349 0.000000000000000e+00 1634890835
0.789423 -0.422964 -1.006974 0.000000000000000e+00 1886740808
1.737634 -1.060280 -2.312972 0.000000000000000e+00 1634890835
1.972348 -0.667762 -2.283421 0.000000000000000e+00 1634890835
0.817365 -0.327483 -0.981133 0.000000000000000e+00 1886740808
1.766220 -0.946986 -2.293788 0.000000000000000e+00 1634890835
1.661078 -1.014943 -2.252123 0.000000000000000e+00 1634890835
1.937768 -0.654909 -2.281656 0.000000000000000e+00 1634890835
0.805847 -0.322609 -0.984130 0.000000000000000e+00 1886740808
0.772955 -0.414728 -1.022073 0.000000000000000e+00 1886740808
1.682234 -1.029293 -2.323277 0.000000000000000e+00 1634890835
1.928759 -0.650703 -2.309860 0.000000000000000e+00 1634890835
0.782059 -0.312830 -0.971725 0.000000000000000e+00 1886740808
1.701808 -0.913769 -2.291288 0.000000000000000e+00 1634890835
1.608875 -0.985800 -2.263474 0.000000000000000e+00 1634890835
0.802348 -0.270194 -0.977339 0.000000000000000e+00 1886740808
0.782724 -0.312835 -0.989543 0.000000000000000e+00 1886740808
1.656681 -0.890203 -2.271301 0.000000000000000e+00 1634890835
1.620484 -0.994346 -2.322552 0.000000000000000e+00 1634890835
0.780771 -0.262440 -0.967383 0.000000000000000e+00 1886740808
0.801616 -0.320113 -1.031182 0.000000000000000e+00 1886740808
1.656293 -0.890672 -2.312418 0.000000000000000e+00 1634890835
1.569911 -0.964736 -2.292421 0.000000000000000e+00 1634890835
0.770842 -0.258611 -0.971522 0.000000000000000e+00 1886740808
0.771861 -0.307962 -1.010354 0.000000000000000e+00 1886740808
1.616159 -0.869766 -2.297930 0.000000000000000e+00 1634890835
1.561508 -0.961018 -2.323252 0.000000000000000e+00 1634890835
0.799738 -0.267785 -1.025344 0.000000000000000e+00 1886740808
1.720458 -0.685830 -2.291762 0.000000000000000e+00 1634890835
1.604912 -0.864399 -2.324129 0.000000000000000e+00 1634890835
1.516670 -0.934861 -2.299395 0.000000000000000e+00 1634890835
0.787116 -0.263036 -1.026644 0.000000000000000e+00 1886740808
1.681318 -0.669618 -2.279259 0.000000000000000e+00 1634890835
1.561241 -0.841562 -2.302875 0.000000000000000e+00 1634890835
1.475504 -0.910919 -2.279676 0.000000000000000e+00 1634890835
0.750670 -0.250347 -0.996130 0.000000000000000e+00 1886740808
0.759459 -0.302189 -1.047845 0.000000000000000e+00 1886740808
1.557156 -0.840058 -2.339713 0.000000000000000e+00 1634890835
1.468529 -0.908075 -2.312433 0.000000000000000e+00 1634890835
1.662153 -0.553174 -2.244156 0.000000000000000e+00 1634890835
1.643811 -0.653451 -2.308482 0.000000000000000e+00 1634890835
1.533508 -0.828004 -2.347404 0.000000000000000e+00 1634890835
1.424289 -0.882172 -2.286047 0.000000000000000e+00 1634890835
0.780418 -0.259176 -1.072151 0.000000000000000e+00 1886740808
1.631010 -0.647731 -2.331567 0.000000000000000e+00 1634890835
1.504077 -0.812822 -2.345783 0.000000000000000e+00 1634890835
1.404728 -0.871527 -2.298420 0.000000000000000e+00 1634890835
1.640276 -0.543548 -2.293118 0.000000000000000e+00 1634890835
1.591884 -0.631562 -2.316632 0.000000000000000e+00 1634890835
1.461852 -0.790706 -2.323184 0.000000000000000e+00 1634890835
1.372405 -0.852946 -2.289403 0.000000000000000e+00 1634890835
1.605968 -0.530994 -2.284883 0.000000000000000e+00 1634890835
1.551532 -0.614926 -2.298804 0.000000000000000e+00 1634890835
1.422564 -0.770159 -2.303910 0.000000000000000e+00 1634890835
1.337849 -0.832944 -2.275658 0.000000000000000e+00 1634890835
1.568052 -0.517273 -2.270618 0.000000000000000e+00 1634890835
1.530597 -0.605994 -2.309090 0.000000000000000e+00 1634890835
1.401358 -0.759388 -2.313182 0.000000000000000e+00 1634890835
1.307673 -0.815637 -2.268398 0.000000000000000e+00 1634890835
1.550398 -0.510249 -2.285203 0.000000000000000e+00 1634890835
1.500082 -0.593275 -2.304516 0.000000000000000e+00 1634890835
1.339922 -0.726794 -2.254573 0.000000000000000e+00 1634890835
1.318216 -0.823746 -2.332329 0.000000000000000e+00 1634890835
1.524552 -0.500535 -2.287529 0.000000000000000e+00 1634890835
1.465985 -0.579152 -2.293655 0.000000000000000e+00 1634890835
1.381928 -0.750317 -2.370580 0.000000000000000e+00 1634890835
1.297950 -0.812635 -2.342676 0.000000000000000e+00 1634890835
1.478974 -0.484371 -2.259305 0.000000000000000e+00 1634890835
1.449694 -0.572070 -2.310261 0.000000000000000e+00 1634890835
1.324514 -0.719870 -2.316722 0.000000000000000e+00 1634890835
1.252359 -0.785632 -2.306244 0.000000000000000e+00 1634890835
1.493329 -0.487833 -2.322790 0.000000000000000e+00 1634890835
1.411057 -0.556179 -2.290713 0.000000000000000e+00 1634890835
1.307790 -0.711519 -2.332769 0.000000000000000e+00 1634890835
1.236020 -0.776949 -2.322737 0.000000000000000e+00 1634890835
1.437757 -0.468454 -2.277368 0.000000000000000e+00 1634890835
1.383670 -0.544735 -2.288541 0.000000000000000e+00 1634890835
1.278708 -0.696439 -2.326445 0.000000000000000e+00 1634890835
1.200729 -0.756330 -2.303014 0.000000000000000e+00 1634890835
1.397131 -0.453997 -2.253897 0.000000000000000e+00 1634890835
1.368432 -0.538076 -2.306273 0.000000000000000e+00 1634890835
1.236303 -0.674081 -2.294615 0.000000000000000e+00 1634890835
1.170830 -0.739070 -2.292489 0.000000000000000e+00 1634890835
1.406054 -0.455638 -2.310509 0.000000000000000e+00 1634890835
1.351812 -0.530872 -2.321828 0.000000000000000e+00 1634890835
1.249555 -0.682076 -2.366372 0.000000000000000e+00 1634890835
1.159122 -0.733289 -2.317359 0.000000000000000e+00 1634890835
1.379167 -0.445656 -2.308838 0.000000000000000e+00 1634890835
1.327883 -0.520799 -2.324711 0.000000000000000e+00 1634890835
1.192920 -0.651916 -2.305502 0.000000000000000e+00 1634890835
1.124866 -0.713226 -2.296722 0.000000000000000e+00 1634890835
1.328435 -0.428007 -2.265968 0.000000000000000e+00 1634890835
1.309207 -0.512790 -2.336604 0.000000000000000e+00 1634890835
1.187677 -0.649828 -2.342974 0.000000000000000e+00 1634890835
1.113651 -0.707758 -2.322730 0.000000000000000e+00 1634890835
1.296991 -0.416617 -2.254534 0.000000000000000e+00 1634890835
1.286650 -0.503263 -2.341427 0.000000000000000e+00 1634890835
1.165630 -0.638549 -2.347673 0.000000000000000e+00 1634890835
1.086082 -0.691896 -2.314506 0.000000000000000e+00 1634890835
1.298156 -0.415697 -2.299989 0.000000000000000e+00 1634890835
1.210580 -0.472839 -2.246658 0.000000000000000e+00 1634890835
1.132555 -0.621218 -2.329387 0.000000000000000e+00 1634890835
1.056898 -0.674971 -2.301883 0.000000000000000e+00 1634890835
1.274546 -0.406827 -2.302023 0.000000000000000e+00 1634890835
1.218707 -0.475318 -2.307015 0.000000000000000e+00 1634890835
1.106127 -0.607516 -2.323784 0.000000000000000e+00 1634890835
1.042390 -0.667406 -2.320864 0.000000000000000e+00 1634890835
1.242919 -0.395420 -2.288935 0.000000000000000e+00 1634890835
1.193269 -0.464696 -2.304546 0.000000000000000e+00 1634890835
1.064853 -0.585639 -2.285584 0.000000000000000e+00 1634890835
0.999279 -0.641493 -2.275081 0.000000000000000e+00 1634890835
1.240542 -0.393313 -2.329820 0.000000000000000e+00 1634890835
1.171225 -0.455402 -2.308216 0.000000000000000e+00 1634890835
1.044644 -0.575326 -2.291426 0.000000000000000e+00 1634890835
0.982178 -0.632235 -2.287269 0.000000000000000e+00 1634890835
1.184042 -0.374072 -2.268233 0.000000000000000e+00 1634890835
1.151345 -0.446953 -2.315943 0.000000000000000e+00 1634890835
1.032540 -0.569480 -2.315229 0.000000000000000e+00 1634890835
0.975669 -0.629818 -2.324774 0.000000000000000e+00 1634890835
1.160407 -0.365263 -2.267951 0.000000000000000e+00 1634890835
1.132205 -0.438792 -2.325071 0.000000000000000e+00 1634890835
1.016994 -0.561744 -2.331748 0.000000000000000e+00 1634890835
0.944768 -0.611651 -2.304070 0.000000000000000e+00 1634890835
1.161418 -0.364196 -2.316392 0.000000000000000e+00 1634890835
1.095669 -0.423901 -2.297665 0.000000000000000e+00 1634890835
0.993166 -0.549430 -2.329125 0.000000000000000e+00 1634890835
0.913436 -0.593154 -2.280804 0.000000000000000e+00 1634890835
1.139918 -0.356050 -2.320599 0.000000000000000e+00 1634890835
1.071487 -0.413806 -2.295110 0.000000000000000e+00 1634890835
0.963445 -0.533841 -2.311768 0.000000000000000e+00 1634890835
0.889708 -0.579557 -2.275377 0.000000000000000e+00 1634890835
1.076011 -0.334720 -2.236425 0.000000000000000e+00 1634890835
1.039405 -0.400675 -2.274727 0.000000000000000e+00 1634890835
0.947832 -0.526062 -2.327780 0.000000000000000e+00 1634890835
0.865343 -0.565519 -2.267539 0.000000000000000e+00 1634890835
1.077940 -0.333902 -2.287999 0.000000000000000e+00 1634890835
1.046016 -0.402450 -2.339562 0.000000000000000e+00 1634890835
0.911018 -0.506501 -2.290788 0.000000000000000e+00 1634890835
0.858056 -0.562650 -2.304704 0.000000000000000e+00 1634890835
1.043130 -0.321700 -2.261738 0.000000000000000e+00 1634890835
1.014156 -0.389416 -2.318908 0.000000000000000e+00 1634890835
0.912227 -0.508080 -2.349467 0.000000000000000e+00 1634890835
0.838899 -0.552019 -2.310602 0.000000000000000e+00 1634890835
1.036464 -0.318184 -2.296277 0.000000000000000e+00 1634890835
0.984327 -0.377180 -2.301643 0.000000000000000e+00 1634890835
0.876408 -0.489036 -2.312872 0.000000000000000e+00 1634890835
0.453065 -0.299217 -1.280218 0.000000000000000e+00 1936876886
1.003082 -0.306471 -2.271453 0.000000000000000e+00 1634890835
0.973821 -0.372352 -2.329388 0.000000000000000e+00 1634890835
0.852643 -0.476697 -2.306600 0.000000000000000e+00 1634890835
0.430209 -0.285203 -1.247714 0.000000000000000e+00 1936876886
0.985161 -0.299505 -2.280911 0.000000000000000e+00 1634890835
0.938626 -0.358092 -2.297584 0.000000000000000e+00 1634890835
0.831681 -0.465913 -2.307331 0.000000000000000e+00 1634890835
0.434957 -0.289493 -1.295411 0.000000000000000e+00 1936876886
0.978257 -0.295868 -2.316500 0.000000000000000e+00 1634890835
0.900683 -0.342814 -2.256968 0.000000000000000e+00 1634890835
0.456180 -0.256091 -1.298486 0.000000000000000e+00 1936876886
0.342827 -0.229116 -1.049032 0.000000000000000e+00 1953264973
0.939152 -0.282509 -2.275332 0.000000000000000e+00 1634890835
0.907284 -0.344486 -2.328302 0.000000000000000e+00 1634890835
0.426374 -0.239883 -1.245806 0.000000000000000e+00 1936876886
0.322961 -0.216771 -1.015912 0.000000000000000e+00 1953264973
0.484708 -0.144984 -1.201923 0.000000000000000e+00 1936876886
0.860350 -0.325836 -2.261988 0.000000000000000e+00 1634890835
0.382436 -0.215656 -1.147627 0.000000000000000e+00 1953264973
0.291244 -0.196365 -0.942346 0.000000000000000e+00 1953264973
0.487149 -0.144853 -1.236840 0.000000000000000e+00 1936876886
0.855955 -0.323309 -2.306591 0.000000000000000e+00 1634890835
0.354368 -0.200306 -1.092729 0.000000000000000e+00 1953264973
0.250806 -0.169899 -0.835229 0.000000000000000e+00 1953264973
0.486918 -0.143890 -1.266306 0.000000000000000e+00 1936876886
0.835235 -0.314605 -2.307961 0.000000000000000e+00 1634890835
0.306385 -0.173618 -0.971387 0.000000000000000e+00 1953264973
0.257894 -0.175566 -0.884525 0.000000000000000e+00 1953264973
