# .PCD v0.7 - Point Cloud Data file format
VERSION 0.7
FIELDS x y z rgb label
SIZE 4 4 4 4 4
TYPE F F F F U
COUNT 1 1 1 1 1
WIDTH 530
HEIGHT 1
VIEWPOINT 0 0 0 1 0 0 0
POINTS 530
DATA ascii
33.850204 -18.831791 10.337932 0.000000000000000e+00 1954047316
30.819229 -11.449420 -2.238057 0.000000000000000e+00 1851878480
31.909512 -13.342941 -2.244004 0.000000000000000e+00 1851878480
26.912699 -9.990538 -2.199080 0.000000000000000e+00 1851878480
26.586891 -11.113379 -2.118838 0.000000000000000e+00 1851878480
25.983141 -13.416793 -1.924037 0.000000000000000e+00 1851878480
25.349930 -14.409780 -1.782833 0.000000000000000e+00 1851878480
24.250591 -8.995468 -2.202297 0.000000000000000e+00 1851878480
24.324068 -10.163942 -2.166703 0.000000000000000e+00 1851878480
23.541702 -12.159880 -1.978816 0.000000000000000e+00 1851878480
22.984877 -13.073137 -1.854545 0.000000000000000e+00 1851878480
22.092497 -8.188707 -2.207647 0.000000000000000e+00 1851878480
22.168463 -9.259964 -2.182927 0.000000000000000e+00 1851878480
21.682032 -11.202800 -2.039778 0.000000000000000e+00 1851878480
21.268665 -12.104163 -1.936693 0.000000000000000e+00 1851878480
20.376266 -7.546821 -2.222086 0.000000000000000e+00 1851878480
20.375608 -8.508067 -2.198053 0.000000000000000e+00 1851878480
20.361811 -10.523921 -2.119953 0.000000000000000e+00 1851878480
19.925093 -11.346257 -2.021394 0.000000000000000e+00 1851878480
18.913099 -6.999551 -2.235371 0.000000000000000e+00 1851878480
18.869459 -7.876380 -2.213355 0.000000000000000e+00 1851878480
19.049126 -9.848537 -2.174833 0.000000000000000e+00 1851878480
18.851065 -10.741025 -2.108700 0.000000000000000e+00 1851878480
17.577656 -6.500332 -2.238436 0.000000000000000e+00 1851878480
17.600479 -7.344093 -2.230620 0.000000000000000e+00 1851878480
17.712400 -9.160297 -2.200675 0.000000000000000e+00 1851878480
17.863821 -10.184570 -2.184641 0.000000000000000e+00 1851878480
16.396883 -6.059024 -2.238436 0.000000000000000e+00 1851878480
16.435665 -6.855631 -2.238411 0.000000000000000e+00 1851878480
16.507660 -8.539915 -2.217665 0.000000000000000e+00 1851878480
16.641703 -9.493473 -2.209203 0.000000000000000e+00 1851878480
15.362920 -5.672591 -2.238437 0.000000000000000e+00 1851878480
15.366794 -6.407504 -2.238437 0.000000000000000e+00 1851878480
15.446286 -7.993335 -2.231385 0.000000000000000e+00 1851878480
15.541103 -8.870922 -2.225995 0.000000000000000e+00 1851878480
14.449843 -5.331328 -2.238437 0.000000000000000e+00 1851878480
14.426382 -6.013240 -2.238437 0.000000000000000e+00 1851878480
14.453067 -7.481701 -2.234514 0.000000000000000e+00 1851878480
14.501162 -8.282279 -2.229430 0.000000000000000e+00 1851878480
13.637501 -5.027727 -2.238437 0.000000000000000e+00 1851878480
13.592599 -5.663685 -2.238437 0.000000000000000e+00 1851878480
13.577047 -7.030443 -2.237159 0.000000000000000e+00 1851878480
13.587808 -7.765283 -2.232191 0.000000000000000e+00 1851878480
12.909997 -4.755832 -2.238437 0.000000000000000e+00 1851878480
12.848184 -5.351588 -2.238437 0.000000000000000e+00 1851878480
12.793023 -6.626552 -2.238437 0.000000000000000e+00 1851878480
12.784118 -7.310384 -2.235267 0.000000000000000e+00 1851878480
12.254601 -4.510884 -2.238437 0.000000000000000e+00 1851878480
12.179385 -5.071206 -2.238437 0.000000000000000e+00 1851878480
12.086504 -6.262573 -2.238437 0.000000000000000e+00 1851878480
12.068110 -6.905123 -2.238006 0.000000000000000e+00 1851878480
11.661038 -4.289051 -2.238437 0.000000000000000e+00 1851878480
11.575181 -4.817895 -2.238437 0.000000000000000e+00 1851878480
11.452111 -5.935748 -2.238436 0.000000000000000e+00 1851878480
11.415780 -6.535824 -2.238437 0.000000000000000e+00 1851878480
11.120864 -4.087168 -2.238437 0.000000000000000e+00 1851878480
11.026555 -4.587883 -2.238437 0.000000000000000e+00 1851878480
10.879246 -5.640616 -2.238437 0.000000000000000e+00 1851878480
10.826596 -6.202269 -2.238437 0.000000000000000e+00 1851878480
10.627123 -3.902642 -2.238437 0.000000000000000e+00 1851878480
10.526109 -4.378075 -2.238437 0.000000000000000e+00 1851878480
10.359290 -5.372747 -2.238438 0.000000000000000e+00 1851878480
10.293447 -5.900439 -2.238437 0.000000000000000e+00 1851878480
10.173991 -3.733298 -2.238438 0.000000000000000e+00 1851878480
10.067677 -4.185879 -2.238437 0.000000000000000e+00 1851878480
9.885146 -5.128488 -2.238437 0.000000000000000e+00 1851878480
9.808614 -5.625964 -2.238437 0.000000000000000e+00 1851878480
9.756621 -3.577316 -2.238437 0.000000000000000e+00 1851878480
9.646151 -4.009161 -2.238437 0.000000000000000e+00 1851878480
9.450985 -4.904819 -2.238438 0.000000000000000e+00 1851878480
9.365773 -5.375264 -2.238438 0.000000000000000e+00 1851878480
9.370877 -3.433158 -2.238438 0.000000000000000e+00 1851878480
9.257169 -3.846084 -2.238437 0.000000000000000e+00 1851878480
9.051874 -4.699209 -2.238437 0.000000000000000e+00 1851878480
8.959615 -5.145332 -2.238438 0.000000000000000e+00 1851878480
9.013246 -3.299503 -2.238437 0.000000000000000e+00 1851878480
8.897065 -3.695112 -2.238437 0.000000000000000e+00 1851878480
8.683688 -4.509528 -2.238437 0.000000000000000e+00 1851878480
8.585712 -4.933657 -2.238437 0.000000000000000e+00 1851878480
8.680711 -3.175235 -2.238437 0.000000000000000e+00 1851878480
8.562678 -3.554926 -2.238437 0.000000000000000e+00 1851878480
8.342909 -4.333970 -2.238437 0.000000000000000e+00 1851878480
8.240314 -4.738126 -2.238437 0.000000000000000e+00 1851878480
8.370683 -3.059376 -2.238437 0.000000000000000e+00 1851878480
8.251309 -3.424388 -2.238437 0.000000000000000e+00 1851878480
8.026539 -4.170989 -2.238438 0.000000000000000e+00 1851878480
7.920233 -4.556929 -2.238438 0.000000000000000e+00 1851878480
8.080900 -2.951082 -2.238437 0.000000000000000e+00 1851878480
7.960611 -3.302519 -2.238437 0.000000000000000e+00 1851878480
7.731998 -4.019246 -2.238437 0.000000000000000e+00 1851878480
7.622731 -4.388511 -2.238438 0.000000000000000e+00 1851878480
7.809417 -2.849624 -2.238437 0.000000000000000e+00 1851878480
7.688565 -3.188468 -2.238437 0.000000000000000e+00 1851878480
7.457070 -3.877615 -2.238437 0.000000000000000e+00 1851878480
7.345470 -4.231553 -2.238438 0.000000000000000e+00 1851878480
7.554510 -2.754368 -2.238437 0.000000000000000e+00 1851878480
7.433391 -3.081489 -2.238437 0.000000000000000e+00 1851878480
7.199821 -3.745090 -2.238438 0.000000000000000e+00 1851878480
7.086405 -4.084903 -2.238437 0.000000000000000e+00 1851878480
7.314676 -2.664743 -2.238437 0.000000000000000e+00 1851878480
7.193527 -2.980932 -2.238437 0.000000000000000e+00 1851878480
6.958558 -3.620798 -2.238437 0.000000000000000e+00 1851878480
6.843771 -3.947546 -2.238437 0.000000000000000e+00 1851878480
7.088570 -2.580255 -2.238437 0.000000000000000e+00 1851878480
6.967602 -2.886217 -2.238437 0.000000000000000e+00 1851878480
6.731793 -3.503978 -2.238437 0.000000000000000e+00 1851878480
6.616005 -3.818612 -2.238438 0.000000000000000e+00 1851878480
6.875038 -2.500459 -2.238437 0.000000000000000e+00 1851878480
6.754412 -2.796839 -2.238437 0.000000000000000e+00 1851878480
6.518245 -3.393964 -2.238437 0.000000000000000e+00 1851878480
6.401760 -3.697335 -2.238438 0.000000000000000e+00 1851878480
6.673018 -2.424968 -2.238437 0.000000000000000e+00 1851878480
6.552876 -2.712350 -2.238437 0.000000000000000e+00 1851878480
6.316744 -3.290163 -2.238437 0.000000000000000e+00 1851878480
6.199833 -3.583027 -2.238438 0.000000000000000e+00 1851878480
6.481577 -2.353431 -2.238437 0.000000000000000e+00 1851878480
6.362036 -2.632344 -2.238437 0.000000000000000e+00 1851878480
6.126278 -3.192042 -2.238437 0.000000000000000e+00 1851878480
6.009158 -3.475095 -2.238437 0.000000000000000e+00 1851878480
6.299881 -2.285538 -2.238437 0.000000000000000e+00 1851878480
6.181036 -2.556465 -2.238437 0.000000000000000e+00 1851878480
5.945934 -3.099137 -2.238438 0.000000000000000e+00 1851878480
5.828794 -3.372997 -2.238437 0.000000000000000e+00 1851878480
6.127175 -2.221004 -2.238437 0.000000000000000e+00 1851878480
6.009106 -2.484384 -2.238437 0.000000000000000e+00 1851878480
5.774898 -3.011025 -2.238438 0.000000000000000e+00 1851878480
5.657898 -3.276261 -2.238438 0.000000000000000e+00 1851878480
5.962793 -2.159581 -2.238438 0.000000000000000e+00 1851878480
5.845564 -2.415825 -2.238437 0.000000000000000e+00 1851878480
5.612449 -2.927339 -2.238438 0.000000000000000e+00 1851878480
5.495726 -3.184460 -2.238438 0.000000000000000e+00 1851878480
5.806118 -2.101040 -2.238437 0.000000000000000e+00 1851878480
5.689784 -2.350519 -2.238437 0.000000000000000e+00 1851878480
5.457928 -2.847737 -2.238437 0.000000000000000e+00 1851878480
5.341595 -3.097216 -2.238438 0.000000000000000e+00 1851878480
5.656604 -2.045173 -2.238437 0.000000000000000e+00 1851878480
5.541208 -2.288232 -2.238438 0.000000000000000e+00 1851878480
5.310750 -2.771918 -2.238438 0.000000000000000e+00 1851878480
5.194903 -3.014181 -2.238438 0.000000000000000e+00 1851878480
5.513749 -1.991797 -2.238437 0.000000000000000e+00 1851878480
5.399323 -2.228749 -2.238438 0.000000000000000e+00 1851878480
5.170379 -2.699605 -2.238438 0.000000000000000e+00 1851878480
5.055099 -2.935050 -2.238438 0.000000000000000e+00 1851878480
5.377092 -1.940737 -2.238437 0.000000000000000e+00 1851878480
5.263663 -2.171881 -2.238438 0.000000000000000e+00 1851878480
5.036330 -2.630551 -2.238437 0.000000000000000e+00 1851878480
4.921685 -2.859534 -2.238437 0.000000000000000e+00 1851878480
5.246229 -1.891842 -2.238438 0.000000000000000e+00 1851878480
5.133817 -2.117446 -2.238437 0.000000000000000e+00 1851878480
4.908173 -2.564530 -2.238437 0.000000000000000e+00 1851878480
4.794224 -2.787388 -2.238437 0.000000000000000e+00 1851878480
5.120776 -1.844970 -2.238438 0.000000000000000e+00 1851878480
5.009398 -2.065289 -2.238437 0.000000000000000e+00 1851878480
4.785507 -2.501340 -2.238437 0.000000000000000e+00 1851878480
4.672302 -2.718376 -2.238437 0.000000000000000e+00 1851878480
5.000388 -1.799991 -2.238437 0.000000000000000e+00 1851878480
4.890055 -2.015258 -2.238437 0.000000000000000e+00 1851878480
4.667967 -2.440787 -2.238437 0.000000000000000e+00 1851878480
4.555543 -2.652292 -2.238437 0.000000000000000e+00 1851878480
4.884748 -1.756789 -2.238437 0.000000000000000e+00 1851878480
4.775465 -1.967221 -2.238437 0.000000000000000e+00 1851878480
4.555223 -2.382709 -2.238437 0.000000000000000e+00 1851878480
4.443615 -2.588939 -2.238437 0.000000000000000e+00 1851878480
4.773564 -1.715247 -2.238437 0.000000000000000e+00 1851878480
4.665334 -1.921053 -2.238437 0.000000000000000e+00 1851878480
4.446965 -2.326941 -2.238437 0.000000000000000e+00 1851878480
4.336200 -2.528142 -2.238437 0.000000000000000e+00 1851878480
4.666570 -1.675274 -2.238437 0.000000000000000e+00 1851878480
4.559395 -1.876642 -2.238437 0.000000000000000e+00 1851878480
4.342923 -2.273345 -2.238437 0.000000000000000e+00 1851878480
4.233022 -2.469745 -2.238437 0.000000000000000e+00 1851878480
4.563517 -1.636774 -2.238437 0.000000000000000e+00 1851878480
4.457395 -1.833883 -2.238437 0.000000000000000e+00 1851878480
4.242837 -2.221787 -2.238437 0.000000000000000e+00 1851878480
4.133817 -2.413597 -2.238437 0.000000000000000e+00 1851878480
4.464176 -1.599664 -2.238438 0.000000000000000e+00 1851878480
4.359103 -1.792678 -2.238437 0.000000000000000e+00 1851878480
4.146469 -2.172143 -2.238437 0.000000000000000e+00 1851878480
4.038343 -2.359562 -2.238437 0.000000000000000e+00 1851878480
4.368336 -1.563858 -2.238437 0.000000000000000e+00 1851878480
4.264307 -1.752938 -2.238437 0.000000000000000e+00 1851878480
4.053601 -2.124303 -2.238437 0.000000000000000e+00 1851878480
3.946380 -2.307512 -2.238437 0.000000000000000e+00 1851878480
4.275805 -1.529293 -2.238437 0.000000000000000e+00 1851878480
4.172813 -1.714583 -2.238437 0.000000000000000e+00 1851878480
3.964035 -2.078166 -2.238437 0.000000000000000e+00 1851878480
3.857725 -2.257338 -2.238437 0.000000000000000e+00 1851878480
4.186400 -1.495892 -2.238437 0.000000000000000e+00 1851878480
4.084436 -1.677535 -2.238437 0.000000000000000e+00 1851878480
3.877584 -2.033632 -2.238437 0.000000000000000e+00 1851878480
3.772189 -2.208928 -2.238437 0.000000000000000e+00 1851878480
4.099953 -1.463600 -2.238437 0.000000000000000e+00 1851878480
3.999008 -1.641725 -2.238437 0.000000000000000e+00 1851878480
3.794075 -1.990615 -2.238437 0.000000000000000e+00 1851878480
3.689598 -2.162189 -2.238438 0.000000000000000e+00 1851878480
4.088593 -1.458133 -2.278725 0.000000000000000e+00 1634890835
3.916371 -1.607083 -2.238437 0.000000000000000e+00 1851878480
3.713347 -1.949030 -2.238437 0.000000000000000e+00 1851878480
3.609789 -2.117021 -2.238437 0.000000000000000e+00 1851878480
4.006145 -1.427336 -2.278724 0.000000000000000e+00 1634890835
3.836378 -1.573550 -2.238437 0.000000000000000e+00 1851878480
3.635253 -1.908803 -2.238437 0.000000000000000e+00 1851878480
3.532611 -2.073344 -2.238437 0.000000000000000e+00 1851878480
3.926260 -1.397495 -2.278725 0.000000000000000e+00 1634890835
3.758893 -1.541069 -2.238437 0.000000000000000e+00 1851878480
3.559653 -1.869856 -2.238437 0.000000000000000e+00 1851878480
3.457924 -2.031077 -2.238437 0.000000000000000e+00 1851878480
3.848814 -1.368567 -2.278725 0.000000000000000e+00 1634890835
3.683791 -1.509587 -2.238437 0.000000000000000e+00 1851878480
3.486420 -1.832134 -2.238437 0.000000000000000e+00 1851878480
3.385602 -1.990149 -2.238438 0.000000000000000e+00 1851878480
3.773682 -1.340505 -2.278725 0.000000000000000e+00 1634890835
3.610949 -1.479054 -2.238437 0.000000000000000e+00 1851878480
3.415432 -1.795568 -2.238437 0.000000000000000e+00 1851878480
3.315518 -1.950489 -2.238437 0.000000000000000e+00 1851878480
3.700754 -1.313265 -2.278725 0.000000000000000e+00 1634890835
3.346578 -1.760101 -2.238437 0.000000000000000e+00 1851878480
3.247562 -1.912035 -2.238437 0.000000000000000e+00 1851878480
3.629920 -1.286809 -2.278725 0.000000000000000e+00 1634890835
3.534101 -1.446216 -2.278725 0.000000000000000e+00 1634890835
3.279752 -1.725677 -2.238437 0.000000000000000e+00 1851878480
3.181629 -1.874723 -2.238437 0.000000000000000e+00 1851878480
3.561086 -1.261099 -2.278725 0.000000000000000e+00 1634890835
3.466208 -1.417758 -2.278725 0.000000000000000e+00 1634890835
3.214856 -1.692248 -2.238437 0.000000000000000e+00 1851878480
3.117618 -1.838501 -2.238437 0.000000000000000e+00 1851878480
3.494159 -1.236101 -2.278725 0.000000000000000e+00 1634890835
3.400209 -1.390090 -2.278725 0.000000000000000e+00 1634890835
3.151800 -1.659766 -2.238437 0.000000000000000e+00 1851878480
3.055438 -1.803315 -2.238437 0.000000000000000e+00 1851878480
3.429047 -1.211784 -2.278725 0.000000000000000e+00 1634890835
3.336013 -1.363181 -2.278724 0.000000000000000e+00 1634890835
3.090494 -1.628187 -2.238437 0.000000000000000e+00 1851878480
2.995003 -1.769117 -2.238438 0.000000000000000e+00 1851878480
3.365671 -1.188115 -2.278725 0.000000000000000e+00 1634890835
3.273540 -1.336995 -2.278725 0.000000000000000e+00 1634890835
3.030860 -1.597470 -2.238437 0.000000000000000e+00 1851878480
2.936227 -1.735859 -2.238437 0.000000000000000e+00 1851878480
3.303953 -1.165063 -2.278725 0.000000000000000e+00 1634890835
3.212710 -1.311495 -2.278725 0.000000000000000e+00 1634890835
2.972819 -1.567572 -2.238437 0.000000000000000e+00 1851878480
2.879037 -1.703498 -2.238437 0.000000000000000e+00 1851878480
3.243820 -1.142607 -2.278725 0.000000000000000e+00 1634890835
3.153453 -1.286657 -2.278725 0.000000000000000e+00 1634890835
2.916301 -1.538460 -2.238437 0.000000000000000e+00 1851878480
2.823360 -1.671994 -2.238437 0.000000000000000e+00 1851878480
3.185203 -1.120716 -2.278725 0.000000000000000e+00 1634890835
3.095700 -1.262448 -2.278725 0.000000000000000e+00 1634890835
2.861238 -1.510096 -2.238437 0.000000000000000e+00 1851878480
2.769129 -1.641310 -2.238437 0.000000000000000e+00 1851878480
3.128039 -1.099368 -2.278725 0.000000000000000e+00 1634890835
3.039386 -1.238844 -2.278725 0.000000000000000e+00 1634890835
2.807567 -1.482452 -2.238438 0.000000000000000e+00 1851878480
2.716282 -1.611408 -2.238438 0.000000000000000e+00 1851878480
3.072263 -1.078539 -2.278725 0.000000000000000e+00 1634890835
2.984449 -1.215815 -2.278725 0.000000000000000e+00 1634890835
2.755226 -1.455490 -2.238437 0.000000000000000e+00 1851878480
0.840392 -0.499001 -0.705944 0.000000000000000e+00 1886740808
3.017819 -1.058208 -2.278725 0.000000000000000e+00 1634890835
2.930829 -1.193339 -2.278725 0.000000000000000e+00 1634890835
2.752828 -1.454910 -2.278725 0.000000000000000e+00 1634890835
0.824541 -0.490031 -0.705944 0.000000000000000e+00 1886740808
2.964653 -1.038355 -2.278725 0.000000000000000e+00 1634890835
2.878475 -1.171396 -2.278725 0.000000000000000e+00 1634890835
0.837100 -0.442630 -0.705944 0.000000000000000e+00 1886740808
0.809071 -0.481279 -0.705944 0.000000000000000e+00 1886740808
2.912713 -1.018961 -2.278725 0.000000000000000e+00 1634890835
2.827336 -1.149958 -2.278725 0.000000000000000e+00 1634890835
0.821749 -0.434723 -0.705944 0.000000000000000e+00 1886740808
0.793967 -0.472734 -0.705944 0.000000000000000e+00 1886740808
2.861950 -1.000005 -2.278725 0.000000000000000e+00 1634890835
2.777360 -1.129011 -2.278725 0.000000000000000e+00 1634890835
0.806752 -0.426999 -0.705944 0.000000000000000e+00 1886740808
0.779214 -0.464387 -0.705944 0.000000000000000e+00 1886740808
2.812315 -0.981472 -2.278725 0.000000000000000e+00 1634890835
2.728502 -1.108532 -2.278725 0.000000000000000e+00 1634890835
0.792095 -0.419449 -0.705944 0.000000000000000e+00 1886740808
0.764797 -0.456231 -0.705944 0.000000000000000e+00 1886740808
2.763764 -0.963342 -2.278725 0.000000000000000e+00 1634890835
0.830479 -0.337216 -0.705944 0.000000000000000e+00 1886740808
0.777762 -0.412066 -0.705944 0.000000000000000e+00 1886740808
0.750703 -0.448257 -0.705944 0.000000000000000e+00 1886740808
0.841490 -0.292946 -0.705944 0.000000000000000e+00 1886740808
0.815995 -0.331144 -0.705944 0.000000000000000e+00 1886740808
0.763744 -0.404846 -0.705944 0.000000000000000e+00 1886740808
0.744294 -0.444867 -0.713008 0.000000000000000e+00 1886740808
0.827083 -0.287567 -0.705944 0.000000000000000e+00 1886740808
0.801818 -0.325202 -0.705944 0.000000000000000e+00 1886740808
0.750026 -0.397780 -0.705944 0.000000000000000e+00 1886740808
0.744294 -0.445310 -0.726300 0.000000000000000e+00 1886740808
0.812975 -0.282300 -0.705944 0.000000000000000e+00 1886740808
0.787937 -0.319383 -0.705944 0.000000000000000e+00 1886740808
0.744294 -0.394947 -0.713320 0.000000000000000e+00 1886740808
0.744294 -0.445761 -0.739799 0.000000000000000e+00 1886740808
0.799155 -0.277140 -0.705944 0.000000000000000e+00 1886740808
0.774339 -0.313685 -0.705944 0.000000000000000e+00 1886740808
0.744294 -0.395158 -0.726287 0.000000000000000e+00 1886740808
0.744294 -0.446219 -0.753512 0.000000000000000e+00 1886740808
0.785612 -0.272084 -0.705944 0.000000000000000e+00 1886740808
0.761016 -0.308100 -0.705944 0.000000000000000e+00 1886740808
0.744294 -0.395372 -0.739456 0.000000000000000e+00 1886740808
0.744294 -0.446685 -0.767446 0.000000000000000e+00 1886740808
0.772336 -0.267127 -0.705944 0.000000000000000e+00 1886740808
0.747956 -0.302626 -0.705944 0.000000000000000e+00 1886740808
0.744294 -0.395589 -0.752832 0.000000000000000e+00 1886740808
0.744294 -0.447157 -0.781609 0.000000000000000e+00 1886740808
0.759317 -0.262267 -0.705944 0.000000000000000e+00 1886740808
0.744294 -0.300956 -0.714724 0.000000000000000e+00 1886740808
0.744294 -0.395810 -0.766425 0.000000000000000e+00 1886740808
0.744294 -0.447639 -0.796008 0.000000000000000e+00 1886740808
0.746546 -0.257499 -0.705944 0.000000000000000e+00 1886740808
0.744294 -0.300765 -0.727148 0.000000000000000e+00 1886740808
0.744294 -0.396034 -0.780240 0.000000000000000e+00 1886740808
2.092191 -1.259677 -2.278726 0.000000000000000e+00 1634890835
0.744294 -0.256361 -0.715830 0.000000000000000e+00 1886740808
0.744294 -0.300570 -0.739766 0.000000000000000e+00 1886740808
0.744294 -0.396262 -0.794286 0.000000000000000e+00 1886740808
2.054432 -1.238318 -2.278725 0.000000000000000e+00 1634890835
0.744294 -0.255996 -0.728032 0.000000000000000e+00 1886740808
0.744294 -0.300373 -0.752585 0.000000000000000e+00 1886740808
2.097577 -1.117404 -2.278725 0.000000000000000e+00 1634890835
2.017380 -1.217360 -2.278725 0.000000000000000e+00 1634890835
0.744294 -0.255623 -0.740423 0.000000000000000e+00 1886740808
0.744294 -0.300172 -0.765610 0.000000000000000e+00 1886740808
2.060543 -1.098330 -2.278725 0.000000000000000e+00 1634890835
0.796275 -0.481053 -0.915943 0.000000000000000e+00 1886740808
0.744294 -0.255246 -0.753012 0.000000000000000e+00 1886740808
0.744294 -0.299969 -0.778849 0.000000000000000e+00 1886740808
2.024176 -1.079598 -2.278725 0.000000000000000e+00 1634890835
0.784636 -0.474577 -0.919124 0.000000000000000e+00 1886740808
0.744294 -0.254862 -0.765805 0.000000000000000e+00 1886740808
0.744294 -0.299761 -0.792310 0.000000000000000e+00 1886740808
1.988452 -1.061198 -2.278725 0.000000000000000e+00 1634890835
0.775674 -0.469714 -0.925310 0.000000000000000e+00 1886740808
0.744294 -0.254473 -0.778809 0.000000000000000e+00 1886740808
2.104271 -0.846890 -2.278725 0.000000000000000e+00 1634890835
0.797389 -0.425818 -0.930214 0.000000000000000e+00 1886740808
0.768824 -0.466130 -0.933990 0.000000000000000e+00 1886740808
0.744294 -0.254076 -0.792031 0.000000000000000e+00 1886740808
2.068529 -0.831911 -2.278725 0.000000000000000e+00 1634890835
0.785519 -0.419748 -0.932845 0.000000000000000e+00 1886740808
0.764551 -0.464112 -0.945880 0.000000000000000e+00 1886740808
0.744294 -0.253673 -0.805477 0.000000000000000e+00 1886740808
2.033382 -0.817180 -2.278725 0.000000000000000e+00 1634890835
0.776432 -0.415161 -0.938649 0.000000000000000e+00 1886740808
1.808581 -1.099258 -2.278725 0.000000000000000e+00 1634890835
2.070471 -0.704526 -2.278725 0.000000000000000e+00 1634890835
1.998812 -0.802691 -2.278725 0.000000000000000e+00 1634890835
0.769418 -0.411685 -0.946932 0.000000000000000e+00 1886740808
1.775829 -1.080734 -2.278725 0.000000000000000e+00 1634890835
2.035871 -0.691612 -2.278725 0.000000000000000e+00 1634890835
1.964799 -0.788435 -2.278726 0.000000000000000e+00 1634890835
0.764806 -0.409492 -0.958245 0.000000000000000e+00 1886740808
0.749057 -0.456456 -0.978943 0.000000000000000e+00 1886740808
2.001817 -0.678901 -2.278726 0.000000000000000e+00 1634890835
1.931322 -0.774405 -2.278725 0.000000000000000e+00 1634890835
0.767172 -0.411042 -0.978591 0.000000000000000e+00 1886740808
1.711906 -1.044581 -2.278725 0.000000000000000e+00 1634890835
1.968292 -0.666388 -2.278726 0.000000000000000e+00 1634890835
0.797682 -0.319597 -0.957506 0.000000000000000e+00 1886740808
1.754622 -0.940767 -2.278725 0.000000000000000e+00 1634890835
1.680699 -1.026931 -2.278725 0.000000000000000e+00 1634890835
1.935279 -0.654067 -2.278725 0.000000000000000e+00 1634890835
0.785811 -0.314588 -0.959662 0.000000000000000e+00 1886740808
0.751063 -0.402982 -0.993125 0.000000000000000e+00 1886740808
1.649974 -1.009555 -2.278725 0.000000000000000e+00 1634890835
1.902761 -0.641932 -2.278726 0.000000000000000e+00 1634890835
0.776732 -0.310699 -0.965106 0.000000000000000e+00 1886740808
1.692477 -0.908758 -2.278725 0.000000000000000e+00 1634890835
1.619715 -0.992442 -2.278725 0.000000000000000e+00 1634890835
0.796758 -0.268312 -0.970530 0.000000000000000e+00 1886740808
0.769656 -0.307612 -0.973023 0.000000000000000e+00 1886740808
1.662096 -0.893113 -2.278725 0.000000000000000e+00 1634890835
1.589906 -0.975583 -2.278725 0.000000000000000e+00 1634890835
0.785169 -0.263918 -0.972832 0.000000000000000e+00 1886740808
0.764880 -0.305443 -0.983926 0.000000000000000e+00 1886740808
1.632160 -0.877694 -2.278726 0.000000000000000e+00 1634890835
1.560532 -0.958972 -2.278725 0.000000000000000e+00 1634890835
0.776223 -0.260416 -0.978304 0.000000000000000e+00 1886740808
0.765619 -0.305472 -1.002184 0.000000000000000e+00 1886740808
1.602652 -0.862497 -2.278726 0.000000000000000e+00 1634890835
1.531580 -0.942599 -2.278725 0.000000000000000e+00 1634890835
0.769283 -0.257587 -0.986298 0.000000000000000e+00 1886740808
1.710671 -0.681928 -2.278725 0.000000000000000e+00 1634890835
1.573559 -0.847513 -2.278725 0.000000000000000e+00 1634890835
1.503036 -0.926458 -2.278725 0.000000000000000e+00 1634890835
0.764662 -0.255533 -0.997357 0.000000000000000e+00 1886740808
1.680924 -0.669462 -2.278725 0.000000000000000e+00 1634890835
1.544869 -0.832737 -2.278725 0.000000000000000e+00 1634890835
1.474888 -0.910540 -2.278726 0.000000000000000e+00 1634890835
0.766227 -0.255535 -1.016774 0.000000000000000e+00 1886740808
0.744046 -0.296056 -1.026580 0.000000000000000e+00 1886740808
1.516567 -0.818161 -2.278725 0.000000000000000e+00 1634890835
1.447123 -0.894838 -2.278726 0.000000000000000e+00 1634890835
1.687757 -0.561695 -2.278725 0.000000000000000e+00 1634890835
1.622623 -0.645028 -2.278725 0.000000000000000e+00 1634890835
1.488641 -0.803778 -2.278725 0.000000000000000e+00 1634890835
1.419727 -0.879346 -2.278726 0.000000000000000e+00 1634890835
0.752068 -0.249761 -1.033204 0.000000000000000e+00 1886740808
1.594046 -0.633052 -2.278725 0.000000000000000e+00 1634890835
1.461081 -0.789587 -2.278725 0.000000000000000e+00 1634890835
1.392691 -0.864059 -2.278725 0.000000000000000e+00 1634890835
1.629982 -0.540137 -2.278726 0.000000000000000e+00 1634890835
1.565837 -0.621228 -2.278726 0.000000000000000e+00 1634890835
1.433877 -0.775575 -2.278725 0.000000000000000e+00 1634890835
1.366004 -0.848967 -2.278725 0.000000000000000e+00 1634890835
1.601641 -0.529563 -2.278726 0.000000000000000e+00 1634890835
1.537981 -0.609555 -2.278725 0.000000000000000e+00 1634890835
1.407014 -0.761740 -2.278725 0.000000000000000e+00 1634890835
1.339652 -0.834067 -2.278726 0.000000000000000e+00 1634890835
1.573651 -0.519120 -2.278725 0.000000000000000e+00 1634890835
1.510470 -0.598026 -2.278725 0.000000000000000e+00 1634890835
1.380484 -0.748076 -2.278726 0.000000000000000e+00 1634890835
1.313627 -0.819351 -2.278725 0.000000000000000e+00 1634890835
1.546003 -0.508802 -2.278726 0.000000000000000e+00 1634890835
1.483294 -0.586636 -2.278726 0.000000000000000e+00 1634890835
1.354276 -0.734580 -2.278726 0.000000000000000e+00 1634890835
1.287920 -0.804814 -2.278725 0.000000000000000e+00 1634890835
1.518685 -0.498609 -2.278726 0.000000000000000e+00 1634890835
1.456443 -0.575382 -2.278725 0.000000000000000e+00 1634890835
1.328381 -0.721244 -2.278726 0.000000000000000e+00 1634890835
1.262519 -0.790452 -2.278725 0.000000000000000e+00 1634890835
1.491688 -0.488535 -2.278726 0.000000000000000e+00 1634890835
1.429906 -0.564261 -2.278726 0.000000000000000e+00 1634890835
1.302790 -0.708063 -2.278725 0.000000000000000e+00 1634890835
1.237416 -0.776258 -2.278726 0.000000000000000e+00 1634890835
1.464999 -0.478578 -2.278725 0.000000000000000e+00 1634890835
1.403673 -0.553268 -2.278726 0.000000000000000e+00 1634890835
1.277492 -0.695035 -2.278725 0.000000000000000e+00 1634890835
1.212600 -0.762227 -2.278725 0.000000000000000e+00 1634890835
1.438615 -0.468734 -2.278726 0.000000000000000e+00 1634890835
1.377736 -0.542399 -2.278726 0.000000000000000e+00 1634890835
1.252479 -0.682153 -2.278725 0.000000000000000e+00 1634890835
1.188065 -0.748353 -2.278725 0.000000000000000e+00 1634890835
1.412522 -0.458998 -2.278726 0.000000000000000e+00 1634890835
1.352087 -0.531649 -2.278725 0.000000000000000e+00 1634890835
1.227742 -0.669413 -2.278725 0.000000000000000e+00 1634890835
1.163800 -0.734633 -2.278725 0.000000000000000e+00 1634890835
1.386712 -0.449370 -2.278725 0.000000000000000e+00 1634890835
1.326716 -0.521017 -2.278725 0.000000000000000e+00 1634890835
1.203274 -0.656813 -2.278726 0.000000000000000e+00 1634890835
1.139798 -0.721064 -2.278725 0.000000000000000e+00 1634890835
1.361180 -0.439844 -2.278726 0.000000000000000e+00 1634890835
1.301616 -0.510497 -2.278726 0.000000000000000e+00 1634890835
1.179066 -0.644345 -2.278726 0.000000000000000e+00 1634890835
1.116052 -0.707638 -2.278726 0.000000000000000e+00 1634890835
1.335914 -0.430417 -2.278726 0.000000000000000e+00 1634890835
1.276778 -0.500088 -2.278725 0.000000000000000e+00 1634890835
1.155109 -0.632008 -2.278726 0.000000000000000e+00 1634890835
1.092553 -0.694350 -2.278726 0.000000000000000e+00 1634890835
1.310909 -0.421088 -2.278726 0.000000000000000e+00 1634890835
1.252195 -0.489786 -2.278726 0.000000000000000e+00 1634890835
1.131397 -0.619796 -2.278725 0.000000000000000e+00 1634890835
1.069292 -0.681200 -2.278726 0.000000000000000e+00 1634890835
1.286155 -0.411854 -2.278725 0.000000000000000e+00 1634890835
1.227859 -0.479588 -2.278725 0.000000000000000e+00 1634890835
1.107923 -0.607707 -2.278726 0.000000000000000e+00 1634890835
1.046265 -0.668181 -2.278726 0.000000000000000e+00 1634890835
1.261647 -0.402710 -2.278726 0.000000000000000e+00 1634890835
1.203763 -0.469489 -2.278726 0.000000000000000e+00 1634890835
1.084679 -0.595737 -2.278726 0.000000000000000e+00 1634890835
1.023463 -0.655289 -2.278725 0.000000000000000e+00 1634890835
1.237375 -0.393656 -2.278725 0.000000000000000e+00 1634890835
1.179899 -0.459489 -2.278726 0.000000000000000e+00 1634890835
1.061658 -0.583882 -2.278726 0.000000000000000e+00 1634890835
1.000880 -0.642521 -2.278726 0.000000000000000e+00 1634890835
1.213336 -0.384687 -2.278725 0.000000000000000e+00 1634890835
1.156261 -0.449584 -2.278726 0.000000000000000e+00 1634890835
1.038854 -0.572138 -2.278725 0.000000000000000e+00 1634890835
0.978509 -0.629874 -2.278726 0.000000000000000e+00 1634890835
1.189520 -0.375802 -2.278726 0.000000000000000e+00 1634890835
1.132843 -0.439770 -2.278725 0.000000000000000e+00 1634890835
1.016260 -0.560501 -2.278725 0.000000000000000e+00 1634890835
0.956343 -0.617343 -2.278725 0.000000000000000e+00 1634890835
1.165920 -0.366999 -2.278726 0.000000000000000e+00 1634890835
1.109637 -0.430046 -2.278726 0.000000000000000e+00 1634890835
0.993868 -0.548970 -2.278726 0.000000000000000e+00 1634890835
0.934376 -0.604923 -2.278726 0.000000000000000e+00 1634890835
1.142532 -0.358274 -2.278726 0.000000000000000e+00 1634890835
1.086637 -0.420407 -2.278726 0.000000000000000e+00 1634890835
0.971675 -0.537541 -2.278726 0.000000000000000e+00 1634890835
0.912603 -0.592613 -2.278725 0.000000000000000e+00 1634890835
1.119349 -0.349625 -2.278726 0.000000000000000e+00 1634890835
1.063838 -0.410852 -2.278726 0.000000000000000e+00 1634890835
0.949674 -0.526211 -2.278726 0.000000000000000e+00 1634890835
0.891017 -0.580410 -2.278725 0.000000000000000e+00 1634890835
1.096363 -0.341051 -2.278726 0.000000000000000e+00 1634890835
1.041232 -0.401379 -2.278726 0.000000000000000e+00 1634890835
0.927858 -0.514976 -2.278726 0.000000000000000e+00 1634890835
0.869612 -0.568309 -2.278725 0.000000000000000e+00 1634890835
1.073571 -0.332549 -2.278726 0.000000000000000e+00 1634890835
1.018816 -0.391985 -2.278726 0.000000000000000e+00 1634890835
0.906221 -0.503834 -2.278726 0.000000000000000e+00 1634890835
0.848384 -0.556308 -2.278726 0.000000000000000e+00 1634890835
1.050965 -0.324117 -2.278726 0.000000000000000e+00 1634890835
0.996582 -0.382668 -2.278725 0.000000000000000e+00 1634890835
0.884761 -0.492781 -2.278726 0.000000000000000e+00 1634890835
0.827326 -0.544404 -2.278726 0.000000000000000e+00 1634890835
1.028542 -0.315752 -2.278726 0.000000000000000e+00 1634890835
0.974526 -0.373425 -2.278726 0.000000000000000e+00 1634890835
0.863469 -0.481816 -2.278726 0.000000000000000e+00 1634890835
0.451011 -0.297861 -1.274414 0.000000000000000e+00 1936876886
1.006294 -0.307453 -2.278726 0.000000000000000e+00 1634890835
0.952641 -0.364254 -2.278725 0.000000000000000e+00 1634890835
0.842340 -0.470936 -2.278726 0.000000000000000e+00 1634890835
0.433313 -0.287261 -1.256716 0.000000000000000e+00 1936876886
0.984217 -0.299218 -2.278726 0.000000000000000e+00 1634890835
0.930922 -0.355153 -2.278726 0.000000000000000e+00 1634890835
0.821370 -0.460137 -2.278726 0.000000000000000e+00 1634890835
0.421236 -0.280360 -1.254547 0.000000000000000e+00 1936876886
0.962304 -0.291044 -2.278725 0.000000000000000e+00 1634890835
0.909366 -0.346118 -2.278726 0.000000000000000e+00 1634890835
0.445942 -0.250344 -1.269345 0.000000000000000e+00 1936876886
0.335128 -0.223971 -1.025474 0.000000000000000e+00 1953264973
0.940553 -0.282931 -2.278726 0.000000000000000e+00 1634890835
0.887965 -0.337151 -2.278726 0.000000000000000e+00 1634890835
0.428906 -0.241307 -1.253205 0.000000000000000e+00 1936876886
0.306473 -0.205704 -0.964047 0.000000000000000e+00 1953264973
0.495093 -0.148090 -1.227675 0.000000000000000e+00 1936876886
0.866716 -0.328246 -2.278726 0.000000000000000e+00 1634890835
0.358555 -0.202189 -1.075964 0.000000000000000e+00 1953264973
0.281223 -0.189609 -0.909922 0.000000000000000e+00 1953264973
0.483539 -0.143780 -1.227675 0.000000000000000e+00 1936876886
0.845615 -0.319403 -2.278726 0.000000000000000e+00 1634890835
0.326695 -0.184664 -1.007397 0.000000000000000e+00 1953264973
0.258802 -0.175316 -0.861859 0.000000000000000e+00 1953264973
0.472064 -0.139500 -1.227675 0.000000000000000e+00 1936876886
0.824654 -0.310620 -2.278726 0.000000000000000e+00 1634890835
0.299055 -0.169464 -0.948146 0.000000000000000e+00 1953264973
0.238756 -0.162537 -0.818887 0.000000000000000e+00 1953264973
