# .PCD v0.7 - Point Cloud Data file format
VERSION 0.7
FIELDS x y z rgb label
SIZE 4 4 4 4 4
TYPE F F F F U
COUNT 1 1 1 1 1
WIDTH 534
HEIGHT 1
VIEWPOINT 0 0 0 1 0 0 0
POINTS 534
DATA ascii
35.933910 -18.352726 10.025626 0.000000000000000e+00 1954047316
35.094151 -19.548231 9.956465 0.000000000000000e+00 1954047316
30.065123 -11.169268 -2.183294 0.000000000000000e+00 1851878480
30.487967 -12.748523 -2.144035 0.000000000000000e+00 1851878480
28.304716 -14.611049 -1.813102 0.000000000000000e+00 1851878480
27.407871 -15.570408 -1.644127 0.000000000000000e+00 1851878480
26.794586 -9.946692 -2.189430 0.000000000000000e+00 1851878480
26.346041 -11.012704 -2.099643 0.000000000000000e+00 1851878480
25.402647 -13.117046 -1.881052 0.000000000000000e+00 1851878480
24.591499 -13.978662 -1.729493 0.000000000000000e+00 1851878480
24.059242 -8.924490 -2.184920 0.000000000000000e+00 1851878480
24.309935 -10.158037 -2.165444 0.000000000000000e+00 1851878480
23.238791 -12.003418 -1.953355 0.000000000000000e+00 1851878480
22.767654 -12.949588 -1.837020 0.000000000000000e+00 1851878480
22.074018 -8.181858 -2.205800 0.000000000000000e+00 1851878480
22.109919 -9.235508 -2.177163 0.000000000000000e+00 1851878480
21.700893 -11.212545 -2.041552 0.000000000000000e+00 1851878480
21.247257 -12.091980 -1.934744 0.000000000000000e+00 1851878480
20.397686 -7.554754 -2.224422 0.000000000000000e+00 1851878480
20.420120 -8.526655 -2.202855 0.000000000000000e+00 1851878480
20.510895 -10.600974 -2.135475 0.000000000000000e+00 1851878480
20.130875 -11.463438 -2.042270 0.000000000000000e+00 1851878480
18.963350 -7.018148 -2.241310 0.000000000000000e+00 1851878480
18.977427 -7.921448 -2.226020 0.000000000000000e+00 1851878480
19.254839 -9.954893 -2.198319 0.000000000000000e+00 1851878480
19.032185 -10.844225 -2.128960 0.000000000000000e+00 1851878480
17.596100 -6.507153 -2.240785 0.000000000000000e+00 1851878480
17.674084 -7.374805 -2.239949 0.000000000000000e+00 1851878480
17.882988 -9.248519 -2.221869 0.000000000000000e+00 1851878480
17.999250 -10.261783 -2.201203 0.000000000000000e+00 1851878480
16.426256 -6.069878 -2.242446 0.000000000000000e+00 1851878480
16.508589 -6.886049 -2.248342 0.000000000000000e+00 1851878480
16.594927 -8.585060 -2.229388 0.000000000000000e+00 1851878480
16.688976 -9.520442 -2.215479 0.000000000000000e+00 1851878480
15.354482 -5.669475 -2.237208 0.000000000000000e+00 1851878480
15.417332 -6.428577 -2.245799 0.000000000000000e+00 1851878480
15.466271 -8.003677 -2.234272 0.000000000000000e+00 1851878480
15.526358 -8.862506 -2.223883 0.000000000000000e+00 1851878480
14.395803 -5.311389 -2.230066 0.000000000000000e+00 1851878480
14.425046 -6.012683 -2.238230 0.000000000000000e+00 1851878480
14.518891 -7.515776 -2.244690 0.000000000000000e+00 1851878480
14.544285 -8.306909 -2.236060 0.000000000000000e+00 1851878480
13.668346 -5.039099 -2.243500 0.000000000000000e+00 1851878480
13.668586 -5.695347 -2.250950 0.000000000000000e+00 1851878480
13.630649 -7.058199 -2.245991 0.000000000000000e+00 1851878480
13.591782 -7.767554 -2.232844 0.000000000000000e+00 1851878480
12.935730 -4.765312 -2.242899 0.000000000000000e+00 1851878480
12.888752 -5.368486 -2.245505 0.000000000000000e+00 1851878480
12.817673 -6.639320 -2.242750 0.000000000000000e+00 1851878480
12.774673 -7.304983 -2.233616 0.000000000000000e+00 1851878480
12.218604 -4.497633 -2.231862 0.000000000000000e+00 1851878480
12.189661 -5.075484 -2.240326 0.000000000000000e+00 1851878480
12.124053 -6.282029 -2.245391 0.000000000000000e+00 1851878480
12.069691 -6.906027 -2.238299 0.000000000000000e+00 1851878480
11.660712 -4.288930 -2.238374 0.000000000000000e+00 1851878480
11.595997 -4.826559 -2.242462 0.000000000000000e+00 1851878480
11.475715 -5.947981 -2.243050 0.000000000000000e+00 1851878480
11.459045 -6.560595 -2.246920 0.000000000000000e+00 1851878480
11.160333 -4.101674 -2.246382 0.000000000000000e+00 1851878480
11.036730 -4.592117 -2.240502 0.000000000000000e+00 1851878480
10.885197 -5.643702 -2.239661 0.000000000000000e+00 1851878480
10.879391 -6.232513 -2.249353 0.000000000000000e+00 1851878480
10.600271 -3.892781 -2.232781 0.000000000000000e+00 1851878480
10.530581 -4.379935 -2.239388 0.000000000000000e+00 1851878480
10.368400 -5.377472 -2.240406 0.000000000000000e+00 1851878480
10.278648 -5.891956 -2.235219 0.000000000000000e+00 1851878480
10.214330 -3.748100 -2.247313 0.000000000000000e+00 1851878480
10.099412 -4.199074 -2.245493 0.000000000000000e+00 1851878480
9.962552 -5.168647 -2.255965 0.000000000000000e+00 1851878480
9.831085 -5.638853 -2.243566 0.000000000000000e+00 1851878480
9.710734 -3.560491 -2.227910 0.000000000000000e+00 1851878480
9.682024 -4.024070 -2.246762 0.000000000000000e+00 1851878480
9.501919 -4.931252 -2.250501 0.000000000000000e+00 1851878480
9.359629 -5.371737 -2.236970 0.000000000000000e+00 1851878480
9.419346 -3.450914 -2.250015 0.000000000000000e+00 1851878480
9.299682 -3.863746 -2.248717 0.000000000000000e+00 1851878480
9.070635 -4.708949 -2.243077 0.000000000000000e+00 1851878480
8.954712 -5.142516 -2.237213 0.000000000000000e+00 1851878480
9.021492 -3.302522 -2.240485 0.000000000000000e+00 1851878480
8.867193 -3.682706 -2.230922 0.000000000000000e+00 1851878480
8.756167 -4.547168 -2.257121 0.000000000000000e+00 1851878480
8.643619 -4.966931 -2.253534 0.000000000000000e+00 1851878480
8.641861 -3.161025 -2.228419 0.000000000000000e+00 1851878480
8.589189 -3.565932 -2.245367 0.000000000000000e+00 1851878480
8.398342 -4.362766 -2.253311 0.000000000000000e+00 1851878480
8.278346 -4.759994 -2.248768 0.000000000000000e+00 1851878480
8.344135 -3.049674 -2.231339 0.000000000000000e+00 1851878480
8.260556 -3.428226 -2.240946 0.000000000000000e+00 1851878480
8.036687 -4.176261 -2.241268 0.000000000000000e+00 1851878480
7.878968 -4.533187 -2.226775 0.000000000000000e+00 1851878480
8.097280 -2.957064 -2.242975 0.000000000000000e+00 1851878480
8.005989 -3.321344 -2.251197 0.000000000000000e+00 1851878480
7.802598 -4.055945 -2.258876 0.000000000000000e+00 1851878480
7.633446 -4.394680 -2.241584 0.000000000000000e+00 1851878480
7.804333 -2.847769 -2.236980 0.000000000000000e+00 1851878480
7.711616 -3.198027 -2.245148 0.000000000000000e+00 1851878480
7.544977 -3.923326 -2.264825 0.000000000000000e+00 1851878480
7.377942 -4.250260 -2.248333 0.000000000000000e+00 1851878480
7.582668 -2.764635 -2.246780 0.000000000000000e+00 1851878480
7.470874 -3.097028 -2.249725 0.000000000000000e+00 1851878480
7.264636 -3.778804 -2.258589 0.000000000000000e+00 1851878480
7.105225 -4.095751 -2.244382 0.000000000000000e+00 1851878480
7.304945 -2.661198 -2.235460 0.000000000000000e+00 1851878480
7.224560 -2.993792 -2.248094 0.000000000000000e+00 1851878480
7.036686 -3.661451 -2.263570 0.000000000000000e+00 1851878480
6.872067 -3.963867 -2.247692 0.000000000000000e+00 1851878480
7.090018 -2.580782 -2.238894 0.000000000000000e+00 1851878480
6.968423 -2.886557 -2.238701 0.000000000000000e+00 1851878480
6.794666 -3.536704 -2.259343 0.000000000000000e+00 1851878480
6.612896 -3.816818 -2.237386 0.000000000000000e+00 1851878480
6.895114 -2.507761 -2.244974 0.000000000000000e+00 1851878480
6.765775 -2.801544 -2.242203 0.000000000000000e+00 1851878480
6.570583 -3.421216 -2.256411 0.000000000000000e+00 1851878480
6.398475 -3.695437 -2.237289 0.000000000000000e+00 1851878480
6.698620 -2.434271 -2.247025 0.000000000000000e+00 1851878480
6.596432 -2.730379 -2.253316 0.000000000000000e+00 1851878480
6.313917 -3.288691 -2.237436 0.000000000000000e+00 1851878480
6.250062 -3.612056 -2.256573 0.000000000000000e+00 1851878480
6.445698 -2.340404 -2.226046 0.000000000000000e+00 1851878480
6.377464 -2.638727 -2.243866 0.000000000000000e+00 1851878480
6.172894 -3.216330 -2.255470 0.000000000000000e+00 1851878480
5.999521 -3.469522 -2.234848 0.000000000000000e+00 1851878480
6.320776 -2.293119 -2.245862 0.000000000000000e+00 1851878480
6.184533 -2.557911 -2.239704 0.000000000000000e+00 1851878480
5.996369 -3.125424 -2.257425 0.000000000000000e+00 1851878480
5.838862 -3.378824 -2.242304 0.000000000000000e+00 1851878480
6.098135 -2.210477 -2.227828 0.000000000000000e+00 1851878480
6.029023 -2.492618 -2.245856 0.000000000000000e+00 1851878480
5.796839 -3.022465 -2.246942 0.000000000000000e+00 1851878480
5.663294 -3.279385 -2.240573 0.000000000000000e+00 1851878480
5.987660 -2.168587 -2.247773 0.000000000000000e+00 1851878480
5.827431 -2.408331 -2.231493 0.000000000000000e+00 1851878480
5.669043 -2.956858 -2.261009 0.000000000000000e+00 1851878480
5.578999 -3.232712 -2.272355 0.000000000000000e+00 1851878480
5.827074 -2.108624 -2.246516 0.000000000000000e+00 1851878480
5.721156 -2.363480 -2.250780 0.000000000000000e+00 1851878480
5.451600 -2.844435 -2.235842 0.000000000000000e+00 1851878480
5.352735 -3.103675 -2.243106 0.000000000000000e+00 1851878480
5.743272 -2.076509 -2.272734 0.000000000000000e+00 1851878480
5.569642 -2.299974 -2.249924 0.000000000000000e+00 1851878480
5.355420 -2.795233 -2.257266 0.000000000000000e+00 1851878480
5.200413 -3.017378 -2.240812 0.000000000000000e+00 1851878480
5.527183 -1.996650 -2.243892 0.000000000000000e+00 1851878480
5.418826 -2.236800 -2.246523 0.000000000000000e+00 1851878480
5.242778 -2.737407 -2.269782 0.000000000000000e+00 1851878480
2.910469 -1.689852 -1.288778 1.880790849211783e-38 1684957512
5.439090 -1.963114 -2.264247 0.000000000000000e+00 1851878480
5.306069 -2.189379 -2.256471 0.000000000000000e+00 1851878480
2.923804 -1.527147 -1.299508 1.880790849211783e-38 1684957512
2.825255 -1.641493 -1.284957 1.880790849211783e-38 1684957512
5.228789 -1.885553 -2.230997 0.000000000000000e+00 1851878480
5.156556 -2.126825 -2.248352 0.000000000000000e+00 1851878480
2.805522 -1.465891 -1.279495 1.880790849211783e-38 1684957512
2.750886 -1.599381 -1.284397 1.880790849211783e-38 1684957512
5.143148 -1.853031 -2.248217 0.000000000000000e+00 1851878480
5.049315 -2.081746 -2.256274 0.000000000000000e+00 1851878480
2.781970 -1.454110 -1.301276 1.880790849211783e-38 1684957512
2.672301 -1.554763 -1.280264 1.880790849211783e-38 1684957512
4.993180 -1.797397 -2.235211 0.000000000000000e+00 1851878480
4.899612 -2.019196 -2.242812 0.000000000000000e+00 1851878480
2.784191 -1.455798 -1.335107 1.880790849211783e-38 1684957512
2.663718 -1.550848 -1.308859 1.880790849211783e-38 1684957512
4.916631 -1.768255 -2.253047 0.000000000000000e+00 1851878480
4.760437 -1.961031 -2.231393 0.000000000000000e+00 1851878480
2.830560 -1.480586 -1.390938 1.880790849211783e-38 1684957512
2.555505 -1.488888 -1.287316 1.880790849211783e-38 1684957512
4.831791 -1.736169 -2.265742 0.000000000000000e+00 1851878480
4.684228 -1.928833 -2.247503 0.000000000000000e+00 1851878480
2.815797 -1.473408 -1.417367 1.880790849211783e-38 1684957512
2.502713 -1.459161 -1.291953 1.880790849211783e-38 1684957512
4.697541 -1.686393 -2.253294 0.000000000000000e+00 1851878480
4.625578 -1.903882 -2.270930 0.000000000000000e+00 1851878480
2.833183 -1.483057 -1.460284 1.880790849211783e-38 1684957512
2.488726 -1.452040 -1.316047 1.880790849211783e-38 1684957512
4.545181 -1.630197 -2.229443 0.000000000000000e+00 1851878480
4.512032 -1.856362 -2.265876 0.000000000000000e+00 1851878480
2.793800 -1.462990 -1.473954 1.880790849211783e-38 1684957512
2.451187 -1.431166 -1.327303 1.880790849211783e-38 1684957512
4.457615 -1.597313 -2.235147 0.000000000000000e+00 1851878480
4.390775 -1.805703 -2.254701 0.000000000000000e+00 1851878480
2.771328 -1.451771 -1.496079 1.880790849211783e-38 1684957512
2.496788 -1.458847 -1.383959 1.880790849211783e-38 1684957512
4.363742 -1.562214 -2.236083 0.000000000000000e+00 1851878480
4.267526 -1.754261 -2.240127 0.000000000000000e+00 1851878480
2.807098 -1.471069 -1.550106 1.880790849211783e-38 1684957512
2.484475 -1.452713 -1.409226 1.880790849211783e-38 1684957512
4.248587 -1.519558 -2.224188 0.000000000000000e+00 1851878480
4.185075 -1.719622 -2.245015 0.000000000000000e+00 1851878480
2.781898 -1.458425 -1.570901 1.880790849211783e-38 1684957512
2.479138 -1.450661 -1.438515 1.880790849211783e-38 1684957512
4.170625 -1.490255 -2.230002 0.000000000000000e+00 1851878480
4.078940 -1.675278 -2.235425 0.000000000000000e+00 1851878480
2.820713 -1.479347 -1.628330 1.880790849211783e-38 1684957512
2.493457 -1.460125 -1.479631 1.880790849211783e-38 1684957512
4.157559 -1.484164 -2.269888 0.000000000000000e+00 1851878480
4.022386 -1.651322 -2.251523 0.000000000000000e+00 1851878480
2.793916 -1.465868 -1.648362 1.880790849211783e-38 1684957512
2.474505 -1.450116 -1.501254 1.880790849211783e-38 1684957512
4.118102 -1.468657 -2.295171 0.000000000000000e+00 1634890835
3.949646 -1.620738 -2.257457 0.000000000000000e+00 1851878480
2.801130 -1.470233 -1.688545 1.880790849211783e-38 1684957512
2.487407 -1.458781 -1.542446 1.880790849211783e-38 1684957512
4.066556 -1.448860 -2.313087 0.000000000000000e+00 1634890835
3.867518 -1.586323 -2.256606 0.000000000000000e+00 1851878480
2.765183 -1.451945 -1.702684 1.880790849211783e-38 1684957512
2.452631 -1.439487 -1.554108 1.880790849211783e-38 1684957512
3.941285 -1.402843 -2.287445 0.000000000000000e+00 1634890835
3.796446 -1.556465 -2.260800 0.000000000000000e+00 1851878480
2.754717 -1.447030 -1.732264 1.880790849211783e-38 1684957512
2.473594 -1.452912 -1.601245 1.880790849211783e-38 1684957512
3.908059 -1.389634 -2.313802 0.000000000000000e+00 1634890835
3.715139 -1.522433 -2.257486 0.000000000000000e+00 1851878480
2.748147 -1.444167 -1.764433 1.880790849211783e-38 1684957512
2.475228 -1.455006 -1.636531 1.880790849211783e-38 1684957512
3.777754 -1.341951 -2.281183 0.000000000000000e+00 1634890835
3.612156 -1.479548 -2.239185 0.000000000000000e+00 1851878480
2.771852 -1.457224 -1.816642 1.880790849211783e-38 1684957512
2.484702 -1.461727 -1.677520 1.880790849211783e-38 1684957512
3.705192 -1.314840 -2.281457 0.000000000000000e+00 1634890835
3.538364 -1.448647 -2.237238 0.000000000000000e+00 1851878480
2.733262 -1.437533 -1.828206 1.880790849211783e-38 1684957512
2.473670 -1.456399 -1.705019 1.880790849211783e-38 1684957512
3.666894 -1.299916 -2.301936 0.000000000000000e+00 1634890835
3.579310 -1.464716 -2.307875 0.000000000000000e+00 1634890835
2.790820 -1.468420 -1.904741 1.880790849211783e-38 1684957512
2.432626 -1.433385 -1.711475 1.880790849211783e-38 1684957512
3.576300 -1.266487 -2.288460 0.000000000000000e+00 1634890835
3.518874 -1.439299 -2.313348 0.000000000000000e+00 1634890835
2.741623 -1.443146 -1.908935 1.880790849211783e-38 1684957512
2.451782 -1.445848 -1.760369 1.880790849211783e-38 1684957512
3.503538 -1.239419 -2.284842 0.000000000000000e+00 1634890835
3.401340 -1.390553 -2.279483 0.000000000000000e+00 1634890835
2.729356 -1.437303 -1.938413 1.880790849211783e-38 1684957512
2.445771 -1.443491 -1.791791 1.880790849211783e-38 1684957512
3.434904 -1.213854 -2.282617 0.000000000000000e+00 1634890835
3.370061 -1.377094 -2.301981 0.000000000000000e+00 1634890835
2.751319 -1.449497 -1.992773 1.880790849211783e-38 1684957512
2.464795 -1.455929 -1.842165 1.880790849211783e-38 1684957512
3.375975 -1.191753 -2.285701 0.000000000000000e+00 1634890835
3.244758 -1.325240 -2.258690 0.000000000000000e+00 1634890835
2.740896 -1.444639 -2.024284 1.880790849211783e-38 1684957512
2.425372 -1.433848 -1.848985 1.880790849211783e-38 1684957512
3.299433 -1.163469 -2.275607 0.000000000000000e+00 1634890835
3.260173 -1.330871 -2.312389 0.000000000000000e+00 1634890835
2.738923 -1.444239 -2.062321 1.880790849211783e-38 1684957512
2.459918 -1.455509 -1.912574 1.880790849211783e-38 1684957512
3.246375 -1.143507 -2.280520 0.000000000000000e+00 1634890835
3.117242 -1.271882 -2.252558 0.000000000000000e+00 1634890835
2.721208 -1.435541 -2.088692 1.880790849211783e-38 1684957512
2.504072 -1.482912 -1.985296 1.880790849211783e-38 1684957512
3.186274 -1.121093 -2.279491 0.000000000000000e+00 1634890835
3.077134 -1.254877 -2.265059 0.000000000000000e+00 1634890835
2.803726 -1.479743 -2.193444 1.880790849211783e-38 1684957512
2.438622 -1.445413 -1.971271 1.880790849211783e-38 1684957512
3.146175 -1.105742 -2.291937 0.000000000000000e+00 1634890835
3.145808 -1.282221 -2.358513 0.000000000000000e+00 1634890835
2.782346 -1.469135 -2.218329 1.880790849211783e-38 1684957512
2.445257 -1.450624 -2.015091 1.880790849211783e-38 1684957512
3.111950 -1.092472 -2.308161 0.000000000000000e+00 1634890835
3.028693 -1.233839 -2.312507 0.000000000000000e+00 1634890835
2.782912 -1.470116 -2.260930 1.880790849211783e-38 1684957512
0.849683 -0.504517 -0.713748 0.000000000000000e+00 1886740808
3.055115 -1.071286 -2.306886 0.000000000000000e+00 1634890835
2.961124 -1.205675 -2.302279 0.000000000000000e+00 1634890835
2.761457 -1.459470 -2.285868 0.000000000000000e+00 1851878480
0.865643 -0.514458 -0.741134 0.000000000000000e+00 1886740808
2.954681 -1.034863 -2.271060 0.000000000000000e+00 1634890835
2.893713 -1.177597 -2.290787 0.000000000000000e+00 1634890835
0.886375 -0.468685 -0.747499 0.000000000000000e+00 1886740808
0.823519 -0.489874 -0.718550 0.000000000000000e+00 1886740808
2.922194 -1.022277 -2.286143 0.000000000000000e+00 1634890835
2.845784 -1.157461 -2.293593 0.000000000000000e+00 1634890835
0.834655 -0.441550 -0.717030 0.000000000000000e+00 1886740808
0.824158 -0.490710 -0.732788 0.000000000000000e+00 1886740808
2.876764 -1.005181 -2.290520 0.000000000000000e+00 1634890835
2.811670 -1.142958 -2.306875 0.000000000000000e+00 1634890835
0.843520 -0.446459 -0.738117 0.000000000000000e+00 1886740808
0.807819 -0.481434 -0.731859 0.000000000000000e+00 1886740808
2.828155 -0.987000 -2.291560 0.000000000000000e+00 1634890835
2.770552 -1.125616 -2.313843 0.000000000000000e+00 1634890835
0.825821 -0.437308 -0.736002 0.000000000000000e+00 1886740808
0.781107 -0.465960 -0.720998 0.000000000000000e+00 1886740808
2.799260 -0.975715 -2.307991 0.000000000000000e+00 1634890835
0.849788 -0.345056 -0.722357 0.000000000000000e+00 1886740808
0.834284 -0.442012 -0.757246 0.000000000000000e+00 1886740808
0.803187 -0.479596 -0.755298 0.000000000000000e+00 1886740808
0.839847 -0.292374 -0.704565 0.000000000000000e+00 1886740808
0.875149 -0.355150 -0.757119 0.000000000000000e+00 1886740808
0.832734 -0.441416 -0.769712 0.000000000000000e+00 1886740808
0.737330 -0.440704 -0.706337 0.000000000000000e+00 1886740808
0.831142 -0.288978 -0.709408 0.000000000000000e+00 1886740808
0.829530 -0.336441 -0.730341 0.000000000000000e+00 1886740808
0.793713 -0.420949 -0.747063 0.000000000000000e+00 1886740808
0.734604 -0.439513 -0.716845 0.000000000000000e+00 1886740808
0.822935 -0.285758 -0.714592 0.000000000000000e+00 1886740808
0.775053 -0.314161 -0.694400 0.000000000000000e+00 1886740808
0.802999 -0.426098 -0.769582 0.000000000000000e+00 1886740808
0.741396 -0.444025 -0.736918 0.000000000000000e+00 1886740808
0.811065 -0.281270 -0.716465 0.000000000000000e+00 1886740808
0.796542 -0.322679 -0.726185 0.000000000000000e+00 1886740808
0.789539 -0.419179 -0.770438 0.000000000000000e+00 1886740808
0.769872 -0.461553 -0.779406 0.000000000000000e+00 1886740808
0.808972 -0.280174 -0.726935 0.000000000000000e+00 1886740808
0.763707 -0.309189 -0.708440 0.000000000000000e+00 1886740808
0.780677 -0.414699 -0.775602 0.000000000000000e+00 1886740808
0.760118 -0.456181 -0.783762 0.000000000000000e+00 1886740808
0.814560 -0.281731 -0.744538 0.000000000000000e+00 1886740808
0.782886 -0.316759 -0.738911 0.000000000000000e+00 1886740808
0.802811 -0.426690 -0.812021 0.000000000000000e+00 1886740808
0.764625 -0.459372 -0.802958 0.000000000000000e+00 1886740808
0.764348 -0.264005 -0.710621 0.000000000000000e+00 1886740808
0.793540 -0.320868 -0.762013 0.000000000000000e+00 1886740808
0.792410 -0.421397 -0.815971 0.000000000000000e+00 1886740808
0.741340 -0.445862 -0.792849 0.000000000000000e+00 1886740808
0.761578 -0.262684 -0.720158 0.000000000000000e+00 1886740808
0.760497 -0.307312 -0.742978 0.000000000000000e+00 1886740808
0.740219 -0.393865 -0.775968 0.000000000000000e+00 1886740808
2.114143 -1.272894 -2.302635 0.000000000000000e+00 1634890835
0.763258 -0.262893 -0.734068 0.000000000000000e+00 1886740808
0.779278 -0.314698 -0.774537 0.000000000000000e+00 1886740808
0.788181 -0.419628 -0.841121 0.000000000000000e+00 1886740808
2.057134 -1.239947 -2.281722 0.000000000000000e+00 1634890835
0.799970 -0.275145 -0.782491 0.000000000000000e+00 1886740808
0.727315 -0.293520 -0.735416 0.000000000000000e+00 1886740808
2.153235 -1.147053 -2.339190 0.000000000000000e+00 1634890835
2.047846 -1.235744 -2.313138 0.000000000000000e+00 1634890835
0.758509 -0.260505 -0.754564 0.000000000000000e+00 1886740808
0.794053 -0.320240 -0.816794 0.000000000000000e+00 1886740808
2.095334 -1.116875 -2.317200 0.000000000000000e+00 1634890835
0.840594 -0.507828 -0.966922 0.000000000000000e+00 1886740808
0.755360 -0.259041 -0.764207 0.000000000000000e+00 1886740808
0.750855 -0.302613 -0.785715 0.000000000000000e+00 1886740808
2.087434 -1.113337 -2.349938 0.000000000000000e+00 1634890835
0.761501 -0.460584 -0.892023 0.000000000000000e+00 1886740808
0.775077 -0.265403 -0.797477 0.000000000000000e+00 1886740808
0.761806 -0.306814 -0.810952 0.000000000000000e+00 1886740808
2.024944 -1.080673 -2.320545 0.000000000000000e+00 1634890835
0.806345 -0.488287 -0.961897 0.000000000000000e+00 1886740808
0.779670 -0.266568 -0.815826 0.000000000000000e+00 1886740808
2.114599 -0.851047 -2.289910 0.000000000000000e+00 1634890835
0.825321 -0.440735 -0.962799 0.000000000000000e+00 1886740808
0.790640 -0.479357 -0.960493 0.000000000000000e+00 1886740808
0.787105 -0.268690 -0.837587 0.000000000000000e+00 1886740808
2.086734 -0.839233 -2.298780 0.000000000000000e+00 1634890835
0.820994 -0.438704 -0.974973 0.000000000000000e+00 1886740808
0.778299 -0.472458 -0.962890 0.000000000000000e+00 1886740808
0.735123 -0.250547 -0.795552 0.000000000000000e+00 1886740808
2.067307 -0.830814 -2.316743 0.000000000000000e+00 1634890835
0.814687 -0.435617 -0.984897 0.000000000000000e+00 1886740808
1.845031 -1.121413 -2.324651 0.000000000000000e+00 1634890835
2.087131 -0.710195 -2.297061 0.000000000000000e+00 1634890835
1.989475 -0.798941 -2.268080 0.000000000000000e+00 1634890835
0.784684 -0.419853 -0.965720 0.000000000000000e+00 1886740808
1.803574 -1.097619 -2.314327 0.000000000000000e+00 1634890835
2.074121 -0.704606 -2.321539 0.000000000000000e+00 1634890835
1.987698 -0.797624 -2.305284 0.000000000000000e+00 1634890835
0.764517 -0.409338 -0.957882 0.000000000000000e+00 1886740808
0.800534 -0.487825 -1.046219 0.000000000000000e+00 1886740808
2.030289 -0.688557 -2.311136 0.000000000000000e+00 1634890835
1.954179 -0.783570 -2.305694 0.000000000000000e+00 1634890835
0.787142 -0.421741 -1.004063 0.000000000000000e+00 1886740808
1.705248 -1.040518 -2.269862 0.000000000000000e+00 1634890835
1.937886 -0.656094 -2.243524 0.000000000000000e+00 1634890835
0.803412 -0.321893 -0.964384 0.000000000000000e+00 1886740808
1.794959 -0.962395 -2.331111 0.000000000000000e+00 1634890835
1.688587 -1.031751 -2.289419 0.000000000000000e+00 1634890835
1.936317 -0.654418 -2.279947 0.000000000000000e+00 1634890835
0.786203 -0.314745 -0.960140 0.000000000000000e+00 1886740808
0.780249 -0.418642 -1.031719 0.000000000000000e+00 1886740808
1.631261 -0.998104 -2.252880 0.000000000000000e+00 1634890835
1.894055 -0.638995 -2.268299 0.000000000000000e+00 1634890835
0.795726 -0.318297 -0.988707 0.000000000000000e+00 1886740808
1.709086 -0.917677 -2.301088 0.000000000000000e+00 1634890835
1.634075 -1.001240 -2.298928 0.000000000000000e+00 1634890835
0.819353 -0.275921 -0.998053 0.000000000000000e+00 1886740808
0.791555 -0.316364 -1.000708 0.000000000000000e+00 1886740808
1.678944 -0.902166 -2.301824 0.000000000000000e+00 1634890835
1.604256 -0.984388 -2.299293 0.000000000000000e+00 1634890835
0.797985 -0.268226 -0.988712 0.000000000000000e+00 1886740808
0.795325 -0.317601 -1.023089 0.000000000000000e+00 1886740808
1.666315 -0.896061 -2.326410 0.000000000000000e+00 1634890835
1.600769 -0.983699 -2.337481 0.000000000000000e+00 1634890835
0.798438 -0.267869 -1.006303 0.000000000000000e+00 1886740808
0.789608 -0.315043 -1.033584 0.000000000000000e+00 1886740808
1.611481 -0.867249 -2.291278 0.000000000000000e+00 1634890835
1.545326 -0.951059 -2.299176 0.000000000000000e+00 1634890835
0.776156 -0.259889 -0.995111 0.000000000000000e+00 1886740808
1.727398 -0.688596 -2.301007 0.000000000000000e+00 1634890835
1.588314 -0.855460 -2.300092 0.000000000000000e+00 1634890835
1.515018 -0.933843 -2.296890 0.000000000000000e+00 1634890835
0.755392 -0.252434 -0.985265 0.000000000000000e+00 1886740808
1.695343 -0.675204 -2.298273 0.000000000000000e+00 1634890835
1.561828 -0.841879 -2.303742 0.000000000000000e+00 1634890835
1.474004 -0.909994 -2.277359 0.000000000000000e+00 1634890835
0.780162 -0.260182 -1.035265 0.000000000000000e+00 1886740808
0.754659 -0.300279 -1.041222 0.000000000000000e+00 1886740808
1.534057 -0.827596 -2.305006 0.000000000000000e+00 1634890835
1.453782 -0.898956 -2.289211 0.000000000000000e+00 1634890835
1.677485 -0.558277 -2.264856 0.000000000000000e+00 1634890835
1.650484 -0.656103 -2.317852 0.000000000000000e+00 1634890835
1.488555 -0.803732 -2.278594 0.000000000000000e+00 1634890835
1.425437 -0.882883 -2.287890 0.000000000000000e+00 1634890835
0.761475 -0.252885 -1.046127 0.000000000000000e+00 1886740808
1.581054 -0.627892 -2.260153 0.000000000000000e+00 1634890835
1.505870 -0.813791 -2.348579 0.000000000000000e+00 1634890835
1.413147 -0.876751 -2.312196 0.000000000000000e+00 1634890835
1.642789 -0.544381 -2.296630 0.000000000000000e+00 1634890835
1.602754 -0.635875 -2.332450 0.000000000000000e+00 1634890835
1.460258 -0.789844 -2.320652 0.000000000000000e+00 1634890835
1.389198 -0.863383 -2.317418 0.000000000000000e+00 1634890835
1.614684 -0.533875 -2.297282 0.000000000000000e+00 1634890835
1.550495 -0.614515 -2.297267 0.000000000000000e+00 1634890835
1.421543 -0.769606 -2.302256 0.000000000000000e+00 1634890835
1.352247 -0.841908 -2.300148 0.000000000000000e+00 1634890835
1.582367 -0.521995 -2.291346 0.000000000000000e+00 1634890835
1.506207 -0.596338 -2.272295 0.000000000000000e+00 1634890835
1.384746 -0.750386 -2.285761 0.000000000000000e+00 1634890835
1.307556 -0.815564 -2.268194 0.000000000000000e+00 1634890835
1.553998 -0.511433 -2.290509 0.000000000000000e+00 1634890835
1.475223 -0.583444 -2.266326 0.000000000000000e+00 1634890835
1.392494 -0.755310 -2.343031 0.000000000000000e+00 1634890835
1.321756 -0.825958 -2.338591 0.000000000000000e+00 1634890835
1.534955 -0.503951 -2.303138 0.000000000000000e+00 1634890835
1.468493 -0.580143 -2.297579 0.000000000000000e+00 1634890835
1.358323 -0.737501 -2.330088 0.000000000000000e+00 1634890835
1.266608 -0.793011 -2.286105 0.000000000000000e+00 1634890835
1.488940 -0.487635 -2.274528 0.000000000000000e+00 1634890835
1.435159 -0.566334 -2.287097 0.000000000000000e+00 1634890835
1.323153 -0.719130 -2.314342 0.000000000000000e+00 1634890835
1.256673 -0.788339 -2.314189 0.000000000000000e+00 1634890835
1.463092 -0.477955 -2.275759 0.000000000000000e+00 1634890835
1.387832 -0.547025 -2.253011 0.000000000000000e+00 1634890835
1.286906 -0.700157 -2.295518 0.000000000000000e+00 1634890835
1.224955 -0.769994 -2.301944 0.000000000000000e+00 1634890835
1.449210 -0.472186 -2.295508 0.000000000000000e+00 1634890835
1.403150 -0.552404 -2.320760 0.000000000000000e+00 1634890835
1.265843 -0.689432 -2.303038 0.000000000000000e+00 1634890835
1.190491 -0.749881 -2.283377 0.000000000000000e+00 1634890835
1.423875 -0.462687 -2.297041 0.000000000000000e+00 1634890835
1.367119 -0.537560 -2.304060 0.000000000000000e+00 1634890835
1.247697 -0.680293 -2.315761 0.000000000000000e+00 1634890835
1.155347 -0.729297 -2.262173 0.000000000000000e+00 1634890835
1.399554 -0.453531 -2.299827 0.000000000000000e+00 1634890835
1.332655 -0.523349 -2.288925 0.000000000000000e+00 1634890835
1.204515 -0.657490 -2.281075 0.000000000000000e+00 1634890835
1.161641 -0.734882 -2.322393 0.000000000000000e+00 1634890835
1.364091 -0.440785 -2.283599 0.000000000000000e+00 1634890835
1.325865 -0.520008 -2.321178 0.000000000000000e+00 1634890835
1.209720 -0.661097 -2.337970 0.000000000000000e+00 1634890835
1.130243 -0.716636 -2.307701 0.000000000000000e+00 1634890835
1.348004 -0.434312 -2.299348 0.000000000000000e+00 1634890835
1.282514 -0.502335 -2.288963 0.000000000000000e+00 1634890835
1.165512 -0.637700 -2.299248 0.000000000000000e+00 1634890835
1.103992 -0.701620 -2.302584 0.000000000000000e+00 1634890835
1.316327 -0.422828 -2.288146 0.000000000000000e+00 1634890835
1.283063 -0.501859 -2.334898 0.000000000000000e+00 1634890835
1.143867 -0.626627 -2.303841 0.000000000000000e+00 1634890835
1.082990 -0.689927 -2.307917 0.000000000000000e+00 1634890835
1.303377 -0.417368 -2.309237 0.000000000000000e+00 1634890835
1.241177 -0.484789 -2.303441 0.000000000000000e+00 1634890835
1.098353 -0.602458 -2.259043 0.000000000000000e+00 1634890835
1.070801 -0.683850 -2.332163 0.000000000000000e+00 1634890835
1.278666 -0.408142 -2.309464 0.000000000000000e+00 1634890835
1.228393 -0.479096 -2.325350 0.000000000000000e+00 1634890835
1.088894 -0.598052 -2.287581 0.000000000000000e+00 1634890835
1.037097 -0.664017 -2.309079 0.000000000000000e+00 1634890835
1.262720 -0.401719 -2.325400 0.000000000000000e+00 1634890835
1.231975 -0.479770 -2.379300 0.000000000000000e+00 1634890835
1.072786 -0.590002 -2.302611 0.000000000000000e+00 1634890835
1.001487 -0.642911 -2.280107 0.000000000000000e+00 1634890835
1.203920 -0.381702 -2.261042 0.000000000000000e+00 1634890835
1.152636 -0.448174 -2.271580 0.000000000000000e+00 1634890835
1.079315 -0.594421 -2.367476 0.000000000000000e+00 1634890835
1.008319 -0.649062 -2.348146 0.000000000000000e+00 1634890835
1.218872 -0.385075 -2.334955 0.000000000000000e+00 1634890835
1.113019 -0.432074 -2.238848 0.000000000000000e+00 1634890835
1.028392 -0.567192 -2.305929 0.000000000000000e+00 1634890835
0.954873 -0.616394 -2.275223 0.000000000000000e+00 1634890835
1.188191 -0.374009 -2.322253 0.000000000000000e+00 1634890835
1.116779 -0.432814 -2.293394 0.000000000000000e+00 1634890835
1.016203 -0.561307 -2.329934 0.000000000000000e+00 1634890835
0.954096 -0.617690 -2.326819 0.000000000000000e+00 1634890835
1.139575 -0.357346 -2.272829 0.000000000000000e+00 1634890835
1.111076 -0.429862 -2.329974 0.000000000000000e+00 1634890835
0.987554 -0.546325 -2.315964 0.000000000000000e+00 1634890835
0.916462 -0.595119 -2.288360 0.000000000000000e+00 1634890835
1.126014 -0.351707 -2.292294 0.000000000000000e+00 1634890835
1.074835 -0.415100 -2.302281 0.000000000000000e+00 1634890835
0.947621 -0.525073 -2.273800 0.000000000000000e+00 1634890835
0.898044 -0.584988 -2.296697 0.000000000000000e+00 1634890835
1.107079 -0.344384 -2.300998 0.000000000000000e+00 1634890835
1.071839 -0.413178 -2.345708 0.000000000000000e+00 1634890835
0.954981 -0.530030 -2.345338 0.000000000000000e+00 1634890835
0.864141 -0.564733 -2.264387 0.000000000000000e+00 1634890835
1.080981 -0.334844 -2.294454 0.000000000000000e+00 1634890835
1.017847 -0.391612 -2.276557 0.000000000000000e+00 1634890835
0.921618 -0.512394 -2.317440 0.000000000000000e+00 1634890835
0.843815 -0.553312 -2.266454 0.000000000000000e+00 1634890835
1.046300 -0.322678 -2.268611 0.000000000000000e+00 1634890835
1.008566 -0.387270 -2.306128 0.000000000000000e+00 1634890835
0.904103 -0.503555 -2.328544 0.000000000000000e+00 1634890835
0.837802 -0.551297 -2.307580 0.000000000000000e+00 1634890835
1.030965 -0.316496 -2.284094 0.000000000000000e+00 1634890835
0.983857 -0.377000 -2.300545 0.000000000000000e+00 1634890835
0.870329 -0.485644 -2.296829 0.000000000000000e+00 1634890835
0.446234 -0.294706 -1.260916 0.000000000000000e+00 1936876886
1.028365 -0.314196 -2.328704 0.000000000000000e+00 1634890835
0.976336 -0.373314 -2.335405 0.000000000000000e+00 1634890835
0.867538 -0.485024 -2.346894 0.000000000000000e+00 1634890835
0.445512 -0.295348 -1.292096 0.000000000000000e+00 1936876886
0.985316 -0.299552 -2.281271 0.000000000000000e+00 1634890835
0.959925 -0.366218 -2.349719 0.000000000000000e+00 1634890835
0.836340 -0.468523 -2.320257 0.000000000000000e+00 1634890835
0.433212 -0.288331 -1.290213 0.000000000000000e+00 1936876886
0.944428 -0.285637 -2.236395 0.000000000000000e+00 1634890835
0.914196 -0.347957 -2.290829 0.000000000000000e+00 1634890835
0.461858 -0.259279 -1.314648 0.000000000000000e+00 1936876886
0.340715 -0.227705 -1.042571 0.000000000000000e+00 1953264973
0.962099 -0.289412 -2.330928 0.000000000000000e+00 1634890835
0.903005 -0.342861 -2.317321 0.000000000000000e+00 1634890835
0.443098 -0.249292 -1.294672 0.000000000000000e+00 1936876886
0.315384 -0.211686 -0.992080 0.000000000000000e+00 1953264973
0.487497 -0.145818 -1.208840 0.000000000000000e+00 1936876886
0.867199 -0.328429 -2.279994 0.000000000000000e+00 1634890835
0.365220 -0.205947 -1.095962 0.000000000000000e+00 1953264973
0.306359 -0.206556 -0.991251 0.000000000000000e+00 1953264973
0.494954 -0.147174 -1.256656 0.000000000000000e+00 1936876886
0.856123 -0.323372 -2.307043 0.000000000000000e+00 1634890835
0.344756 -0.194873 -1.063090 0.000000000000000e+00 1953264973
0.270006 -0.182905 -0.899170 0.000000000000000e+00 1953264973
0.478697 -0.141460 -1.244926 0.000000000000000e+00 1936876886
0.846649 -0.318904 -2.339503 0.000000000000000e+00 1634890835
0.316001 -0.179067 -1.001875 0.000000000000000e+00 1953264973
0.235005 -0.159983 -0.806020 0.000000000000000e+00 1953264973
