# .PCD v0.7 - Point Cloud Data file format
VERSION 0.7
FIELDS x y z rgb label
SIZE 4 4 4 4 4
TYPE F F F F U
COUNT 1 1 1 1 1
WIDTH 541
HEIGHT 1
VIEWPOINT 0 0 0 1 0 0 0
POINTS 541
DATA ascii
44.412834 -18.782192 10.322319 0.000000000000000e+00 1954047316
35.178234 -13.088628 -1.915681 0.000000000000000e+00 1851878480
33.426441 -13.987018 -1.725085 0.000000000000000e+00 1851878480
30.736591 -15.856585 -1.355619 0.000000000000000e+00 1851878480
29.969574 -17.005640 -1.179098 0.000000000000000e+00 1851878480
31.283806 -11.630831 -1.987592 0.000000000000000e+00 1851878480
30.488367 -12.753134 -1.858639 0.000000000000000e+00 1851878480
29.010803 -14.970890 -1.568770 0.000000000000000e+00 1851878480
28.234901 -16.030785 -1.402132 0.000000000000000e+00 1851878480
29.046099 -10.790698 -2.109293 0.000000000000000e+00 1851878480
28.625031 -11.969537 -2.013026 0.000000000000000e+00 1851878480
27.485514 -14.188171 -1.760627 0.000000000000000e+00 1851878480
26.272533 -14.925424 -1.576022 0.000000000000000e+00 1851878480
27.016443 -10.029049 -2.207557 0.000000000000000e+00 1851878480
26.601028 -11.119289 -2.119965 0.000000000000000e+00 1851878480
25.828165 -13.336768 -1.912562 0.000000000000000e+00 1851878480
24.683960 -14.031219 -1.735996 0.000000000000000e+00 1851878480
24.521469 -9.095946 -2.226898 0.000000000000000e+00 1851878480
24.575661 -10.269073 -2.189114 0.000000000000000e+00 1851878480
23.872417 -12.330703 -2.006614 0.000000000000000e+00 1851878480
23.178665 -13.183359 -1.870182 0.000000000000000e+00 1851878480
22.262541 -8.251735 -2.224639 0.000000000000000e+00 1851878480
22.511650 -9.403316 -2.216721 0.000000000000000e+00 1851878480
21.910664 -11.320930 -2.061286 0.000000000000000e+00 1851878480
21.409407 -12.184260 -1.949509 0.000000000000000e+00 1851878480
20.458485 -7.577272 -2.231052 0.000000000000000e+00 1851878480
20.497171 -8.558828 -2.211166 0.000000000000000e+00 1851878480
20.334259 -10.509681 -2.117084 0.000000000000000e+00 1851878480
19.910280 -11.337822 -2.019891 0.000000000000000e+00 1851878480
18.978828 -7.023876 -2.243139 0.000000000000000e+00 1851878480
18.993395 -7.928113 -2.227893 0.000000000000000e+00 1851878480
19.089268 -9.869290 -2.179415 0.000000000000000e+00 1851878480
18.722916 -10.668009 -2.094364 0.000000000000000e+00 1851878480
17.614538 -6.513971 -2.243133 0.000000000000000e+00 1851878480
17.685724 -7.379663 -2.241424 0.000000000000000e+00 1851878480
17.715248 -9.161769 -2.201029 0.000000000000000e+00 1851878480
17.791342 -10.143250 -2.175777 0.000000000000000e+00 1851878480
16.421480 -6.068113 -2.241794 0.000000000000000e+00 1851878480
16.480206 -6.874210 -2.244477 0.000000000000000e+00 1851878480
16.586069 -8.580479 -2.228198 0.000000000000000e+00 1851878480
16.504869 -9.415416 -2.191038 0.000000000000000e+00 1851878480
15.359719 -5.671409 -2.237971 0.000000000000000e+00 1851878480
15.394679 -6.419131 -2.242499 0.000000000000000e+00 1851878480
15.407267 -7.973143 -2.225748 0.000000000000000e+00 1851878480
15.381727 -8.779950 -2.203167 0.000000000000000e+00 1851878480
14.464985 -5.336914 -2.240783 0.000000000000000e+00 1851878480
14.430287 -6.014868 -2.239043 0.000000000000000e+00 1851878480
14.522926 -7.517865 -2.245314 0.000000000000000e+00 1851878480
14.449677 -8.252874 -2.221515 0.000000000000000e+00 1851878480
13.674971 -5.041541 -2.244587 0.000000000000000e+00 1851878480
13.629388 -5.679015 -2.244495 0.000000000000000e+00 1851878480
13.640144 -7.063115 -2.247555 0.000000000000000e+00 1851878480
13.623635 -7.785758 -2.238077 0.000000000000000e+00 1851878480
12.873415 -4.742356 -2.232094 0.000000000000000e+00 1851878480
12.850840 -5.352695 -2.238900 0.000000000000000e+00 1851878480
12.858783 -6.660614 -2.249943 0.000000000000000e+00 1851878480
12.812310 -7.326505 -2.240197 0.000000000000000e+00 1851878480
12.246033 -4.507730 -2.236872 0.000000000000000e+00 1851878480
12.174517 -5.069178 -2.237542 0.000000000000000e+00 1851878480
12.141787 -6.291217 -2.248676 0.000000000000000e+00 1851878480
12.073557 -6.908239 -2.239017 0.000000000000000e+00 1851878480
11.684405 -4.297645 -2.242922 0.000000000000000e+00 1851878480
11.574362 -4.817554 -2.238279 0.000000000000000e+00 1851878480
11.499176 -5.960142 -2.247636 0.000000000000000e+00 1851878480
11.438812 -6.549010 -2.242953 0.000000000000000e+00 1851878480
11.117386 -4.085889 -2.237737 0.000000000000000e+00 1851878480
11.079888 -4.610074 -2.249264 0.000000000000000e+00 1851878480
10.932299 -5.668123 -2.249353 0.000000000000000e+00 1851878480
10.857018 -6.219697 -2.244727 0.000000000000000e+00 1851878480
10.592647 -3.889981 -2.231175 0.000000000000000e+00 1851878480
10.602177 -4.409714 -2.254613 0.000000000000000e+00 1851878480
10.359204 -5.372703 -2.238419 0.000000000000000e+00 1851878480
10.292830 -5.900086 -2.238304 0.000000000000000e+00 1851878480
10.201118 -3.743252 -2.244406 0.000000000000000e+00 1851878480
10.136915 -4.214668 -2.253831 0.000000000000000e+00 1851878480
9.934731 -5.154214 -2.249665 0.000000000000000e+00 1851878480
9.854058 -5.652030 -2.248808 0.000000000000000e+00 1851878480
9.747022 -3.573796 -2.236235 0.000000000000000e+00 1851878480
9.644052 -4.008288 -2.237951 0.000000000000000e+00 1851878480
9.490449 -4.925300 -2.247785 0.000000000000000e+00 1851878480
9.385560 -5.386620 -2.243168 0.000000000000000e+00 1851878480
9.389024 -3.439805 -2.242772 0.000000000000000e+00 1851878480
9.309679 -3.867900 -2.251134 0.000000000000000e+00 1851878480
9.138852 -4.744363 -2.259946 0.000000000000000e+00 1851878480
8.979248 -5.156607 -2.243343 0.000000000000000e+00 1851878480
9.006001 -3.296850 -2.236638 0.000000000000000e+00 1851878480
8.929236 -3.708473 -2.246531 0.000000000000000e+00 1851878480
8.720537 -4.528664 -2.247936 0.000000000000000e+00 1851878480
8.629987 -4.959099 -2.249980 0.000000000000000e+00 1851878480
8.715949 -3.188125 -2.247524 0.000000000000000e+00 1851878480
8.564923 -3.555858 -2.239024 0.000000000000000e+00 1851878480
8.407531 -4.367539 -2.255776 0.000000000000000e+00 1851878480
8.269582 -4.754955 -2.246388 0.000000000000000e+00 1851878480
8.348669 -3.051331 -2.232551 0.000000000000000e+00 1851878480
8.266582 -3.430726 -2.242580 0.000000000000000e+00 1851878480
8.109202 -4.213944 -2.261491 0.000000000000000e+00 1851878480
7.987082 -4.595391 -2.257331 0.000000000000000e+00 1851878480
8.105350 -2.960011 -2.245210 0.000000000000000e+00 1851878480
8.006344 -3.321491 -2.251297 0.000000000000000e+00 1851878480
7.760503 -4.034064 -2.246690 0.000000000000000e+00 1851878480
7.640605 -4.398801 -2.243686 0.000000000000000e+00 1851878480
7.837798 -2.859980 -2.246572 0.000000000000000e+00 1851878480
7.695113 -3.191184 -2.240343 0.000000000000000e+00 1851878480
7.476444 -3.887689 -2.244253 0.000000000000000e+00 1851878480
7.370522 -4.245986 -2.246072 0.000000000000000e+00 1851878480
7.569016 -2.759657 -2.242735 0.000000000000000e+00 1851878480
7.436300 -3.082695 -2.239313 0.000000000000000e+00 1851878480
7.231261 -3.761444 -2.248212 0.000000000000000e+00 1851878480
7.109947 -4.098474 -2.245874 0.000000000000000e+00 1851878480
7.350448 -2.677775 -2.249384 0.000000000000000e+00 1851878480
7.187275 -2.978341 -2.236491 0.000000000000000e+00 1851878480
7.027159 -3.656494 -2.260505 0.000000000000000e+00 1851878480
6.904960 -3.982840 -2.258451 0.000000000000000e+00 1851878480
7.097489 -2.583501 -2.241253 0.000000000000000e+00 1851878480
7.020909 -2.908298 -2.255563 0.000000000000000e+00 1851878480
6.780012 -3.529076 -2.254471 0.000000000000000e+00 1851878480
6.627272 -3.825115 -2.242250 0.000000000000000e+00 1851878480
6.879158 -2.501957 -2.239779 0.000000000000000e+00 1851878480
6.817077 -2.822788 -2.259205 0.000000000000000e+00 1851878480
6.595064 -3.433963 -2.264818 0.000000000000000e+00 1851878480
6.427049 -3.711940 -2.247280 0.000000000000000e+00 1851878480
6.724682 -2.443742 -2.255768 0.000000000000000e+00 1851878480
6.618382 -2.739464 -2.260814 0.000000000000000e+00 1851878480
6.337421 -3.300933 -2.245765 0.000000000000000e+00 1851878480
6.251674 -3.612988 -2.257155 0.000000000000000e+00 1851878480
6.464609 -2.347270 -2.232577 0.000000000000000e+00 1851878480
6.435410 -2.662703 -2.264254 0.000000000000000e+00 1851878480
6.134618 -3.196387 -2.241485 0.000000000000000e+00 1851878480
6.012461 -3.477005 -2.239668 0.000000000000000e+00 1851878480
6.303584 -2.286882 -2.239753 0.000000000000000e+00 1851878480
6.240141 -2.580911 -2.259842 0.000000000000000e+00 1851878480
5.984943 -3.119469 -2.253123 0.000000000000000e+00 1851878480
5.834989 -3.376582 -2.240816 0.000000000000000e+00 1851878480
6.150269 -2.229375 -2.246874 0.000000000000000e+00 1851878480
6.033094 -2.494302 -2.247373 0.000000000000000e+00 1851878480
5.817222 -3.033092 -2.254843 0.000000000000000e+00 1851878480
5.692482 -3.296286 -2.252120 0.000000000000000e+00 1851878480
5.992412 -2.170308 -2.249557 0.000000000000000e+00 1851878480
5.938982 -2.454432 -2.274210 0.000000000000000e+00 1851878480
5.668496 -2.956573 -2.260791 0.000000000000000e+00 1851878480
5.460314 -3.163940 -2.224014 0.000000000000000e+00 1851878480
5.859772 -2.120456 -2.259122 0.000000000000000e+00 1851878480
5.706677 -2.357498 -2.245083 0.000000000000000e+00 1851878480
5.494390 -2.866761 -2.253391 0.000000000000000e+00 1851878480
5.385535 -3.122694 -2.256851 0.000000000000000e+00 1851878480
5.687242 -2.056251 -2.250561 0.000000000000000e+00 1851878480
5.554471 -2.293710 -2.243796 0.000000000000000e+00 1851878480
5.327694 -2.780762 -2.245580 0.000000000000000e+00 1851878480
5.195096 -3.014293 -2.238521 0.000000000000000e+00 1851878480
5.529567 -1.997511 -2.244860 0.000000000000000e+00 1851878480
5.422788 -2.238435 -2.248166 0.000000000000000e+00 1851878480
5.196323 -2.713151 -2.249670 0.000000000000000e+00 1851878480
5.151500 -2.991022 -2.281125 0.000000000000000e+00 1851878480
5.402562 -1.949930 -2.249041 0.000000000000000e+00 1851878480
5.303988 -2.188520 -2.255586 0.000000000000000e+00 1851878480
5.116779 -2.672570 -2.274194 0.000000000000000e+00 1851878480
4.943208 -2.872039 -2.248226 0.000000000000000e+00 1851878480
5.277731 -1.903202 -2.251879 0.000000000000000e+00 1851878480
5.120603 -2.111996 -2.232676 0.000000000000000e+00 1851878480
4.909595 -2.565274 -2.239086 0.000000000000000e+00 1851878480
4.813617 -2.798663 -2.247492 0.000000000000000e+00 1851878480
5.096208 -1.836118 -2.227698 0.000000000000000e+00 1851878480
5.031845 -2.074543 -2.248468 0.000000000000000e+00 1851878480
4.828999 -2.524073 -2.258781 0.000000000000000e+00 1851878480
4.630740 -2.694196 -2.218526 0.000000000000000e+00 1851878480
5.038085 -1.813562 -2.255313 0.000000000000000e+00 1851878480
4.921463 -2.028201 -2.252814 0.000000000000000e+00 1851878480
4.727323 -2.471823 -2.266900 0.000000000000000e+00 1851878480
4.564418 -2.657458 -2.242798 0.000000000000000e+00 1851878480
4.903771 -1.763631 -2.247155 0.000000000000000e+00 1851878480
4.834411 -1.991503 -2.266067 0.000000000000000e+00 1851878480
4.623581 -2.418465 -2.272028 0.000000000000000e+00 1851878480
4.416679 -2.573246 -2.224869 0.000000000000000e+00 1851878480
4.749532 -1.706611 -2.227168 0.000000000000000e+00 1851878480
4.696363 -1.933830 -2.253325 0.000000000000000e+00 1851878480
4.488448 -2.348647 -2.259318 0.000000000000000e+00 1851878480
4.375241 -2.550904 -2.258591 0.000000000000000e+00 1851878480
4.640442 -1.665895 -2.225905 0.000000000000000e+00 1851878480
4.597309 -1.892247 -2.257051 0.000000000000000e+00 1851878480
4.364476 -2.284627 -2.249546 0.000000000000000e+00 1851878480
4.258300 -2.484492 -2.251804 0.000000000000000e+00 1851878480
4.565831 -1.637603 -2.239572 0.000000000000000e+00 1851878480
4.484869 -1.845187 -2.252235 0.000000000000000e+00 1851878480
4.313621 -2.258854 -2.275782 0.000000000000000e+00 1851878480
4.125199 -2.408565 -2.233771 0.000000000000000e+00 1851878480
4.489795 -1.608844 -2.251283 0.000000000000000e+00 1851878480
4.403162 -1.810797 -2.261062 0.000000000000000e+00 1851878480
4.179061 -2.189217 -2.256032 0.000000000000000e+00 1851878480
4.000780 -2.337614 -2.217616 0.000000000000000e+00 1851878480
4.378135 -1.567366 -2.243459 0.000000000000000e+00 1851878480
4.297692 -1.766661 -2.255962 0.000000000000000e+00 1851878480
4.078146 -2.137166 -2.251992 0.000000000000000e+00 1851878480
3.964231 -2.317950 -2.248563 0.000000000000000e+00 1851878480
4.318278 -1.544484 -2.260673 0.000000000000000e+00 1851878480
4.180775 -1.717855 -2.242708 0.000000000000000e+00 1851878480
4.007318 -2.100857 -2.262879 0.000000000000000e+00 1851878480
3.897106 -2.280382 -2.261288 0.000000000000000e+00 1851878480
4.221844 -1.508557 -2.257389 0.000000000000000e+00 1851878480
4.129465 -1.696029 -2.263115 0.000000000000000e+00 1851878480
3.899756 -2.045261 -2.251237 0.000000000000000e+00 1851878480
3.749830 -2.195835 -2.225169 0.000000000000000e+00 1851878480
4.110940 -1.467522 -2.244435 0.000000000000000e+00 1851878480
4.034525 -1.656306 -2.258318 0.000000000000000e+00 1851878480
3.846846 -2.018302 -2.269572 0.000000000000000e+00 1851878480
3.721881 -2.181107 -2.258023 0.000000000000000e+00 1851878480
4.013918 -1.431502 -2.237106 0.000000000000000e+00 1851878480
3.937667 -1.615822 -2.250610 0.000000000000000e+00 1851878480
3.667363 -1.924894 -2.210718 0.000000000000000e+00 1851878480
3.595361 -2.108560 -2.229491 0.000000000000000e+00 1851878480
4.015117 -1.430533 -2.283828 0.000000000000000e+00 1634890835
3.893699 -1.597061 -2.271882 0.000000000000000e+00 1851878480
3.691673 -1.938428 -2.273178 0.000000000000000e+00 1851878480
3.570815 -2.095766 -2.262645 0.000000000000000e+00 1851878480
3.950577 -1.406150 -2.292838 0.000000000000000e+00 1634890835
3.774878 -1.547623 -2.247957 0.000000000000000e+00 1851878480
3.605063 -1.893710 -2.266993 0.000000000000000e+00 1851878480
3.475680 -2.041506 -2.249931 0.000000000000000e+00 1851878480
3.864584 -1.374174 -2.288062 0.000000000000000e+00 1634890835
3.696943 -1.514977 -2.246429 0.000000000000000e+00 1851878480
3.528940 -1.854478 -2.265737 0.000000000000000e+00 1851878480
3.424143 -2.012805 -2.263920 0.000000000000000e+00 1851878480
3.804325 -1.351390 -2.297228 0.000000000000000e+00 1634890835
3.630049 -1.486877 -2.250277 0.000000000000000e+00 1851878480
3.447997 -1.812688 -2.259780 0.000000000000000e+00 1851878480
3.334718 -1.961784 -2.251400 0.000000000000000e+00 1851878480
3.699012 -1.312647 -2.277653 0.000000000000000e+00 1634890835
3.559895 -1.457462 -2.250852 0.000000000000000e+00 1851878480
3.383599 -1.779572 -2.263199 0.000000000000000e+00 1851878480
3.257324 -1.917783 -2.245166 0.000000000000000e+00 1851878480
3.641900 -1.291055 -2.286245 0.000000000000000e+00 1634890835
3.497766 -1.431347 -2.255297 0.000000000000000e+00 1851878480
3.327135 -1.750608 -2.270776 0.000000000000000e+00 1851878480
3.189301 -1.879244 -2.243835 0.000000000000000e+00 1851878480
3.586171 -1.269982 -2.294776 0.000000000000000e+00 1634890835
3.451950 -1.411926 -2.269352 0.000000000000000e+00 1634890835
3.259826 -1.715920 -2.269749 0.000000000000000e+00 1851878480
3.142854 -1.853383 -2.256557 0.000000000000000e+00 1851878480
3.556698 -1.258225 -2.319510 0.000000000000000e+00 1634890835
3.437124 -1.405182 -2.303464 0.000000000000000e+00 1634890835
3.199723 -1.685003 -2.272473 0.000000000000000e+00 1851878480
3.084766 -1.820625 -2.259923 0.000000000000000e+00 1851878480
3.462102 -1.223465 -2.300691 0.000000000000000e+00 1634890835
3.355759 -1.371250 -2.292212 0.000000000000000e+00 1634890835
3.108044 -1.637433 -2.251148 0.000000000000000e+00 1851878480
2.994860 -1.769033 -2.238331 0.000000000000000e+00 1851878480
3.367043 -1.188600 -2.279654 0.000000000000000e+00 1634890835
3.296393 -1.346329 -2.294633 0.000000000000000e+00 1634890835
3.088776 -1.627996 -2.281211 0.000000000000000e+00 1851878480
2.916529 -1.724214 -2.223420 0.000000000000000e+00 1851878480
3.313517 -1.168436 -2.285321 0.000000000000000e+00 1634890835
3.228916 -1.318111 -2.290219 0.000000000000000e+00 1634890835
3.004535 -1.584296 -2.262319 0.000000000000000e+00 1851878480
2.884673 -1.706833 -2.242819 0.000000000000000e+00 1851878480
3.231322 -1.138205 -2.269946 0.000000000000000e+00 1634890835
3.166779 -1.292094 -2.288354 0.000000000000000e+00 1634890835
2.948287 -1.555334 -2.262989 0.000000000000000e+00 1851878480
2.807119 -1.662376 -2.225560 0.000000000000000e+00 1851878480
3.225680 -1.134958 -2.307682 0.000000000000000e+00 1634890835
3.139243 -1.280205 -2.310776 0.000000000000000e+00 1634890835
2.872291 -1.515930 -2.247084 0.000000000000000e+00 1851878480
2.782562 -1.649272 -2.249296 0.000000000000000e+00 1851878480
3.133265 -1.101205 -2.282532 0.000000000000000e+00 1634890835
3.086297 -1.257965 -2.313896 0.000000000000000e+00 1634890835
2.828143 -1.493317 -2.254842 0.000000000000000e+00 1851878480
2.743353 -1.627467 -2.260746 0.000000000000000e+00 1851878480
3.126496 -1.097578 -2.318950 0.000000000000000e+00 1634890835
3.062196 -1.247488 -2.338088 0.000000000000000e+00 1634890835
2.762817 -1.459500 -2.244605 0.000000000000000e+00 1851878480
0.844483 -0.501430 -0.709380 0.000000000000000e+00 1886740808
2.987057 -1.047421 -2.255497 0.000000000000000e+00 1634890835
2.946951 -1.199904 -2.291260 0.000000000000000e+00 1634890835
2.747243 -1.451958 -2.274102 0.000000000000000e+00 1851878480
0.823872 -0.489634 -0.705371 0.000000000000000e+00 1886740808
2.928337 -1.025636 -2.250811 0.000000000000000e+00 1634890835
2.881851 -1.172770 -2.281397 0.000000000000000e+00 1634890835
0.873221 -0.461730 -0.736405 0.000000000000000e+00 1886740808
0.810281 -0.481999 -0.706999 0.000000000000000e+00 1886740808
2.929183 -1.024722 -2.291610 0.000000000000000e+00 1634890835
2.857772 -1.162337 -2.303255 0.000000000000000e+00 1634890835
0.889361 -0.470491 -0.764027 0.000000000000000e+00 1886740808
0.805321 -0.479494 -0.716039 0.000000000000000e+00 1886740808
2.875142 -1.004614 -2.289229 0.000000000000000e+00 1634890835
2.746103 -1.116305 -2.253079 0.000000000000000e+00 1634890835
0.856741 -0.453457 -0.749687 0.000000000000000e+00 1886740808
0.796809 -0.474873 -0.721884 0.000000000000000e+00 1886740808
2.848745 -0.994186 -2.308244 0.000000000000000e+00 1634890835
2.757758 -1.120418 -2.303158 0.000000000000000e+00 1634890835
0.874300 -0.462980 -0.779208 0.000000000000000e+00 1886740808
0.769690 -0.459149 -0.710459 0.000000000000000e+00 1886740808
2.757707 -0.961231 -2.273731 0.000000000000000e+00 1634890835
0.829518 -0.336825 -0.705127 0.000000000000000e+00 1886740808
0.764481 -0.405030 -0.693888 0.000000000000000e+00 1886740808
0.751553 -0.448765 -0.706743 0.000000000000000e+00 1886740808
0.821676 -0.286048 -0.689321 0.000000000000000e+00 1886740808
0.853142 -0.346219 -0.738080 0.000000000000000e+00 1886740808
0.794391 -0.421091 -0.734271 0.000000000000000e+00 1886740808
0.738414 -0.441352 -0.707376 0.000000000000000e+00 1886740808
0.850187 -0.295600 -0.725664 0.000000000000000e+00 1886740808
0.809820 -0.328447 -0.712989 0.000000000000000e+00 1886740808
0.750689 -0.398131 -0.706568 0.000000000000000e+00 1886740808
0.721286 -0.431545 -0.703849 0.000000000000000e+00 1886740808
0.807077 -0.280252 -0.700822 0.000000000000000e+00 1886740808
0.816901 -0.331123 -0.731893 0.000000000000000e+00 1886740808
0.745079 -0.395364 -0.714073 0.000000000000000e+00 1886740808
0.739381 -0.442818 -0.734915 0.000000000000000e+00 1886740808
0.803077 -0.278500 -0.709408 0.000000000000000e+00 1886740808
0.783400 -0.317355 -0.714204 0.000000000000000e+00 1886740808
0.782732 -0.415565 -0.763795 0.000000000000000e+00 1886740808
0.768575 -0.460776 -0.778093 0.000000000000000e+00 1886740808
0.799608 -0.276931 -0.718520 0.000000000000000e+00 1886740808
0.764445 -0.309488 -0.709125 0.000000000000000e+00 1886740808
0.765966 -0.406884 -0.760987 0.000000000000000e+00 1886740808
0.793274 -0.476080 -0.817950 0.000000000000000e+00 1886740808
0.801652 -0.277266 -0.732739 0.000000000000000e+00 1886740808
0.769094 -0.311178 -0.725894 0.000000000000000e+00 1886740808
0.752389 -0.399891 -0.761020 0.000000000000000e+00 1886740808
0.757309 -0.454976 -0.795276 0.000000000000000e+00 1886740808
0.735877 -0.254171 -0.684151 0.000000000000000e+00 1886740808
0.790989 -0.319837 -0.759563 0.000000000000000e+00 1886740808
0.785428 -0.417684 -0.808781 0.000000000000000e+00 1886740808
0.754308 -0.453661 -0.806718 0.000000000000000e+00 1886740808
0.734925 -0.253491 -0.694955 0.000000000000000e+00 1886740808
0.737775 -0.298130 -0.720779 0.000000000000000e+00 1886740808
0.771877 -0.410711 -0.809156 0.000000000000000e+00 1886740808
2.117484 -1.274906 -2.306274 0.000000000000000e+00 1634890835
0.790190 -0.272170 -0.759971 0.000000000000000e+00 1886740808
0.801360 -0.323615 -0.796485 0.000000000000000e+00 1886740808
0.774476 -0.412331 -0.826496 0.000000000000000e+00 1886740808
2.051277 -1.236416 -2.275226 0.000000000000000e+00 1634890835
0.777036 -0.267257 -0.760058 0.000000000000000e+00 1886740808
0.737890 -0.297788 -0.746110 0.000000000000000e+00 1886740808
2.128711 -1.133989 -2.312548 0.000000000000000e+00 1634890835
2.060555 -1.243413 -2.327494 0.000000000000000e+00 1634890835
0.751273 -0.258020 -0.747366 0.000000000000000e+00 1886740808
0.746274 -0.300971 -0.767647 0.000000000000000e+00 1886740808
2.088815 -1.113400 -2.309991 0.000000000000000e+00 1634890835
0.842649 -0.509069 -0.969285 0.000000000000000e+00 1886740808
0.757986 -0.259941 -0.766865 0.000000000000000e+00 1886740808
0.771659 -0.310998 -0.807485 0.000000000000000e+00 1886740808
2.068869 -1.103435 -2.329039 0.000000000000000e+00 1634890835
0.828948 -0.501378 -0.971030 0.000000000000000e+00 1886740808
0.751265 -0.257249 -0.772978 0.000000000000000e+00 1886740808
0.751677 -0.302735 -0.800169 0.000000000000000e+00 1886740808
2.021397 -1.078780 -2.316480 0.000000000000000e+00 1634890835
0.770955 -0.466856 -0.919680 0.000000000000000e+00 1886740808
0.742358 -0.253811 -0.776783 0.000000000000000e+00 1886740808
2.099729 -0.845063 -2.273808 0.000000000000000e+00 1634890835
0.776502 -0.414665 -0.905848 0.000000000000000e+00 1886740808
0.782385 -0.474352 -0.950465 0.000000000000000e+00 1886740808
0.766421 -0.261630 -0.815577 0.000000000000000e+00 1886740808
2.094056 -0.842178 -2.306847 0.000000000000000e+00 1634890835
0.788573 -0.421379 -0.936472 0.000000000000000e+00 1886740808
0.756030 -0.458939 -0.935339 0.000000000000000e+00 1886740808
0.753634 -0.256856 -0.815585 0.000000000000000e+00 1886740808
2.038778 -0.819349 -2.284771 0.000000000000000e+00 1634890835
0.763471 -0.408231 -0.922980 0.000000000000000e+00 1886740808
1.816757 -1.104228 -2.289027 0.000000000000000e+00 1634890835
2.083100 -0.708823 -2.292625 0.000000000000000e+00 1634890835
2.030151 -0.815276 -2.314452 0.000000000000000e+00 1634890835
0.795100 -0.425426 -0.978540 0.000000000000000e+00 1886740808
1.765845 -1.074658 -2.265914 0.000000000000000e+00 1634890835
2.027713 -0.688841 -2.269594 0.000000000000000e+00 1634890835
2.009593 -0.806410 -2.330678 0.000000000000000e+00 1634890835
0.805026 -0.431027 -1.008637 0.000000000000000e+00 1886740808
0.774831 -0.472162 -1.012626 0.000000000000000e+00 1886740808
2.027119 -0.687482 -2.307528 0.000000000000000e+00 1634890835
1.977094 -0.792758 -2.332731 0.000000000000000e+00 1634890835
0.782957 -0.419500 -0.998726 0.000000000000000e+00 1886740808
1.705601 -1.040733 -2.270333 0.000000000000000e+00 1634890835
1.993245 -0.674836 -2.307614 0.000000000000000e+00 1634890835
0.792091 -0.317357 -0.950795 0.000000000000000e+00 1886740808
1.746395 -0.936357 -2.268042 0.000000000000000e+00 1634890835
1.681024 -1.027130 -2.279166 0.000000000000000e+00 1634890835
1.948905 -0.658673 -2.294769 0.000000000000000e+00 1634890835
0.775387 -0.310415 -0.946931 0.000000000000000e+00 1886740808
0.789400 -0.423552 -1.043820 0.000000000000000e+00 1886740808
1.669416 -1.021450 -2.305575 0.000000000000000e+00 1634890835
1.922174 -0.648481 -2.301974 0.000000000000000e+00 1634890835
0.796493 -0.318604 -0.989660 0.000000000000000e+00 1886740808
1.704253 -0.915082 -2.294580 0.000000000000000e+00 1634890835
1.653777 -1.013312 -2.326646 0.000000000000000e+00 1634890835
0.812173 -0.273503 -0.989307 0.000000000000000e+00 1886740808
0.766907 -0.306513 -0.969547 0.000000000000000e+00 1886740808
1.682235 -0.903934 -2.306335 0.000000000000000e+00 1634890835
1.596455 -0.979602 -2.288113 0.000000000000000e+00 1634890835
0.805366 -0.270707 -0.997857 0.000000000000000e+00 1886740808
0.791870 -0.316221 -1.018645 0.000000000000000e+00 1886740808
1.634502 -0.878953 -2.281995 0.000000000000000e+00 1634890835
1.574559 -0.967592 -2.299208 0.000000000000000e+00 1634890835
0.828372 -0.277912 -1.044030 0.000000000000000e+00 1886740808
0.777198 -0.310092 -1.017340 0.000000000000000e+00 1886740808
1.578172 -0.849323 -2.243919 0.000000000000000e+00 1634890835
1.536631 -0.945707 -2.286240 0.000000000000000e+00 1634890835
0.765463 -0.256308 -0.981400 0.000000000000000e+00 1886740808
1.737920 -0.692791 -2.315023 0.000000000000000e+00 1634890835
1.591888 -0.857385 -2.305268 0.000000000000000e+00 1634890835
1.510125 -0.930827 -2.289471 0.000000000000000e+00 1634890835
0.797433 -0.266484 -1.040101 0.000000000000000e+00 1886740808
1.688839 -0.672614 -2.289456 0.000000000000000e+00 1634890835
1.598842 -0.861830 -2.358337 0.000000000000000e+00 1634890835
1.468706 -0.906723 -2.269174 0.000000000000000e+00 1634890835
0.788069 -0.262820 -1.045758 0.000000000000000e+00 1886740808
0.791511 -0.314942 -1.092068 0.000000000000000e+00 1886740808
1.551297 -0.836897 -2.330910 0.000000000000000e+00 1634890835
1.452771 -0.898330 -2.287618 0.000000000000000e+00 1634890835
1.681987 -0.559775 -2.270934 0.000000000000000e+00 1634890835
1.659490 -0.659684 -2.330501 0.000000000000000e+00 1634890835
1.509659 -0.815127 -2.310898 0.000000000000000e+00 1634890835
1.426982 -0.883840 -2.290370 0.000000000000000e+00 1634890835
0.752206 -0.249807 -1.033394 0.000000000000000e+00 1886740808
1.601634 -0.636065 -2.289572 0.000000000000000e+00 1634890835
1.484494 -0.802239 -2.315240 0.000000000000000e+00 1634890835
1.421900 -0.882181 -2.326517 0.000000000000000e+00 1634890835
1.618918 -0.536471 -2.263259 0.000000000000000e+00 1634890835
1.593388 -0.632159 -2.318820 0.000000000000000e+00 1634890835
1.466227 -0.793073 -2.330137 0.000000000000000e+00 1634890835
1.363831 -0.847617 -2.275101 0.000000000000000e+00 1634890835
1.606557 -0.531188 -2.285720 0.000000000000000e+00 1634890835
1.562491 -0.619269 -2.315041 0.000000000000000e+00 1634890835
1.420567 -0.769078 -2.300676 0.000000000000000e+00 1634890835
1.345102 -0.837459 -2.287994 0.000000000000000e+00 1634890835
1.574559 -0.519419 -2.280040 0.000000000000000e+00 1634890835
1.526407 -0.604335 -2.302768 0.000000000000000e+00 1634890835
1.403902 -0.760767 -2.317381 0.000000000000000e+00 1634890835
1.332355 -0.831032 -2.311212 0.000000000000000e+00 1634890835
1.524301 -0.501660 -2.246738 0.000000000000000e+00 1634890835
1.486343 -0.587841 -2.283409 0.000000000000000e+00 1634890835
1.368466 -0.742277 -2.302602 0.000000000000000e+00 1634890835
1.280828 -0.800382 -2.266177 0.000000000000000e+00 1634890835
1.524173 -0.500411 -2.286960 0.000000000000000e+00 1634890835
1.472910 -0.581888 -2.304490 0.000000000000000e+00 1634890835
1.338787 -0.726893 -2.296575 0.000000000000000e+00 1634890835
1.281947 -0.802616 -2.313792 0.000000000000000e+00 1634890835
1.500682 -0.491480 -2.292466 0.000000000000000e+00 1634890835
1.469390 -0.579842 -2.341649 0.000000000000000e+00 1634890835
1.322440 -0.718743 -2.313096 0.000000000000000e+00 1634890835
1.247912 -0.782843 -2.298055 0.000000000000000e+00 1634890835
1.439122 -0.470125 -2.238474 0.000000000000000e+00 1634890835
1.401926 -0.552580 -2.275890 0.000000000000000e+00 1634890835
1.315035 -0.715461 -2.345692 0.000000000000000e+00 1634890835
1.220664 -0.767296 -2.293879 0.000000000000000e+00 1634890835
1.424786 -0.464228 -2.256821 0.000000000000000e+00 1634890835
1.402239 -0.552045 -2.319252 0.000000000000000e+00 1634890835
1.290067 -0.702625 -2.347111 0.000000000000000e+00 1634890835
1.190970 -0.750183 -2.284297 0.000000000000000e+00 1634890835
1.433898 -0.465944 -2.313211 0.000000000000000e+00 1634890835
1.354621 -0.532646 -2.282997 0.000000000000000e+00 1634890835
1.232428 -0.671968 -2.287423 0.000000000000000e+00 1634890835
1.164656 -0.735173 -2.280401 0.000000000000000e+00 1634890835
1.361044 -0.441052 -2.236546 0.000000000000000e+00 1634890835
1.322586 -0.519395 -2.271632 0.000000000000000e+00 1634890835
1.226704 -0.669603 -2.323098 0.000000000000000e+00 1634890835
1.140903 -0.721763 -2.280934 0.000000000000000e+00 1634890835
1.359217 -0.439210 -2.275439 0.000000000000000e+00 1634890835
1.302446 -0.510823 -2.280179 0.000000000000000e+00 1634890835
1.194597 -0.652833 -2.308743 0.000000000000000e+00 1634890835
1.136737 -0.720753 -2.320961 0.000000000000000e+00 1634890835
1.343634 -0.432904 -2.291892 0.000000000000000e+00 1634890835
1.308148 -0.512375 -2.334713 0.000000000000000e+00 1634890835
1.185214 -0.648480 -2.338115 0.000000000000000e+00 1634890835
1.077892 -0.685033 -2.248148 0.000000000000000e+00 1634890835
1.312674 -0.421655 -2.281795 0.000000000000000e+00 1634890835
1.292176 -0.505424 -2.351483 0.000000000000000e+00 1634890835
1.151973 -0.631068 -2.320167 0.000000000000000e+00 1634890835
1.075040 -0.684862 -2.290975 0.000000000000000e+00 1634890835
1.287084 -0.412151 -2.280372 0.000000000000000e+00 1634890835
1.263919 -0.493672 -2.345648 0.000000000000000e+00 1634890835
1.106261 -0.606795 -2.275306 0.000000000000000e+00 1634890835
1.063761 -0.679354 -2.316831 0.000000000000000e+00 1634890835
1.272705 -0.406239 -2.298697 0.000000000000000e+00 1634890835
1.215492 -0.474064 -2.300928 0.000000000000000e+00 1634890835
1.115106 -0.612448 -2.342647 0.000000000000000e+00 1634890835
1.031993 -0.660750 -2.297717 0.000000000000000e+00 1634890835
1.231726 -0.391859 -2.268322 0.000000000000000e+00 1634890835
1.212542 -0.472202 -2.341769 0.000000000000000e+00 1634890835
1.063719 -0.585015 -2.283149 0.000000000000000e+00 1634890835
1.012146 -0.649753 -2.304375 0.000000000000000e+00 1634890835
1.247703 -0.395583 -2.343270 0.000000000000000e+00 1634890835
1.188263 -0.462027 -2.341794 0.000000000000000e+00 1634890835
1.050572 -0.578591 -2.304429 0.000000000000000e+00 1634890835
0.999093 -0.643124 -2.326661 0.000000000000000e+00 1634890835
1.209620 -0.382152 -2.317230 0.000000000000000e+00 1634890835
1.156599 -0.448992 -2.326511 0.000000000000000e+00 1634890835
1.033138 -0.569810 -2.316571 0.000000000000000e+00 1634890835
0.976154 -0.630131 -2.325929 0.000000000000000e+00 1634890835
1.175708 -0.370080 -2.297856 0.000000000000000e+00 1634890835
1.124191 -0.435686 -2.308615 0.000000000000000e+00 1634890835
0.996293 -0.550309 -2.284284 0.000000000000000e+00 1634890835
0.942327 -0.610070 -2.298115 0.000000000000000e+00 1634890835
1.151104 -0.360962 -2.295823 0.000000000000000e+00 1634890835
1.095121 -0.423689 -2.296517 0.000000000000000e+00 1634890835
0.984044 -0.544384 -2.307733 0.000000000000000e+00 1634890835
0.926524 -0.601653 -2.313483 0.000000000000000e+00 1634890835
1.128109 -0.352362 -2.296560 0.000000000000000e+00 1634890835
1.068629 -0.412703 -2.288987 0.000000000000000e+00 1634890835
0.962731 -0.533445 -2.310055 0.000000000000000e+00 1634890835
0.929964 -0.605780 -2.378329 0.000000000000000e+00 1634890835
1.086142 -0.337871 -2.257481 0.000000000000000e+00 1634890835
1.040215 -0.400987 -2.276499 0.000000000000000e+00 1634890835
0.955081 -0.530085 -2.345584 0.000000000000000e+00 1634890835
0.858616 -0.561122 -2.249909 0.000000000000000e+00 1634890835
1.086531 -0.336564 -2.306234 0.000000000000000e+00 1634890835
1.026384 -0.394896 -2.295651 0.000000000000000e+00 1634890835
0.915697 -0.509102 -2.302552 0.000000000000000e+00 1634890835
0.836780 -0.548699 -2.247559 0.000000000000000e+00 1634890835
1.064199 -0.328198 -2.307420 0.000000000000000e+00 1634890835
1.008417 -0.387213 -2.305788 0.000000000000000e+00 1634890835
0.928515 -0.517151 -2.391417 0.000000000000000e+00 1634890835
0.825389 -0.543129 -2.273390 0.000000000000000e+00 1634890835
1.034284 -0.317515 -2.291448 0.000000000000000e+00 1634890835
0.977060 -0.374396 -2.284650 0.000000000000000e+00 1634890835
0.869654 -0.485268 -2.295050 0.000000000000000e+00 1634890835
0.469164 -0.309849 -1.325708 0.000000000000000e+00 1936876886
1.037621 -0.317024 -2.349664 0.000000000000000e+00 1634890835
0.978513 -0.374146 -2.340612 0.000000000000000e+00 1634890835
0.843151 -0.471390 -2.280920 0.000000000000000e+00 1634890835
0.435358 -0.288616 -1.262645 0.000000000000000e+00 1936876886
1.001289 -0.304408 -2.318253 0.000000000000000e+00 1634890835
0.917220 -0.349925 -2.245185 0.000000000000000e+00 1634890835
0.821248 -0.460069 -2.278386 0.000000000000000e+00 1634890835
0.427139 -0.284289 -1.272128 0.000000000000000e+00 1936876886
0.958901 -0.290014 -2.270665 0.000000000000000e+00 1634890835
0.931415 -0.354511 -2.333979 0.000000000000000e+00 1634890835
0.470472 -0.264115 -1.339169 0.000000000000000e+00 1936876886
0.346621 -0.231652 -1.060642 0.000000000000000e+00 1953264973
0.934856 -0.281217 -2.264923 0.000000000000000e+00 1634890835
0.909918 -0.345486 -2.335063 0.000000000000000e+00 1634890835
0.438434 -0.246668 -1.281044 0.000000000000000e+00 1936876886
0.325639 -0.218569 -1.024337 0.000000000000000e+00 1953264973
0.500674 -0.149760 -1.241515 0.000000000000000e+00 1936876886
0.866709 -0.328244 -2.278705 0.000000000000000e+00 1634890835
0.372797 -0.210220 -1.118702 0.000000000000000e+00 1953264973
0.302288 -0.203811 -0.978077 0.000000000000000e+00 1953264973
0.480517 -0.142882 -1.220003 0.000000000000000e+00 1936876886
0.848493 -0.320490 -2.286480 0.000000000000000e+00 1634890835
0.347180 -0.196243 -1.070565 0.000000000000000e+00 1953264973
0.266093 -0.180254 -0.886138 0.000000000000000e+00 1953264973
0.472916 -0.139752 -1.229890 0.000000000000000e+00 1936876886
0.828629 -0.312117 -2.289710 0.000000000000000e+00 1634890835
0.324934 -0.184129 -1.030197 0.000000000000000e+00 1953264973
0.247415 -0.168432 -0.848584 0.000000000000000e+00 1953264973
