# .PCD v0.7 - Point Cloud Data file format
VERSION 0.7
FIELDS x y z rgb label
SIZE 4 4 4 4 4
TYPE F F F F U
COUNT 1 1 1 1 1
WIDTH 529
HEIGHT 1
VIEWPOINT 0 0 0 1 0 0 0
POINTS 529
DATA ascii
30.775534 -11.433187 -2.234883 0.000000000000000e+00 1851878480
31.864559 -13.324144 -2.240844 0.000000000000000e+00 1851878480
26.872261 -9.975527 -2.195776 0.000000000000000e+00 1851878480
26.569349 -11.106047 -2.117440 0.000000000000000e+00 1851878480
25.874249 -13.360565 -1.915974 0.000000000000000e+00 1851878480
25.053101 -14.241053 -1.761957 0.000000000000000e+00 1851878480
24.250763 -8.995532 -2.202313 0.000000000000000e+00 1851878480
24.313204 -10.159404 -2.165735 0.000000000000000e+00 1851878480
23.422459 -12.098287 -1.968793 0.000000000000000e+00 1851878480
22.868464 -13.006927 -1.845153 0.000000000000000e+00 1851878480
22.093426 -8.189051 -2.207740 0.000000000000000e+00 1851878480
22.169390 -9.260350 -2.183018 0.000000000000000e+00 1851878480
21.686182 -11.204945 -2.040169 0.000000000000000e+00 1851878480
21.255148 -12.096471 -1.935462 0.000000000000000e+00 1851878480
20.372581 -7.545456 -2.221684 0.000000000000000e+00 1851878480
20.371069 -8.506173 -2.197563 0.000000000000000e+00 1851878480
20.358286 -10.522099 -2.119587 0.000000000000000e+00 1851878480
19.948017 -11.359310 -2.023719 0.000000000000000e+00 1851878480
18.913076 -6.999543 -2.235368 0.000000000000000e+00 1851878480
18.881891 -7.881570 -2.214814 0.000000000000000e+00 1851878480
19.080307 -9.864658 -2.178392 0.000000000000000e+00 1851878480
18.872753 -10.753384 -2.111126 0.000000000000000e+00 1851878480
17.577663 -6.500334 -2.238437 0.000000000000000e+00 1851878480
17.599936 -7.343866 -2.230551 0.000000000000000e+00 1851878480
17.711855 -9.160014 -2.200607 0.000000000000000e+00 1851878480
17.900019 -10.205209 -2.189068 0.000000000000000e+00 1851878480
16.396889 -6.059026 -2.238437 0.000000000000000e+00 1851878480
16.435156 -6.855419 -2.238341 0.000000000000000e+00 1851878480
16.541710 -8.557530 -2.222239 0.000000000000000e+00 1851878480
16.676029 -9.513056 -2.213759 0.000000000000000e+00 1851878480
15.362925 -5.672592 -2.238438 0.000000000000000e+00 1851878480
15.366798 -6.407506 -2.238438 0.000000000000000e+00 1851878480
15.446255 -7.993319 -2.231380 0.000000000000000e+00 1851878480
15.541070 -8.870903 -2.225990 0.000000000000000e+00 1851878480
14.449849 -5.331330 -2.238438 0.000000000000000e+00 1851878480
14.426387 -6.013242 -2.238438 0.000000000000000e+00 1851878480
14.452867 -7.481597 -2.234483 0.000000000000000e+00 1851878480
14.499163 -8.281138 -2.229123 0.000000000000000e+00 1851878480
13.637508 -5.027730 -2.238438 0.000000000000000e+00 1851878480
13.592607 -5.663689 -2.238438 0.000000000000000e+00 1851878480
13.577052 -7.030445 -2.237159 0.000000000000000e+00 1851878480
13.587810 -7.765285 -2.232192 0.000000000000000e+00 1851878480
12.910004 -4.755834 -2.238438 0.000000000000000e+00 1851878480
12.848190 -5.351592 -2.238439 0.000000000000000e+00 1851878480
12.793028 -6.626554 -2.238437 0.000000000000000e+00 1851878480
12.784114 -7.310381 -2.235266 0.000000000000000e+00 1851878480
12.254605 -4.510886 -2.238438 0.000000000000000e+00 1851878480
12.179390 -5.071207 -2.238438 0.000000000000000e+00 1851878480
12.086508 -6.262575 -2.238438 0.000000000000000e+00 1851878480
12.068109 -6.905122 -2.238006 0.000000000000000e+00 1851878480
11.661043 -4.289052 -2.238438 0.000000000000000e+00 1851878480
11.575185 -4.817896 -2.238438 0.000000000000000e+00 1851878480
11.452116 -5.935750 -2.238437 0.000000000000000e+00 1851878480
11.415785 -6.535826 -2.238438 0.000000000000000e+00 1851878480
11.120868 -4.087169 -2.238438 0.000000000000000e+00 1851878480
11.026559 -4.587884 -2.238438 0.000000000000000e+00 1851878480
10.879249 -5.640618 -2.238438 0.000000000000000e+00 1851878480
10.826599 -6.202271 -2.238438 0.000000000000000e+00 1851878480
10.627125 -3.902643 -2.238438 0.000000000000000e+00 1851878480
10.526113 -4.378077 -2.238438 0.000000000000000e+00 1851878480
10.359293 -5.372749 -2.238438 0.000000000000000e+00 1851878480
10.293449 -5.900441 -2.238438 0.000000000000000e+00 1851878480
10.173993 -3.733299 -2.238438 0.000000000000000e+00 1851878480
10.067680 -4.185881 -2.238438 0.000000000000000e+00 1851878480
9.885149 -5.128490 -2.238438 0.000000000000000e+00 1851878480
9.808616 -5.625966 -2.238438 0.000000000000000e+00 1851878480
9.756623 -3.577317 -2.238438 0.000000000000000e+00 1851878480
9.646152 -4.009161 -2.238438 0.000000000000000e+00 1851878480
9.450989 -4.904820 -2.238439 0.000000000000000e+00 1851878480
9.365776 -5.375266 -2.238439 0.000000000000000e+00 1851878480
9.370881 -3.433159 -2.238438 0.000000000000000e+00 1851878480
9.257172 -3.846085 -2.238438 0.000000000000000e+00 1851878480
9.051878 -4.699211 -2.238438 0.000000000000000e+00 1851878480
8.959618 -5.145334 -2.238439 0.000000000000000e+00 1851878480
9.013248 -3.299504 -2.238437 0.000000000000000e+00 1851878480
8.897067 -3.695113 -2.238438 0.000000000000000e+00 1851878480
8.683690 -4.509529 -2.238438 0.000000000000000e+00 1851878480
8.585716 -4.933659 -2.238438 0.000000000000000e+00 1851878480
8.680714 -3.175236 -2.238438 0.000000000000000e+00 1851878480
8.562681 -3.554927 -2.238438 0.000000000000000e+00 1851878480
8.342911 -4.333971 -2.238438 0.000000000000000e+00 1851878480
8.240316 -4.738127 -2.238438 0.000000000000000e+00 1851878480
8.370685 -3.059377 -2.238438 0.000000000000000e+00 1851878480
8.251312 -3.424389 -2.238438 0.000000000000000e+00 1851878480
8.026541 -4.170990 -2.238439 0.000000000000000e+00 1851878480
7.920237 -4.556931 -2.238439 0.000000000000000e+00 1851878480
8.080901 -2.951082 -2.238438 0.000000000000000e+00 1851878480
7.960613 -3.302520 -2.238438 0.000000000000000e+00 1851878480
7.732000 -4.019248 -2.238438 0.000000000000000e+00 1851878480
7.622733 -4.388512 -2.238438 0.000000000000000e+00 1851878480
7.809420 -2.849625 -2.238438 0.000000000000000e+00 1851878480
7.688568 -3.188470 -2.238438 0.000000000000000e+00 1851878480
7.457074 -3.877617 -2.238438 0.000000000000000e+00 1851878480
7.345473 -4.231555 -2.238438 0.000000000000000e+00 1851878480
7.554512 -2.754369 -2.238438 0.000000000000000e+00 1851878480
7.433394 -3.081491 -2.238438 0.000000000000000e+00 1851878480
7.199821 -3.745090 -2.238438 0.000000000000000e+00 1851878480
7.086407 -4.084904 -2.238438 0.000000000000000e+00 1851878480
7.314680 -2.664745 -2.238439 0.000000000000000e+00 1851878480
7.193531 -2.980934 -2.238438 0.000000000000000e+00 1851878480
6.958559 -3.620799 -2.238438 0.000000000000000e+00 1851878480
6.843771 -3.947546 -2.238437 0.000000000000000e+00 1851878480
7.088573 -2.580256 -2.238438 0.000000000000000e+00 1851878480
6.967604 -2.886218 -2.238438 0.000000000000000e+00 1851878480
6.731795 -3.503979 -2.238438 0.000000000000000e+00 1851878480
6.616005 -3.818613 -2.238438 0.000000000000000e+00 1851878480
6.875040 -2.500460 -2.238438 0.000000000000000e+00 1851878480
6.754414 -2.796840 -2.238438 0.000000000000000e+00 1851878480
6.518245 -3.393964 -2.238437 0.000000000000000e+00 1851878480
6.401761 -3.697335 -2.238438 0.000000000000000e+00 1851878480
6.673020 -2.424968 -2.238438 0.000000000000000e+00 1851878480
6.552878 -2.712351 -2.238438 0.000000000000000e+00 1851878480
6.316744 -3.290164 -2.238438 0.000000000000000e+00 1851878480
6.199834 -3.583028 -2.238438 0.000000000000000e+00 1851878480
6.481579 -2.353432 -2.238438 0.000000000000000e+00 1851878480
6.362038 -2.632345 -2.238438 0.000000000000000e+00 1851878480
6.126279 -3.192042 -2.238438 0.000000000000000e+00 1851878480
6.009159 -3.475095 -2.238438 0.000000000000000e+00 1851878480
6.299883 -2.285539 -2.238438 0.000000000000000e+00 1851878480
6.181036 -2.556465 -2.238438 0.000000000000000e+00 1851878480
5.945935 -3.099137 -2.238438 0.000000000000000e+00 1851878480
5.828795 -3.372998 -2.238438 0.000000000000000e+00 1851878480
6.127178 -2.221004 -2.238439 0.000000000000000e+00 1851878480
6.009109 -2.484385 -2.238438 0.000000000000000e+00 1851878480
5.774898 -3.011025 -2.238438 0.000000000000000e+00 1851878480
5.657899 -3.276261 -2.238438 0.000000000000000e+00 1851878480
5.962795 -2.159582 -2.238438 0.000000000000000e+00 1851878480
5.845565 -2.415826 -2.238438 0.000000000000000e+00 1851878480
5.612449 -2.927339 -2.238438 0.000000000000000e+00 1851878480
5.495727 -3.184460 -2.238438 0.000000000000000e+00 1851878480
5.806120 -2.101041 -2.238438 0.000000000000000e+00 1851878480
5.689786 -2.350520 -2.238438 0.000000000000000e+00 1851878480
5.457929 -2.847737 -2.238438 0.000000000000000e+00 1851878480
5.341594 -3.097216 -2.238437 0.000000000000000e+00 1851878480
5.656606 -2.045174 -2.238438 0.000000000000000e+00 1851878480
5.541208 -2.288232 -2.238438 0.000000000000000e+00 1851878480
5.310750 -2.771918 -2.238438 0.000000000000000e+00 1851878480
5.194902 -3.014181 -2.238437 0.000000000000000e+00 1851878480
5.513750 -1.991797 -2.238438 0.000000000000000e+00 1851878480
5.399323 -2.228749 -2.238438 0.000000000000000e+00 1851878480
5.170380 -2.699605 -2.238438 0.000000000000000e+00 1851878480
5.055099 -2.935050 -2.238438 0.000000000000000e+00 1851878480
5.377091 -1.940737 -2.238437 0.000000000000000e+00 1851878480
5.263663 -2.171881 -2.238438 0.000000000000000e+00 1851878480
5.036330 -2.630551 -2.238438 0.000000000000000e+00 1851878480
4.921686 -2.859534 -2.238437 0.000000000000000e+00 1851878480
5.246227 -1.891842 -2.238437 0.000000000000000e+00 1851878480
5.133817 -2.117446 -2.238437 0.000000000000000e+00 1851878480
4.908173 -2.564530 -2.238437 0.000000000000000e+00 1851878480
4.794224 -2.787388 -2.238437 0.000000000000000e+00 1851878480
5.120776 -1.844970 -2.238437 0.000000000000000e+00 1851878480
5.009398 -2.065289 -2.238438 0.000000000000000e+00 1851878480
4.785507 -2.501340 -2.238437 0.000000000000000e+00 1851878480
4.672302 -2.718377 -2.238438 0.000000000000000e+00 1851878480
5.000389 -1.799992 -2.238437 0.000000000000000e+00 1851878480
4.890055 -2.015258 -2.238437 0.000000000000000e+00 1851878480
4.667969 -2.440788 -2.238438 0.000000000000000e+00 1851878480
4.555544 -2.652292 -2.238437 0.000000000000000e+00 1851878480
4.884748 -1.756789 -2.238437 0.000000000000000e+00 1851878480
4.775466 -1.967222 -2.238438 0.000000000000000e+00 1851878480
4.555223 -2.382709 -2.238437 0.000000000000000e+00 1851878480
4.443616 -2.588939 -2.238438 0.000000000000000e+00 1851878480
4.773565 -1.715247 -2.238438 0.000000000000000e+00 1851878480
4.665335 -1.921054 -2.238437 0.000000000000000e+00 1851878480
4.446966 -2.326941 -2.238437 0.000000000000000e+00 1851878480
4.336201 -2.528143 -2.238438 0.000000000000000e+00 1851878480
4.666571 -1.675275 -2.238438 0.000000000000000e+00 1851878480
4.559396 -1.876642 -2.238438 0.000000000000000e+00 1851878480
4.342923 -2.273346 -2.238437 0.000000000000000e+00 1851878480
4.233023 -2.469745 -2.238438 0.000000000000000e+00 1851878480
4.563518 -1.636774 -2.238438 0.000000000000000e+00 1851878480
4.457396 -1.833883 -2.238438 0.000000000000000e+00 1851878480
4.242837 -2.221787 -2.238438 0.000000000000000e+00 1851878480
4.133817 -2.413597 -2.238437 0.000000000000000e+00 1851878480
4.464177 -1.599664 -2.238438 0.000000000000000e+00 1851878480
4.359104 -1.792678 -2.238438 0.000000000000000e+00 1851878480
4.146470 -2.172143 -2.238438 0.000000000000000e+00 1851878480
4.038343 -2.359562 -2.238437 0.000000000000000e+00 1851878480
4.368336 -1.563858 -2.238437 0.000000000000000e+00 1851878480
4.264307 -1.752938 -2.238438 0.000000000000000e+00 1851878480
4.053601 -2.124303 -2.238437 0.000000000000000e+00 1851878480
3.946381 -2.307513 -2.238438 0.000000000000000e+00 1851878480
4.275805 -1.529293 -2.238438 0.000000000000000e+00 1851878480
4.172813 -1.714584 -2.238438 0.000000000000000e+00 1851878480
3.964035 -2.078166 -2.238438 0.000000000000000e+00 1851878480
3.857726 -2.257339 -2.238438 0.000000000000000e+00 1851878480
4.186401 -1.495892 -2.238437 0.000000000000000e+00 1851878480
4.084437 -1.677535 -2.238438 0.000000000000000e+00 1851878480
3.877584 -2.033633 -2.238438 0.000000000000000e+00 1851878480
3.772190 -2.208929 -2.238437 0.000000000000000e+00 1851878480
4.099953 -1.463600 -2.238437 0.000000000000000e+00 1851878480
3.999008 -1.641725 -2.238438 0.000000000000000e+00 1851878480
3.794075 -1.990615 -2.238437 0.000000000000000e+00 1851878480
3.689599 -2.162189 -2.238438 0.000000000000000e+00 1851878480
4.088595 -1.458134 -2.278726 0.000000000000000e+00 1634890835
3.916371 -1.607083 -2.238437 0.000000000000000e+00 1851878480
3.713348 -1.949031 -2.238438 0.000000000000000e+00 1851878480
3.609789 -2.117021 -2.238438 0.000000000000000e+00 1851878480
4.006146 -1.427336 -2.278726 0.000000000000000e+00 1634890835
3.836379 -1.573551 -2.238437 0.000000000000000e+00 1851878480
3.635253 -1.908803 -2.238437 0.000000000000000e+00 1851878480
3.532612 -2.073344 -2.238437 0.000000000000000e+00 1851878480
3.926262 -1.397496 -2.278726 0.000000000000000e+00 1634890835
3.758893 -1.541070 -2.238438 0.000000000000000e+00 1851878480
3.559653 -1.869856 -2.238437 0.000000000000000e+00 1851878480
3.457925 -2.031077 -2.238437 0.000000000000000e+00 1851878480
3.848816 -1.368567 -2.278726 0.000000000000000e+00 1634890835
3.683791 -1.509588 -2.238438 0.000000000000000e+00 1851878480
3.486421 -1.832134 -2.238437 0.000000000000000e+00 1851878480
3.385602 -1.990149 -2.238438 0.000000000000000e+00 1851878480
3.773684 -1.340505 -2.278726 0.000000000000000e+00 1634890835
3.610950 -1.479054 -2.238437 0.000000000000000e+00 1851878480
3.415432 -1.795568 -2.238437 0.000000000000000e+00 1851878480
3.315519 -1.950489 -2.238437 0.000000000000000e+00 1851878480
3.700756 -1.313265 -2.278726 0.000000000000000e+00 1634890835
3.346578 -1.760101 -2.238437 0.000000000000000e+00 1851878480
3.247563 -1.912036 -2.238437 0.000000000000000e+00 1851878480
3.629922 -1.286809 -2.278726 0.000000000000000e+00 1634890835
3.534102 -1.446216 -2.278726 0.000000000000000e+00 1634890835
3.279752 -1.725677 -2.238438 0.000000000000000e+00 1851878480
3.181630 -1.874723 -2.238438 0.000000000000000e+00 1851878480
3.561088 -1.261099 -2.278726 0.000000000000000e+00 1634890835
3.466209 -1.417758 -2.278725 0.000000000000000e+00 1634890835
3.214857 -1.692249 -2.238438 0.000000000000000e+00 1851878480
3.117619 -1.838501 -2.238438 0.000000000000000e+00 1851878480
3.494160 -1.236101 -2.278726 0.000000000000000e+00 1634890835
3.400210 -1.390091 -2.278726 0.000000000000000e+00 1634890835
3.151801 -1.659767 -2.238438 0.000000000000000e+00 1851878480
3.055439 -1.803316 -2.238438 0.000000000000000e+00 1851878480
3.429049 -1.211785 -2.278726 0.000000000000000e+00 1634890835
3.336015 -1.363181 -2.278725 0.000000000000000e+00 1634890835
3.090496 -1.628188 -2.238438 0.000000000000000e+00 1851878480
2.995003 -1.769118 -2.238438 0.000000000000000e+00 1851878480
3.365672 -1.188116 -2.278726 0.000000000000000e+00 1634890835
3.273541 -1.336996 -2.278726 0.000000000000000e+00 1634890835
3.030861 -1.597471 -2.238438 0.000000000000000e+00 1851878480
2.936229 -1.735860 -2.238438 0.000000000000000e+00 1851878480
3.303954 -1.165064 -2.278726 0.000000000000000e+00 1634890835
3.212712 -1.311496 -2.278726 0.000000000000000e+00 1634890835
2.972820 -1.567573 -2.238438 0.000000000000000e+00 1851878480
2.879038 -1.703499 -2.238438 0.000000000000000e+00 1851878480
3.243822 -1.142608 -2.278726 0.000000000000000e+00 1634890835
3.153455 -1.286657 -2.278726 0.000000000000000e+00 1634890835
2.916301 -1.538460 -2.238438 0.000000000000000e+00 1851878480
2.823362 -1.671995 -2.238438 0.000000000000000e+00 1851878480
3.185204 -1.120717 -2.278726 0.000000000000000e+00 1634890835
3.095701 -1.262449 -2.278726 0.000000000000000e+00 1634890835
2.861239 -1.510097 -2.238438 0.000000000000000e+00 1851878480
2.769130 -1.641311 -2.238438 0.000000000000000e+00 1851878480
3.128041 -1.099368 -2.278726 0.000000000000000e+00 1634890835
3.039387 -1.238844 -2.278726 0.000000000000000e+00 1634890835
2.807567 -1.482453 -2.238438 0.000000000000000e+00 1851878480
2.716282 -1.611408 -2.238438 0.000000000000000e+00 1851878480
3.072265 -1.078540 -2.278726 0.000000000000000e+00 1634890835
2.984450 -1.215815 -2.278726 0.000000000000000e+00 1634890835
2.755227 -1.455491 -2.238438 0.000000000000000e+00 1851878480
0.840392 -0.499000 -0.705943 0.000000000000000e+00 1886740808
3.017821 -1.058208 -2.278726 0.000000000000000e+00 1634890835
2.930830 -1.193340 -2.278726 0.000000000000000e+00 1634890835
2.752830 -1.454910 -2.278726 0.000000000000000e+00 1634890835
0.824540 -0.490031 -0.705943 0.000000000000000e+00 1886740808
2.964655 -1.038356 -2.278726 0.000000000000000e+00 1634890835
2.878477 -1.171397 -2.278726 0.000000000000000e+00 1634890835
0.837099 -0.442630 -0.705943 0.000000000000000e+00 1886740808
0.809070 -0.481279 -0.705943 0.000000000000000e+00 1886740808
2.912715 -1.018961 -2.278726 0.000000000000000e+00 1634890835
2.827338 -1.149959 -2.278726 0.000000000000000e+00 1634890835
0.821749 -0.434723 -0.705943 0.000000000000000e+00 1886740808
0.793967 -0.472733 -0.705943 0.000000000000000e+00 1886740808
2.861951 -1.000005 -2.278726 0.000000000000000e+00 1634890835
2.777362 -1.129012 -2.278726 0.000000000000000e+00 1634890835
0.806752 -0.426998 -0.705943 0.000000000000000e+00 1886740808
0.779214 -0.464386 -0.705943 0.000000000000000e+00 1886740808
2.812316 -0.981473 -2.278726 0.000000000000000e+00 1634890835
2.728503 -1.108533 -2.278726 0.000000000000000e+00 1634890835
0.792094 -0.419448 -0.705943 0.000000000000000e+00 1886740808
0.764797 -0.456231 -0.705943 0.000000000000000e+00 1886740808
2.763766 -0.963343 -2.278726 0.000000000000000e+00 1634890835
0.830479 -0.337215 -0.705943 0.000000000000000e+00 1886740808
0.777762 -0.412066 -0.705943 0.000000000000000e+00 1886740808
0.750703 -0.448257 -0.705943 0.000000000000000e+00 1886740808
0.841490 -0.292946 -0.705943 0.000000000000000e+00 1886740808
0.815995 -0.331144 -0.705943 0.000000000000000e+00 1886740808
0.763744 -0.404845 -0.705943 0.000000000000000e+00 1886740808
0.744295 -0.444867 -0.713009 0.000000000000000e+00 1886740808
0.827083 -0.287567 -0.705943 0.000000000000000e+00 1886740808
0.801818 -0.325202 -0.705943 0.000000000000000e+00 1886740808
0.750026 -0.397779 -0.705943 0.000000000000000e+00 1886740808
0.744295 -0.445311 -0.726301 0.000000000000000e+00 1886740808
0.812975 -0.282300 -0.705943 0.000000000000000e+00 1886740808
0.787937 -0.319383 -0.705943 0.000000000000000e+00 1886740808
0.744295 -0.394948 -0.713321 0.000000000000000e+00 1886740808
0.744295 -0.445762 -0.739800 0.000000000000000e+00 1886740808
0.799155 -0.277140 -0.705943 0.000000000000000e+00 1886740808
0.774339 -0.313684 -0.705943 0.000000000000000e+00 1886740808
0.744295 -0.395158 -0.726288 0.000000000000000e+00 1886740808
0.744295 -0.446220 -0.753513 0.000000000000000e+00 1886740808
0.785612 -0.272084 -0.705943 0.000000000000000e+00 1886740808
0.761016 -0.308100 -0.705943 0.000000000000000e+00 1886740808
0.744295 -0.395372 -0.739457 0.000000000000000e+00 1886740808
0.744295 -0.446685 -0.767447 0.000000000000000e+00 1886740808
0.772336 -0.267127 -0.705943 0.000000000000000e+00 1886740808
0.747956 -0.302626 -0.705943 0.000000000000000e+00 1886740808
0.744295 -0.395589 -0.752834 0.000000000000000e+00 1886740808
0.744295 -0.447158 -0.781610 0.000000000000000e+00 1886740808
0.759317 -0.262267 -0.705943 0.000000000000000e+00 1886740808
0.744295 -0.300956 -0.714725 0.000000000000000e+00 1886740808
0.744295 -0.395810 -0.766426 0.000000000000000e+00 1886740808
0.744295 -0.447639 -0.796010 0.000000000000000e+00 1886740808
0.746546 -0.257499 -0.705943 0.000000000000000e+00 1886740808
0.744295 -0.300765 -0.727149 0.000000000000000e+00 1886740808
0.744295 -0.396035 -0.780241 0.000000000000000e+00 1886740808
2.092192 -1.259678 -2.278727 0.000000000000000e+00 1634890835
0.744295 -0.256362 -0.715831 0.000000000000000e+00 1886740808
0.744295 -0.300571 -0.739767 0.000000000000000e+00 1886740808
0.744295 -0.396263 -0.794288 0.000000000000000e+00 1886740808
2.054433 -1.238318 -2.278726 0.000000000000000e+00 1634890835
0.744295 -0.255996 -0.728033 0.000000000000000e+00 1886740808
0.744295 -0.300373 -0.752586 0.000000000000000e+00 1886740808
2.097578 -1.117404 -2.278726 0.000000000000000e+00 1634890835
2.017381 -1.217360 -2.278726 0.000000000000000e+00 1634890835
0.744295 -0.255624 -0.740424 0.000000000000000e+00 1886740808
0.744295 -0.300173 -0.765611 0.000000000000000e+00 1886740808
2.060544 -1.098330 -2.278726 0.000000000000000e+00 1634890835
0.796275 -0.481053 -0.915942 0.000000000000000e+00 1886740808
0.744295 -0.255246 -0.753013 0.000000000000000e+00 1886740808
0.744295 -0.299969 -0.778850 0.000000000000000e+00 1886740808
2.024177 -1.079599 -2.278726 0.000000000000000e+00 1634890835
0.784636 -0.474577 -0.919123 0.000000000000000e+00 1886740808
0.744295 -0.254863 -0.765806 0.000000000000000e+00 1886740808
0.744295 -0.299762 -0.792311 0.000000000000000e+00 1886740808
1.988452 -1.061198 -2.278726 0.000000000000000e+00 1634890835
0.775674 -0.469714 -0.925309 0.000000000000000e+00 1886740808
0.744295 -0.254473 -0.778811 0.000000000000000e+00 1886740808
2.104272 -0.846891 -2.278726 0.000000000000000e+00 1634890835
0.797388 -0.425818 -0.930213 0.000000000000000e+00 1886740808
0.768824 -0.466130 -0.933991 0.000000000000000e+00 1886740808
0.744295 -0.254077 -0.792032 0.000000000000000e+00 1886740808
2.068530 -0.831912 -2.278726 0.000000000000000e+00 1634890835
0.785519 -0.419747 -0.932845 0.000000000000000e+00 1886740808
0.764551 -0.464112 -0.945881 0.000000000000000e+00 1886740808
0.744295 -0.253674 -0.805479 0.000000000000000e+00 1886740808
2.033383 -0.817181 -2.278726 0.000000000000000e+00 1634890835
0.776431 -0.415161 -0.938648 0.000000000000000e+00 1886740808
1.808581 -1.099259 -2.278726 0.000000000000000e+00 1634890835
2.070472 -0.704526 -2.278726 0.000000000000000e+00 1634890835
1.998813 -0.802691 -2.278726 0.000000000000000e+00 1634890835
0.769418 -0.411685 -0.946932 0.000000000000000e+00 1886740808
1.775830 -1.080734 -2.278726 0.000000000000000e+00 1634890835
2.035871 -0.691612 -2.278726 0.000000000000000e+00 1634890835
1.964800 -0.788435 -2.278727 0.000000000000000e+00 1634890835
0.764807 -0.409493 -0.958245 0.000000000000000e+00 1886740808
0.749057 -0.456456 -0.978943 0.000000000000000e+00 1886740808
2.001818 -0.678901 -2.278727 0.000000000000000e+00 1634890835
1.931323 -0.774405 -2.278726 0.000000000000000e+00 1634890835
0.767175 -0.411043 -0.978594 0.000000000000000e+00 1886740808
1.711907 -1.044581 -2.278726 0.000000000000000e+00 1634890835
1.968293 -0.666389 -2.278727 0.000000000000000e+00 1634890835
0.797681 -0.319597 -0.957506 0.000000000000000e+00 1886740808
1.754622 -0.940768 -2.278727 0.000000000000000e+00 1634890835
1.680700 -1.026932 -2.278726 0.000000000000000e+00 1634890835
1.935280 -0.654068 -2.278726 0.000000000000000e+00 1634890835
0.785811 -0.314588 -0.959661 0.000000000000000e+00 1886740808
0.751061 -0.402981 -0.993124 0.000000000000000e+00 1886740808
1.649975 -1.009555 -2.278726 0.000000000000000e+00 1634890835
1.902762 -0.641932 -2.278726 0.000000000000000e+00 1634890835
0.776732 -0.310699 -0.965106 0.000000000000000e+00 1886740808
1.692477 -0.908759 -2.278726 0.000000000000000e+00 1634890835
1.619716 -0.992442 -2.278726 0.000000000000000e+00 1634890835
0.796758 -0.268312 -0.970530 0.000000000000000e+00 1886740808
0.769656 -0.307612 -0.973023 0.000000000000000e+00 1886740808
1.662097 -0.893113 -2.278726 0.000000000000000e+00 1634890835
1.589906 -0.975583 -2.278726 0.000000000000000e+00 1634890835
0.785168 -0.263918 -0.972832 0.000000000000000e+00 1886740808
0.764880 -0.305443 -0.983926 0.000000000000000e+00 1886740808
1.632161 -0.877695 -2.278727 0.000000000000000e+00 1634890835
1.560533 -0.958973 -2.278726 0.000000000000000e+00 1634890835
0.776222 -0.260416 -0.978303 0.000000000000000e+00 1886740808
0.765621 -0.305473 -1.002186 0.000000000000000e+00 1886740808
1.602653 -0.862498 -2.278727 0.000000000000000e+00 1634890835
1.531581 -0.942599 -2.278727 0.000000000000000e+00 1634890835
0.769283 -0.257587 -0.986298 0.000000000000000e+00 1886740808
1.710672 -0.681929 -2.278726 0.000000000000000e+00 1634890835
1.573560 -0.847513 -2.278726 0.000000000000000e+00 1634890835
1.503037 -0.926458 -2.278726 0.000000000000000e+00 1634890835
0.764663 -0.255533 -0.997358 0.000000000000000e+00 1886740808
1.680925 -0.669462 -2.278726 0.000000000000000e+00 1634890835
1.544869 -0.832737 -2.278727 0.000000000000000e+00 1634890835
1.474889 -0.910540 -2.278726 0.000000000000000e+00 1634890835
0.766226 -0.255535 -1.016773 0.000000000000000e+00 1886740808
0.744047 -0.296057 -1.026581 0.000000000000000e+00 1886740808
1.516567 -0.818161 -2.278726 0.000000000000000e+00 1634890835
1.447124 -0.894838 -2.278726 0.000000000000000e+00 1634890835
1.687758 -0.561696 -2.278727 0.000000000000000e+00 1634890835
1.622623 -0.645028 -2.278727 0.000000000000000e+00 1634890835
1.488642 -0.803779 -2.278726 0.000000000000000e+00 1634890835
1.419728 -0.879347 -2.278726 0.000000000000000e+00 1634890835
0.752065 -0.249760 -1.033200 0.000000000000000e+00 1886740808
1.594047 -0.633052 -2.278727 0.000000000000000e+00 1634890835
1.461082 -0.789587 -2.278726 0.000000000000000e+00 1634890835
1.392691 -0.864060 -2.278726 0.000000000000000e+00 1634890835
1.629982 -0.540137 -2.278727 0.000000000000000e+00 1634890835
1.565837 -0.621229 -2.278727 0.000000000000000e+00 1634890835
1.433877 -0.775575 -2.278726 0.000000000000000e+00 1634890835
1.366004 -0.848968 -2.278726 0.000000000000000e+00 1634890835
1.601642 -0.529563 -2.278727 0.000000000000000e+00 1634890835
1.537981 -0.609555 -2.278726 0.000000000000000e+00 1634890835
1.407014 -0.761740 -2.278726 0.000000000000000e+00 1634890835
1.339653 -0.834067 -2.278726 0.000000000000000e+00 1634890835
1.573652 -0.519120 -2.278727 0.000000000000000e+00 1634890835
1.510470 -0.598026 -2.278727 0.000000000000000e+00 1634890835
1.380484 -0.748077 -2.278727 0.000000000000000e+00 1634890835
1.313628 -0.819351 -2.278726 0.000000000000000e+00 1634890835
1.546004 -0.508803 -2.278727 0.000000000000000e+00 1634890835
1.483295 -0.586636 -2.278727 0.000000000000000e+00 1634890835
1.354277 -0.734580 -2.278727 0.000000000000000e+00 1634890835
1.287920 -0.804815 -2.278727 0.000000000000000e+00 1634890835
1.518686 -0.498610 -2.278727 0.000000000000000e+00 1634890835
1.456443 -0.575382 -2.278726 0.000000000000000e+00 1634890835
1.328382 -0.721244 -2.278727 0.000000000000000e+00 1634890835
1.262519 -0.790452 -2.278726 0.000000000000000e+00 1634890835
1.491688 -0.488535 -2.278726 0.000000000000000e+00 1634890835
1.429906 -0.564261 -2.278727 0.000000000000000e+00 1634890835
1.302791 -0.708064 -2.278726 0.000000000000000e+00 1634890835
1.237416 -0.776258 -2.278727 0.000000000000000e+00 1634890835
1.465000 -0.478578 -2.278727 0.000000000000000e+00 1634890835
1.403673 -0.553268 -2.278727 0.000000000000000e+00 1634890835
1.277493 -0.695036 -2.278726 0.000000000000000e+00 1634890835
1.212600 -0.762228 -2.278726 0.000000000000000e+00 1634890835
1.438615 -0.468734 -2.278727 0.000000000000000e+00 1634890835
1.377737 -0.542399 -2.278727 0.000000000000000e+00 1634890835
1.252480 -0.682154 -2.278726 0.000000000000000e+00 1634890835
1.188066 -0.748353 -2.278726 0.000000000000000e+00 1634890835
1.412522 -0.458998 -2.278727 0.000000000000000e+00 1634890835
1.352087 -0.531649 -2.278726 0.000000000000000e+00 1634890835
1.227743 -0.669413 -2.278726 0.000000000000000e+00 1634890835
1.163801 -0.734634 -2.278726 0.000000000000000e+00 1634890835
1.386713 -0.449370 -2.278727 0.000000000000000e+00 1634890835
1.326717 -0.521017 -2.278726 0.000000000000000e+00 1634890835
1.203274 -0.656813 -2.278727 0.000000000000000e+00 1634890835
1.139799 -0.721064 -2.278726 0.000000000000000e+00 1634890835
1.361180 -0.439844 -2.278727 0.000000000000000e+00 1634890835
1.301617 -0.510498 -2.278727 0.000000000000000e+00 1634890835
1.179066 -0.644345 -2.278727 0.000000000000000e+00 1634890835
1.116052 -0.707638 -2.278727 0.000000000000000e+00 1634890835
1.335915 -0.430417 -2.278727 0.000000000000000e+00 1634890835
1.276778 -0.500089 -2.278726 0.000000000000000e+00 1634890835
1.155109 -0.632009 -2.278727 0.000000000000000e+00 1634890835
1.092553 -0.694350 -2.278727 0.000000000000000e+00 1634890835
1.310909 -0.421088 -2.278727 0.000000000000000e+00 1634890835
1.252195 -0.489786 -2.278727 0.000000000000000e+00 1634890835
1.131397 -0.619796 -2.278726 0.000000000000000e+00 1634890835
1.069293 -0.681201 -2.278728 0.000000000000000e+00 1634890835
1.286156 -0.411854 -2.278727 0.000000000000000e+00 1634890835
1.227859 -0.479588 -2.278727 0.000000000000000e+00 1634890835
1.107924 -0.607707 -2.278727 0.000000000000000e+00 1634890835
1.046266 -0.668181 -2.278728 0.000000000000000e+00 1634890835
1.261648 -0.402710 -2.278727 0.000000000000000e+00 1634890835
1.203763 -0.469490 -2.278727 0.000000000000000e+00 1634890835
1.084680 -0.595737 -2.278728 0.000000000000000e+00 1634890835
1.023464 -0.655289 -2.278727 0.000000000000000e+00 1634890835
1.237376 -0.393657 -2.278727 0.000000000000000e+00 1634890835
1.179899 -0.459490 -2.278727 0.000000000000000e+00 1634890835
1.061659 -0.583882 -2.278728 0.000000000000000e+00 1634890835
1.000881 -0.642522 -2.278728 0.000000000000000e+00 1634890835
1.213336 -0.384687 -2.278726 0.000000000000000e+00 1634890835
1.156262 -0.449584 -2.278727 0.000000000000000e+00 1634890835
1.038855 -0.572138 -2.278728 0.000000000000000e+00 1634890835
0.978510 -0.629874 -2.278728 0.000000000000000e+00 1634890835
1.189520 -0.375802 -2.278727 0.000000000000000e+00 1634890835
1.132844 -0.439770 -2.278727 0.000000000000000e+00 1634890835
1.016261 -0.560501 -2.278728 0.000000000000000e+00 1634890835
0.956344 -0.617343 -2.278728 0.000000000000000e+00 1634890835
1.165920 -0.366999 -2.278727 0.000000000000000e+00 1634890835
1.109637 -0.430046 -2.278727 0.000000000000000e+00 1634890835
0.993869 -0.548971 -2.278727 0.000000000000000e+00 1634890835
0.934377 -0.604923 -2.278728 0.000000000000000e+00 1634890835
1.142533 -0.358274 -2.278727 0.000000000000000e+00 1634890835
1.086638 -0.420407 -2.278728 0.000000000000000e+00 1634890835
0.971676 -0.537541 -2.278728 0.000000000000000e+00 1634890835
0.912604 -0.592614 -2.278728 0.000000000000000e+00 1634890835
1.119349 -0.349626 -2.278727 0.000000000000000e+00 1634890835
1.063839 -0.410853 -2.278728 0.000000000000000e+00 1634890835
0.949675 -0.526211 -2.278728 0.000000000000000e+00 1634890835
0.891018 -0.580411 -2.278727 0.000000000000000e+00 1634890835
1.096363 -0.341051 -2.278727 0.000000000000000e+00 1634890835
1.041234 -0.401380 -2.278728 0.000000000000000e+00 1634890835
0.927858 -0.514976 -2.278728 0.000000000000000e+00 1634890835
0.869613 -0.568309 -2.278727 0.000000000000000e+00 1634890835
1.073572 -0.332549 -2.278728 0.000000000000000e+00 1634890835
1.018817 -0.391985 -2.278727 0.000000000000000e+00 1634890835
0.906222 -0.503834 -2.278728 0.000000000000000e+00 1634890835
0.848384 -0.556308 -2.278728 0.000000000000000e+00 1634890835
1.050966 -0.324117 -2.278728 0.000000000000000e+00 1634890835
0.996583 -0.382668 -2.278728 0.000000000000000e+00 1634890835
0.884761 -0.492782 -2.278727 0.000000000000000e+00 1634890835
0.827327 -0.544404 -2.278728 0.000000000000000e+00 1634890835
1.028543 -0.315752 -2.278728 0.000000000000000e+00 1634890835
0.974527 -0.373425 -2.278728 0.000000000000000e+00 1634890835
0.863469 -0.481816 -2.278728 0.000000000000000e+00 1634890835
0.451010 -0.297860 -1.274412 0.000000000000000e+00 1936876886
1.006295 -0.307453 -2.278728 0.000000000000000e+00 1634890835
0.952642 -0.364254 -2.278727 0.000000000000000e+00 1634890835
0.842340 -0.470937 -2.278728 0.000000000000000e+00 1634890835
0.433313 -0.287261 -1.256715 0.000000000000000e+00 1936876886
0.984218 -0.299218 -2.278728 0.000000000000000e+00 1634890835
0.930923 -0.355153 -2.278728 0.000000000000000e+00 1634890835
0.821371 -0.460138 -2.278728 0.000000000000000e+00 1634890835
0.421241 -0.280363 -1.254560 0.000000000000000e+00 1936876886
0.962305 -0.291044 -2.278728 0.000000000000000e+00 1634890835
0.909366 -0.346119 -2.278728 0.000000000000000e+00 1634890835
0.445942 -0.250344 -1.269344 0.000000000000000e+00 1936876886
0.335127 -0.223971 -1.025471 0.000000000000000e+00 1953264973
0.940553 -0.282931 -2.278728 0.000000000000000e+00 1634890835
0.887966 -0.337151 -2.278728 0.000000000000000e+00 1634890835
0.428905 -0.241307 -1.253204 0.000000000000000e+00 1936876886
0.306472 -0.205704 -0.964044 0.000000000000000e+00 1953264973
0.495093 -0.148090 -1.227674 0.000000000000000e+00 1936876886
0.866717 -0.328247 -2.278728 0.000000000000000e+00 1634890835
0.358554 -0.202188 -1.075960 0.000000000000000e+00 1953264973
0.281222 -0.189608 -0.909918 0.000000000000000e+00 1953264973
0.483539 -0.143780 -1.227675 0.000000000000000e+00 1936876886
0.845615 -0.319403 -2.278727 0.000000000000000e+00 1634890835
0.326694 -0.184663 -1.007394 0.000000000000000e+00 1953264973
0.258801 -0.175315 -0.861856 0.000000000000000e+00 1953264973
0.472063 -0.139500 -1.227674 0.000000000000000e+00 1936876886
0.824655 -0.310620 -2.278728 0.000000000000000e+00 1634890835
0.299054 -0.169463 -0.948142 0.000000000000000e+00 1953264973
0.238755 -0.162537 -0.818884 0.000000000000000e+00 1953264973
