# .PCD v0.7 - Point Cloud Data file format
VERSION 0.7
FIELDS x y z rgb label
SIZE 4 4 4 4 4
TYPE F F F F U
COUNT 1 1 1 1 1
WIDTH 528
HEIGHT 1
VIEWPOINT 0 0 0 1 0 0 0
POINTS 528
DATA ascii
33.373695 -17.033920 10.015496 0.000000000000000e+00 1954047316
30.919363 -11.486620 -2.245327 0.000000000000000e+00 1851878480
27.211067 -10.101298 -2.223462 0.000000000000000e+00 1851878480
27.644152 -11.555317 -2.203096 0.000000000000000e+00 1851878480
30.398804 -15.696888 -2.251015 0.000000000000000e+00 1851878480
24.387531 -9.046265 -2.214734 0.000000000000000e+00 1851878480
24.430574 -10.208447 -2.176190 0.000000000000000e+00 1851878480
23.966049 -12.379065 -2.014485 0.000000000000000e+00 1851878480
23.602755 -13.424570 -1.904400 0.000000000000000e+00 1851878480
22.260403 -8.250942 -2.224425 0.000000000000000e+00 1851878480
22.302608 -9.315997 -2.196137 0.000000000000000e+00 1851878480
21.925209 -11.328447 -2.062655 0.000000000000000e+00 1851878480
21.535069 -12.255775 -1.960952 0.000000000000000e+00 1851878480
20.404312 -7.557209 -2.225145 0.000000000000000e+00 1851878480
20.431238 -8.531297 -2.204054 0.000000000000000e+00 1851878480
20.374441 -10.530449 -2.121269 0.000000000000000e+00 1851878480
20.003048 -11.390648 -2.029301 0.000000000000000e+00 1851878480
18.955441 -7.015221 -2.240375 0.000000000000000e+00 1851878480
18.899036 -7.888727 -2.216825 0.000000000000000e+00 1851878480
18.988817 -9.817357 -2.167947 0.000000000000000e+00 1851878480
18.778021 -10.699406 -2.100529 0.000000000000000e+00 1851878480
17.633690 -6.521054 -2.245572 0.000000000000000e+00 1851878480
17.653265 -7.366118 -2.237310 0.000000000000000e+00 1851878480
17.568176 -9.085709 -2.182756 0.000000000000000e+00 1851878480
17.712629 -10.098373 -2.166151 0.000000000000000e+00 1851878480
16.435343 -6.073236 -2.243687 0.000000000000000e+00 1851878480
16.448309 -6.860906 -2.240133 0.000000000000000e+00 1851878480
16.471096 -8.520999 -2.212753 0.000000000000000e+00 1851878480
16.564247 -9.449288 -2.198920 0.000000000000000e+00 1851878480
15.343280 -5.665339 -2.235576 0.000000000000000e+00 1851878480
15.382760 -6.414162 -2.240763 0.000000000000000e+00 1851878480
15.421309 -7.980410 -2.227776 0.000000000000000e+00 1851878480
15.420144 -8.801879 -2.208669 0.000000000000000e+00 1851878480
14.507417 -5.352570 -2.247356 0.000000000000000e+00 1851878480
14.398343 -6.001553 -2.234087 0.000000000000000e+00 1851878480
14.473680 -7.492372 -2.237700 0.000000000000000e+00 1851878480
14.511144 -8.287981 -2.230965 0.000000000000000e+00 1851878480
13.657895 -5.035246 -2.241785 0.000000000000000e+00 1851878480
13.616778 -5.673760 -2.242419 0.000000000000000e+00 1851878480
13.571005 -7.027314 -2.236163 0.000000000000000e+00 1851878480
13.600752 -7.772680 -2.234318 0.000000000000000e+00 1851878480
12.997406 -4.788033 -2.253593 0.000000000000000e+00 1851878480
12.865147 -5.358654 -2.241393 0.000000000000000e+00 1851878480
12.824366 -6.642787 -2.243921 0.000000000000000e+00 1851878480
12.794748 -7.316463 -2.237126 0.000000000000000e+00 1851878480
12.279925 -4.520206 -2.243063 0.000000000000000e+00 1851878480
12.253199 -5.101940 -2.252003 0.000000000000000e+00 1851878480
12.137182 -6.288831 -2.247823 0.000000000000000e+00 1851878480
12.088879 -6.917006 -2.241858 0.000000000000000e+00 1851878480
11.673930 -4.293792 -2.240912 0.000000000000000e+00 1851878480
11.633386 -4.842121 -2.249693 0.000000000000000e+00 1851878480
11.426762 -5.922608 -2.233482 0.000000000000000e+00 1851878480
11.446498 -6.553411 -2.244460 0.000000000000000e+00 1851878480
11.136147 -4.092785 -2.241513 0.000000000000000e+00 1851878480
11.047623 -4.596649 -2.242714 0.000000000000000e+00 1851878480
10.891976 -5.647217 -2.241057 0.000000000000000e+00 1851878480
10.803885 -6.189259 -2.233742 0.000000000000000e+00 1851878480
10.666490 -3.917099 -2.246729 0.000000000000000e+00 1851878480
10.533138 -4.380999 -2.239932 0.000000000000000e+00 1851878480
10.398560 -5.393115 -2.246923 0.000000000000000e+00 1851878480
10.298188 -5.903157 -2.239469 0.000000000000000e+00 1851878480
10.189455 -3.738972 -2.241840 0.000000000000000e+00 1851878480
10.082208 -4.191921 -2.241668 0.000000000000000e+00 1851878480
9.912756 -5.142813 -2.244689 0.000000000000000e+00 1851878480
9.843924 -5.646217 -2.246495 0.000000000000000e+00 1851878480
9.726499 -3.566272 -2.231527 0.000000000000000e+00 1851878480
9.696564 -4.030114 -2.250136 0.000000000000000e+00 1851878480
9.468815 -4.914072 -2.242660 0.000000000000000e+00 1851878480
9.361025 -5.372539 -2.237304 0.000000000000000e+00 1851878480
9.381950 -3.437214 -2.241082 0.000000000000000e+00 1851878480
9.336036 -3.878851 -2.257507 0.000000000000000e+00 1851878480
9.122990 -4.736128 -2.256023 0.000000000000000e+00 1851878480
8.999597 -5.168292 -2.248427 0.000000000000000e+00 1851878480
9.031705 -3.306260 -2.243021 0.000000000000000e+00 1851878480
8.923923 -3.706267 -2.245195 0.000000000000000e+00 1851878480
8.730116 -4.533638 -2.250405 0.000000000000000e+00 1851878480
8.594633 -4.938783 -2.240763 0.000000000000000e+00 1851878480
8.722395 -3.190482 -2.249186 0.000000000000000e+00 1851878480
8.574807 -3.559961 -2.241608 0.000000000000000e+00 1851878480
8.367745 -4.346871 -2.245101 0.000000000000000e+00 1851878480
8.258260 -4.748445 -2.243312 0.000000000000000e+00 1851878480
8.379881 -3.062738 -2.240897 0.000000000000000e+00 1851878480
8.284245 -3.438057 -2.247372 0.000000000000000e+00 1851878480
8.086782 -4.202294 -2.255238 0.000000000000000e+00 1851878480
7.972188 -4.586822 -2.253121 0.000000000000000e+00 1851878480
8.142203 -2.973469 -2.255419 0.000000000000000e+00 1851878480
7.996626 -3.317460 -2.248564 0.000000000000000e+00 1851878480
7.707642 -4.006586 -2.231386 0.000000000000000e+00 1851878480
7.654902 -4.407032 -2.247885 0.000000000000000e+00 1851878480
7.847576 -2.863549 -2.249375 0.000000000000000e+00 1851878480
7.726202 -3.204077 -2.249395 0.000000000000000e+00 1851878480
7.465041 -3.881760 -2.240830 0.000000000000000e+00 1851878480
7.339260 -4.227976 -2.236545 0.000000000000000e+00 1851878480
7.503868 -2.735904 -2.223432 0.000000000000000e+00 1851878480
7.466391 -3.095169 -2.248375 0.000000000000000e+00 1851878480
7.275005 -3.784198 -2.261812 0.000000000000000e+00 1851878480
7.094280 -4.089442 -2.240925 0.000000000000000e+00 1851878480
7.326330 -2.668989 -2.242004 0.000000000000000e+00 1851878480
7.177055 -2.974106 -2.233311 0.000000000000000e+00 1851878480
6.976292 -3.630026 -2.244142 0.000000000000000e+00 1851878480
6.857301 -3.955350 -2.242862 0.000000000000000e+00 1851878480
7.081238 -2.577586 -2.236121 0.000000000000000e+00 1851878480
6.977021 -2.890119 -2.241464 0.000000000000000e+00 1851878480
6.788157 -3.533315 -2.257179 0.000000000000000e+00 1851878480
6.615509 -3.818326 -2.238270 0.000000000000000e+00 1851878480
6.890851 -2.506211 -2.243586 0.000000000000000e+00 1851878480
6.748099 -2.794225 -2.236345 0.000000000000000e+00 1851878480
6.567527 -3.419625 -2.255362 0.000000000000000e+00 1851878480
6.419889 -3.707805 -2.244776 0.000000000000000e+00 1851878480
6.711210 -2.438846 -2.251249 0.000000000000000e+00 1851878480
6.597235 -2.730711 -2.253591 0.000000000000000e+00 1851878480
6.337157 -3.300796 -2.245671 0.000000000000000e+00 1851878480
6.229871 -3.600387 -2.249283 0.000000000000000e+00 1851878480
6.512318 -2.364593 -2.249053 0.000000000000000e+00 1851878480
6.365302 -2.633695 -2.239586 0.000000000000000e+00 1851878480
6.158164 -3.208655 -2.250088 0.000000000000000e+00 1851878480
6.014312 -3.478076 -2.240358 0.000000000000000e+00 1851878480
6.332662 -2.297431 -2.250085 0.000000000000000e+00 1851878480
6.209269 -2.568142 -2.248662 0.000000000000000e+00 1851878480
6.007104 -3.131020 -2.261466 0.000000000000000e+00 1851878480
5.835901 -3.377110 -2.241166 0.000000000000000e+00 1851878480
6.170873 -2.236843 -2.254402 0.000000000000000e+00 1851878480
6.025054 -2.490977 -2.244378 0.000000000000000e+00 1851878480
5.791852 -3.019865 -2.245009 0.000000000000000e+00 1851878480
5.678764 -3.288343 -2.246693 0.000000000000000e+00 1851878480
5.950740 -2.155216 -2.233913 0.000000000000000e+00 1851878480
5.890188 -2.434267 -2.255525 0.000000000000000e+00 1851878480
5.654122 -2.949075 -2.255059 0.000000000000000e+00 1851878480
5.486020 -3.178836 -2.234484 0.000000000000000e+00 1851878480
5.844957 -2.115095 -2.253411 0.000000000000000e+00 1851878480
5.686810 -2.349291 -2.237267 0.000000000000000e+00 1851878480
5.499552 -2.869454 -2.255508 0.000000000000000e+00 1851878480
5.387287 -3.123709 -2.257585 0.000000000000000e+00 1851878480
5.639728 -2.039072 -2.231759 0.000000000000000e+00 1851878480
5.554657 -2.293786 -2.243871 0.000000000000000e+00 1851878480
5.373434 -2.804635 -2.264858 0.000000000000000e+00 1851878480
5.223570 -3.030814 -2.250790 0.000000000000000e+00 1851878480
5.512873 -1.991480 -2.238082 0.000000000000000e+00 1851878480
5.419170 -2.236942 -2.246666 0.000000000000000e+00 1851878480
5.189706 -2.709696 -2.246804 0.000000000000000e+00 1851878480
5.096673 -2.959189 -2.256847 0.000000000000000e+00 1851878480
5.390637 -1.945627 -2.244077 0.000000000000000e+00 1851878480
5.260519 -2.170584 -2.237100 0.000000000000000e+00 1851878480
5.082587 -2.654712 -2.258997 0.000000000000000e+00 1851878480
4.955367 -2.879103 -2.253756 0.000000000000000e+00 1851878480
5.279271 -1.903758 -2.252536 0.000000000000000e+00 1851878480
5.160079 -2.128278 -2.249888 0.000000000000000e+00 1851878480
4.965521 -2.594495 -2.264592 0.000000000000000e+00 1851878480
4.783522 -2.781166 -2.233440 0.000000000000000e+00 1851878480
5.110660 -1.841325 -2.234015 0.000000000000000e+00 1851878480
5.010149 -2.065598 -2.238773 0.000000000000000e+00 1851878480
4.809536 -2.513900 -2.249677 0.000000000000000e+00 1851878480
4.743559 -2.759835 -2.272576 0.000000000000000e+00 1851878480
5.007459 -1.802537 -2.241603 0.000000000000000e+00 1851878480
4.894253 -2.016988 -2.240359 0.000000000000000e+00 1851878480
4.725003 -2.470610 -2.265788 0.000000000000000e+00 1851878480
4.598996 -2.677590 -2.259789 0.000000000000000e+00 1851878480
4.873145 -1.752616 -2.233120 0.000000000000000e+00 1851878480
4.833443 -1.991105 -2.265613 0.000000000000000e+00 1851878480
4.575305 -2.393213 -2.248305 0.000000000000000e+00 1851878480
4.480639 -2.610510 -2.257088 0.000000000000000e+00 1851878480
4.757068 -1.709319 -2.230702 0.000000000000000e+00 1851878480
4.637314 -1.909515 -2.224993 0.000000000000000e+00 1851878480
4.474617 -2.341410 -2.252356 0.000000000000000e+00 1851878480
4.432625 -2.584361 -2.288214 0.000000000000000e+00 1851878480
4.668070 -1.675813 -2.239157 0.000000000000000e+00 1851878480
4.578878 -1.884661 -2.248003 0.000000000000000e+00 1851878480
4.398256 -2.302310 -2.266957 0.000000000000000e+00 1851878480
4.249954 -2.479624 -2.247391 0.000000000000000e+00 1851878480
4.575453 -1.641055 -2.244292 0.000000000000000e+00 1851878480
4.504741 -1.853362 -2.262214 0.000000000000000e+00 1851878480
4.285688 -2.244226 -2.261045 0.000000000000000e+00 1851878480
4.130685 -2.411768 -2.236742 0.000000000000000e+00 1851878480
4.506158 -1.614707 -2.259488 0.000000000000000e+00 1851878480
4.361091 -1.793495 -2.239458 0.000000000000000e+00 1851878480
4.201440 -2.200940 -2.268113 0.000000000000000e+00 1851878480
4.063927 -2.374510 -2.252618 0.000000000000000e+00 1851878480
4.441089 -1.589904 -2.275717 0.000000000000000e+00 1851878480
4.305862 -1.770020 -2.260250 0.000000000000000e+00 1851878480
4.095475 -2.146247 -2.261560 0.000000000000000e+00 1851878480
3.973745 -2.323513 -2.253959 0.000000000000000e+00 1851878480
4.301694 -1.538553 -2.251991 0.000000000000000e+00 1851878480
4.212888 -1.731050 -2.259935 0.000000000000000e+00 1851878480
3.962934 -2.077589 -2.237816 0.000000000000000e+00 1851878480
3.884860 -2.273216 -2.254182 0.000000000000000e+00 1851878480
4.173885 -1.491420 -2.231745 0.000000000000000e+00 1851878480
4.101755 -1.684648 -2.247928 0.000000000000000e+00 1851878480
3.906224 -2.048653 -2.254971 0.000000000000000e+00 1851878480
3.775375 -2.210794 -2.240327 0.000000000000000e+00 1851878480
4.104385 -1.465183 -2.240857 0.000000000000000e+00 1851878480
3.977936 -1.633074 -2.226642 0.000000000000000e+00 1851878480
3.803631 -1.995629 -2.244076 0.000000000000000e+00 1851878480
3.682664 -2.158125 -2.234231 0.000000000000000e+00 1851878480
4.107358 -1.464826 -2.289183 0.000000000000000e+00 1634890835
3.960767 -1.625301 -2.263812 0.000000000000000e+00 1851878480
3.764042 -1.975638 -2.268996 0.000000000000000e+00 1851878480
3.627544 -2.127434 -2.249447 0.000000000000000e+00 1851878480
4.029674 -1.435719 -2.292108 0.000000000000000e+00 1634890835
3.843810 -1.576599 -2.242773 0.000000000000000e+00 1851878480
3.700213 -1.942912 -2.278437 0.000000000000000e+00 1851878480
3.555459 -2.086753 -2.252914 0.000000000000000e+00 1851878480
3.976341 -1.415321 -2.307791 0.000000000000000e+00 1634890835
3.787769 -1.552908 -2.255633 0.000000000000000e+00 1851878480
3.608041 -1.895274 -2.268865 0.000000000000000e+00 1851878480
3.465221 -2.035363 -2.243161 0.000000000000000e+00 1851878480
3.842052 -1.366162 -2.274721 0.000000000000000e+00 1634890835
3.699684 -1.516100 -2.248095 0.000000000000000e+00 1851878480
3.545615 -1.863241 -2.276443 0.000000000000000e+00 1851878480
3.426801 -2.014367 -2.265677 0.000000000000000e+00 1851878480
3.781419 -1.343253 -2.283397 0.000000000000000e+00 1634890835
3.600220 -1.474659 -2.231786 0.000000000000000e+00 1851878480
3.463491 -1.820834 -2.269935 0.000000000000000e+00 1851878480
3.363596 -1.978773 -2.270896 0.000000000000000e+00 1851878480
3.736189 -1.325839 -2.300544 0.000000000000000e+00 1634890835
3.394798 -1.785461 -2.270690 0.000000000000000e+00 1851878480
3.274317 -1.927787 -2.256878 0.000000000000000e+00 1851878480
3.645031 -1.292166 -2.288211 0.000000000000000e+00 1634890835
3.527973 -1.443708 -2.274773 0.000000000000000e+00 1634890835
3.301918 -1.737340 -2.253566 0.000000000000000e+00 1851878480
3.190383 -1.879881 -2.244596 0.000000000000000e+00 1851878480
3.568061 -1.263569 -2.283188 0.000000000000000e+00 1634890835
3.487221 -1.426352 -2.292538 0.000000000000000e+00 1634890835
3.236084 -1.703422 -2.253217 0.000000000000000e+00 1851878480
3.134699 -1.848574 -2.250701 0.000000000000000e+00 1851878480
3.478971 -1.230728 -2.268820 0.000000000000000e+00 1634890835
3.404279 -1.391754 -2.281452 0.000000000000000e+00 1634890835
3.191243 -1.680537 -2.266450 0.000000000000000e+00 1851878480
3.024644 -1.785141 -2.215877 0.000000000000000e+00 1851878480
3.441583 -1.216214 -2.287055 0.000000000000000e+00 1634890835
3.329748 -1.360621 -2.274445 0.000000000000000e+00 1634890835
3.129096 -1.648524 -2.266396 0.000000000000000e+00 1851878480
3.019505 -1.783590 -2.256750 0.000000000000000e+00 1851878480
3.415636 -1.205754 -2.312554 0.000000000000000e+00 1634890835
3.324731 -1.357903 -2.314359 0.000000000000000e+00 1634890835
3.050378 -1.607757 -2.252852 0.000000000000000e+00 1851878480
2.974728 -1.758620 -2.267788 0.000000000000000e+00 1851878480
3.315997 -1.169310 -2.287031 0.000000000000000e+00 1634890835
3.283676 -1.340465 -2.329060 0.000000000000000e+00 1634890835
3.019443 -1.592157 -2.273544 0.000000000000000e+00 1851878480
2.885296 -1.707202 -2.243304 0.000000000000000e+00 1851878480
3.262697 -1.149256 -2.291986 0.000000000000000e+00 1634890835
3.163744 -1.290856 -2.286161 0.000000000000000e+00 1634890835
2.952819 -1.557725 -2.266467 0.000000000000000e+00 1851878480
2.878724 -1.704781 -2.282331 0.000000000000000e+00 1851878480
3.174137 -1.116823 -2.270809 0.000000000000000e+00 1634890835
3.059987 -1.247884 -2.252437 0.000000000000000e+00 1634890835
2.890497 -1.525539 -2.261328 0.000000000000000e+00 1851878480
2.795348 -1.656851 -2.259631 0.000000000000000e+00 1851878480
3.153573 -1.108342 -2.297326 0.000000000000000e+00 1634890835
3.055405 -1.245373 -2.290735 0.000000000000000e+00 1634890835
2.825491 -1.491916 -2.252728 0.000000000000000e+00 1851878480
2.738476 -1.624574 -2.256727 0.000000000000000e+00 1851878480
3.099666 -1.088159 -2.299050 0.000000000000000e+00 1634890835
3.042496 -1.239462 -2.323046 0.000000000000000e+00 1634890835
2.790308 -1.474023 -2.266939 0.000000000000000e+00 1851878480
0.853655 -0.506875 -0.717084 0.000000000000000e+00 1886740808
3.002325 -1.052775 -2.267025 0.000000000000000e+00 1634890835
2.943994 -1.198700 -2.288960 0.000000000000000e+00 1634890835
2.774625 -1.466429 -2.296767 0.000000000000000e+00 1634890835
0.860968 -0.511680 -0.737132 0.000000000000000e+00 1886740808
2.969476 -1.040045 -2.282432 0.000000000000000e+00 1634890835
2.882568 -1.173062 -2.281965 0.000000000000000e+00 1634890835
0.858103 -0.453736 -0.723656 0.000000000000000e+00 1886740808
0.844763 -0.502511 -0.737087 0.000000000000000e+00 1886740808
2.965974 -1.037593 -2.320393 0.000000000000000e+00 1634890835
2.808219 -1.142183 -2.263317 0.000000000000000e+00 1634890835
0.861783 -0.455902 -0.740336 0.000000000000000e+00 1886740808
0.808483 -0.481376 -0.718850 0.000000000000000e+00 1886740808
2.855080 -0.997604 -2.273255 0.000000000000000e+00 1634890835
2.797703 -1.137280 -2.295415 0.000000000000000e+00 1634890835
0.849677 -0.449718 -0.743505 0.000000000000000e+00 1886740808
0.783659 -0.467036 -0.709971 0.000000000000000e+00 1886740808
2.853548 -0.995862 -2.312135 0.000000000000000e+00 1634890835
2.755281 -1.119412 -2.301090 0.000000000000000e+00 1634890835
0.806646 -0.427154 -0.718912 0.000000000000000e+00 1886740808
0.780620 -0.465670 -0.720549 0.000000000000000e+00 1886740808
2.799152 -0.975677 -2.307902 0.000000000000000e+00 1634890835
0.881539 -0.357948 -0.749346 0.000000000000000e+00 1886740808
0.779131 -0.412791 -0.707185 0.000000000000000e+00 1886740808
0.760290 -0.453981 -0.714959 0.000000000000000e+00 1886740808
0.837679 -0.291619 -0.702747 0.000000000000000e+00 1886740808
0.805702 -0.326967 -0.697039 0.000000000000000e+00 1886740808
0.766294 -0.406197 -0.708300 0.000000000000000e+00 1886740808
0.797383 -0.476598 -0.763865 0.000000000000000e+00 1886740808
0.837418 -0.291161 -0.714765 0.000000000000000e+00 1886740808
0.831747 -0.337340 -0.732294 0.000000000000000e+00 1886740808
0.786628 -0.417192 -0.740394 0.000000000000000e+00 1886740808
0.726722 -0.434797 -0.709153 0.000000000000000e+00 1886740808
0.800528 -0.277978 -0.695135 0.000000000000000e+00 1886740808
0.809710 -0.328209 -0.725451 0.000000000000000e+00 1886740808
0.793594 -0.421107 -0.760568 0.000000000000000e+00 1886740808
0.741054 -0.443820 -0.736578 0.000000000000000e+00 1886740808
0.822539 -0.285249 -0.726600 0.000000000000000e+00 1886740808
0.773017 -0.313149 -0.704738 0.000000000000000e+00 1886740808
0.779752 -0.413983 -0.760887 0.000000000000000e+00 1886740808
0.783046 -0.469452 -0.792744 0.000000000000000e+00 1886740808
0.804955 -0.278783 -0.723325 0.000000000000000e+00 1886740808
0.768709 -0.311215 -0.713080 0.000000000000000e+00 1886740808
0.788109 -0.418646 -0.782986 0.000000000000000e+00 1886740808
0.777754 -0.466765 -0.801947 0.000000000000000e+00 1886740808
0.794909 -0.274934 -0.726576 0.000000000000000e+00 1886740808
0.773480 -0.312953 -0.730034 0.000000000000000e+00 1886740808
0.762748 -0.405397 -0.771498 0.000000000000000e+00 1886740808
0.765196 -0.459715 -0.803559 0.000000000000000e+00 1886740808
0.794520 -0.274426 -0.738672 0.000000000000000e+00 1886740808
0.764690 -0.309203 -0.734309 0.000000000000000e+00 1886740808
0.752470 -0.400158 -0.774844 0.000000000000000e+00 1886740808
0.774476 -0.465791 -0.828287 0.000000000000000e+00 1886740808
0.765673 -0.264096 -0.724030 0.000000000000000e+00 1886740808
0.779378 -0.314942 -0.761424 0.000000000000000e+00 1886740808
0.761859 -0.405380 -0.798654 0.000000000000000e+00 1886740808
2.102210 -1.265710 -2.289638 0.000000000000000e+00 1634890835
0.769399 -0.265008 -0.739975 0.000000000000000e+00 1886740808
0.760780 -0.307228 -0.756152 0.000000000000000e+00 1886740808
0.770688 -0.410314 -0.822453 0.000000000000000e+00 1886740808
2.068776 -1.246964 -2.294635 0.000000000000000e+00 1634890835
0.718322 -0.247063 -0.702627 0.000000000000000e+00 1886740808
0.741709 -0.299330 -0.749971 0.000000000000000e+00 1886740808
2.116126 -1.127285 -2.298876 0.000000000000000e+00 1634890835
2.031731 -1.226019 -2.294935 0.000000000000000e+00 1634890835
0.753407 -0.258753 -0.749489 0.000000000000000e+00 1886740808
0.747050 -0.301283 -0.768445 0.000000000000000e+00 1886740808
2.097019 -1.117773 -2.319064 0.000000000000000e+00 1634890835
0.801908 -0.484456 -0.922422 0.000000000000000e+00 1886740808
0.756993 -0.259601 -0.765860 0.000000000000000e+00 1886740808
0.784129 -0.316023 -0.820534 0.000000000000000e+00 1886740808
2.062296 -1.099929 -2.321639 0.000000000000000e+00 1634890835
0.828886 -0.501341 -0.970958 0.000000000000000e+00 1886740808
0.752293 -0.257601 -0.774035 0.000000000000000e+00 1886740808
0.728623 -0.293450 -0.775628 0.000000000000000e+00 1886740808
2.003486 -1.069222 -2.295955 0.000000000000000e+00 1634890835
0.784426 -0.475014 -0.935750 0.000000000000000e+00 1886740808
0.739174 -0.252722 -0.773452 0.000000000000000e+00 1886740808
2.089511 -0.840950 -2.262742 0.000000000000000e+00 1634890835
0.848444 -0.453083 -0.989774 0.000000000000000e+00 1886740808
0.798228 -0.483958 -0.969711 0.000000000000000e+00 1886740808
0.725978 -0.247824 -0.772540 0.000000000000000e+00 1886740808
2.078387 -0.835876 -2.289585 0.000000000000000e+00 1634890835
0.780482 -0.417056 -0.926863 0.000000000000000e+00 1886740808
0.794387 -0.482224 -0.982793 0.000000000000000e+00 1886740808
0.779479 -0.265665 -0.843555 0.000000000000000e+00 1886740808
2.028693 -0.815296 -2.273470 0.000000000000000e+00 1634890835
0.804806 -0.430333 -0.972951 0.000000000000000e+00 1886740808
1.798984 -1.093426 -2.266635 0.000000000000000e+00 1634890835
2.071495 -0.704874 -2.279852 0.000000000000000e+00 1634890835
2.007385 -0.806134 -2.288499 0.000000000000000e+00 1634890835
0.783424 -0.419179 -0.964170 0.000000000000000e+00 1886740808
1.826210 -1.111395 -2.343374 0.000000000000000e+00 1634890835
2.039534 -0.692856 -2.282826 0.000000000000000e+00 1634890835
1.988747 -0.798045 -2.306500 0.000000000000000e+00 1634890835
0.799960 -0.428315 -1.002290 0.000000000000000e+00 1886740808
0.792915 -0.483182 -1.036260 0.000000000000000e+00 1886740808
2.029808 -0.688394 -2.310589 0.000000000000000e+00 1634890835
1.949261 -0.781597 -2.299891 0.000000000000000e+00 1634890835
0.832404 -0.445993 -1.061800 0.000000000000000e+00 1886740808
1.717269 -1.047853 -2.285864 0.000000000000000e+00 1634890835
1.953122 -0.661253 -2.261163 0.000000000000000e+00 1634890835
0.796624 -0.319173 -0.956237 0.000000000000000e+00 1886740808
1.810855 -0.970918 -2.351756 0.000000000000000e+00 1634890835
1.722072 -1.052211 -2.334819 0.000000000000000e+00 1634890835
1.964008 -0.663777 -2.312552 0.000000000000000e+00 1634890835
0.799946 -0.320247 -0.976923 0.000000000000000e+00 1886740808
0.795365 -0.426753 -1.051707 0.000000000000000e+00 1886740808
1.660724 -1.016132 -2.293570 0.000000000000000e+00 1634890835
1.900137 -0.641047 -2.275583 0.000000000000000e+00 1634890835
0.752592 -0.301043 -0.935112 0.000000000000000e+00 1886740808
1.715669 -0.921211 -2.309951 0.000000000000000e+00 1634890835
1.643071 -1.006752 -2.311584 0.000000000000000e+00 1634890835
0.808252 -0.272183 -0.984531 0.000000000000000e+00 1886740808
0.808126 -0.322987 -1.021657 0.000000000000000e+00 1886740808
1.665557 -0.894972 -2.283470 0.000000000000000e+00 1634890835
1.622336 -0.995483 -2.325207 0.000000000000000e+00 1634890835
0.775630 -0.260712 -0.961014 0.000000000000000e+00 1886740808
0.806299 -0.321983 -1.037206 0.000000000000000e+00 1886740808
1.639976 -0.881897 -2.289637 0.000000000000000e+00 1634890835
1.580819 -0.971439 -2.308349 0.000000000000000e+00 1634890835
0.787742 -0.264280 -0.992822 0.000000000000000e+00 1886740808
0.774797 -0.309134 -1.014198 0.000000000000000e+00 1886740808
1.600637 -0.861413 -2.275861 0.000000000000000e+00 1634890835
1.567205 -0.964524 -2.331728 0.000000000000000e+00 1634890835
0.743600 -0.248987 -0.953370 0.000000000000000e+00 1886740808
1.725298 -0.687759 -2.298210 0.000000000000000e+00 1634890835
1.614918 -0.869788 -2.338618 0.000000000000000e+00 1634890835
1.524523 -0.939701 -2.311300 0.000000000000000e+00 1634890835
0.775283 -0.259082 -1.011210 0.000000000000000e+00 1886740808
1.694694 -0.674946 -2.297393 0.000000000000000e+00 1634890835
1.592317 -0.858313 -2.348714 0.000000000000000e+00 1634890835
1.502083 -0.927329 -2.320742 0.000000000000000e+00 1634890835
0.768009 -0.256130 -1.019139 0.000000000000000e+00 1886740808
0.723315 -0.287807 -0.997976 0.000000000000000e+00 1886740808
1.551629 -0.837076 -2.331408 0.000000000000000e+00 1634890835
1.464702 -0.905708 -2.306407 0.000000000000000e+00 1634890835
1.705860 -0.567720 -2.303168 0.000000000000000e+00 1634890835
1.653316 -0.657229 -2.321830 0.000000000000000e+00 1634890835
1.518858 -0.820093 -2.324979 0.000000000000000e+00 1634890835
1.416204 -0.877164 -2.273070 0.000000000000000e+00 1634890835
0.772024 -0.256388 -1.060619 0.000000000000000e+00 1886740808
1.607695 -0.638472 -2.298238 0.000000000000000e+00 1634890835
1.487330 -0.803772 -2.319664 0.000000000000000e+00 1634890835
1.416893 -0.879075 -2.318325 0.000000000000000e+00 1634890835
1.616916 -0.535807 -2.260460 0.000000000000000e+00 1634890835
1.590282 -0.630927 -2.314300 0.000000000000000e+00 1634890835
1.435957 -0.776700 -2.282031 0.000000000000000e+00 1634890835
1.389821 -0.863770 -2.318458 0.000000000000000e+00 1634890835
1.602450 -0.529830 -2.279877 0.000000000000000e+00 1634890835
1.526689 -0.605080 -2.261996 0.000000000000000e+00 1634890835
1.446342 -0.783032 -2.342419 0.000000000000000e+00 1634890835
1.365067 -0.849890 -2.321955 0.000000000000000e+00 1634890835
1.610453 -0.531260 -2.332016 0.000000000000000e+00 1634890835
1.545078 -0.611728 -2.330936 0.000000000000000e+00 1634890835
1.400464 -0.758904 -2.311707 0.000000000000000e+00 1634890835
1.297521 -0.809305 -2.250786 0.000000000000000e+00 1634890835
1.591749 -0.523857 -2.346152 0.000000000000000e+00 1634890835
1.488555 -0.588716 -2.286807 0.000000000000000e+00 1634890835
1.391868 -0.754970 -2.341977 0.000000000000000e+00 1634890835
1.269141 -0.793080 -2.245501 0.000000000000000e+00 1634890835
1.533580 -0.503500 -2.301075 0.000000000000000e+00 1634890835
1.482029 -0.585490 -2.318758 0.000000000000000e+00 1634890835
1.335754 -0.725247 -2.291372 0.000000000000000e+00 1634890835
1.280022 -0.801410 -2.310317 0.000000000000000e+00 1634890835
1.501120 -0.491624 -2.293134 0.000000000000000e+00 1634890835
1.445011 -0.570222 -2.302799 0.000000000000000e+00 1634890835
1.301114 -0.707152 -2.275793 0.000000000000000e+00 1634890835
1.275221 -0.799974 -2.348344 0.000000000000000e+00 1634890835
1.464982 -0.478573 -2.278698 0.000000000000000e+00 1634890835
1.417168 -0.558587 -2.300633 0.000000000000000e+00 1634890835
1.287483 -0.700471 -2.296547 0.000000000000000e+00 1634890835
1.225815 -0.770534 -2.303559 0.000000000000000e+00 1634890835
1.440697 -0.469412 -2.282024 0.000000000000000e+00 1634890835
1.407323 -0.554047 -2.327661 0.000000000000000e+00 1634890835
1.284011 -0.699327 -2.336092 0.000000000000000e+00 1634890835
1.183658 -0.745577 -2.270272 0.000000000000000e+00 1634890835
1.430415 -0.464812 -2.307592 0.000000000000000e+00 1634890835
1.373411 -0.540034 -2.314665 0.000000000000000e+00 1634890835
1.229507 -0.670375 -2.282000 0.000000000000000e+00 1634890835
1.175001 -0.741703 -2.300656 0.000000000000000e+00 1634890835
1.406448 -0.455765 -2.311156 0.000000000000000e+00 1634890835
1.356876 -0.532861 -2.330527 0.000000000000000e+00 1634890835
1.223391 -0.667794 -2.316823 0.000000000000000e+00 1634890835
1.151319 -0.728352 -2.301757 0.000000000000000e+00 1634890835
1.385000 -0.447541 -2.318603 0.000000000000000e+00 1634890835
1.293167 -0.507184 -2.263933 0.000000000000000e+00 1634890835
1.205324 -0.658695 -2.329474 0.000000000000000e+00 1634890835
1.134246 -0.719174 -2.315874 0.000000000000000e+00 1634890835
1.333178 -0.429535 -2.274058 0.000000000000000e+00 1634890835
1.293015 -0.506448 -2.307704 0.000000000000000e+00 1634890835
1.163099 -0.636380 -2.294489 0.000000000000000e+00 1634890835
1.107261 -0.703698 -2.309404 0.000000000000000e+00 1634890835
1.323909 -0.425264 -2.301325 0.000000000000000e+00 1634890835
1.257002 -0.491666 -2.287474 0.000000000000000e+00 1634890835
1.150744 -0.630395 -2.317691 0.000000000000000e+00 1634890835
1.077589 -0.686485 -2.296406 0.000000000000000e+00 1634890835
1.308757 -0.419091 -2.318770 0.000000000000000e+00 1634890835
1.241477 -0.484907 -2.303999 0.000000000000000e+00 1634890835
1.112535 -0.610236 -2.288210 0.000000000000000e+00 1634890835
1.033841 -0.660246 -2.251665 0.000000000000000e+00 1634890835
1.289888 -0.411724 -2.329733 0.000000000000000e+00 1634890835
1.231220 -0.480198 -2.330702 0.000000000000000e+00 1634890835
1.096352 -0.602148 -2.303249 0.000000000000000e+00 1634890835
1.016883 -0.651076 -2.264075 0.000000000000000e+00 1634890835
1.243693 -0.395666 -2.290359 0.000000000000000e+00 1634890835
1.198660 -0.466796 -2.314959 0.000000000000000e+00 1634890835
1.087300 -0.597984 -2.333764 0.000000000000000e+00 1634890835
1.016198 -0.652355 -2.313601 0.000000000000000e+00 1634890835
1.245089 -0.394755 -2.338360 0.000000000000000e+00 1634890835
1.201777 -0.467281 -2.368425 0.000000000000000e+00 1634890835
1.081906 -0.595848 -2.373160 0.000000000000000e+00 1634890835
0.967034 -0.622487 -2.252003 0.000000000000000e+00 1634890835
1.213368 -0.383337 -2.324411 0.000000000000000e+00 1634890835
1.149077 -0.446072 -2.311381 0.000000000000000e+00 1634890835
1.024024 -0.564783 -2.296136 0.000000000000000e+00 1634890835
0.946583 -0.611043 -2.255471 0.000000000000000e+00 1634890835
1.182363 -0.372174 -2.310862 0.000000000000000e+00 1634890835
1.092866 -0.423546 -2.244287 0.000000000000000e+00 1634890835
1.020643 -0.563760 -2.340115 0.000000000000000e+00 1634890835
0.926819 -0.600030 -2.260295 0.000000000000000e+00 1634890835
1.158569 -0.363302 -2.310711 0.000000000000000e+00 1634890835
1.093449 -0.423042 -2.293011 0.000000000000000e+00 1634890835
1.014944 -0.561477 -2.380197 0.000000000000000e+00 1634890835
0.923968 -0.599993 -2.307101 0.000000000000000e+00 1634890835
1.131379 -0.353383 -2.303218 0.000000000000000e+00 1634890835
1.071780 -0.413920 -2.295736 0.000000000000000e+00 1634890835
0.972074 -0.538622 -2.332474 0.000000000000000e+00 1634890835
0.881108 -0.573955 -2.253383 0.000000000000000e+00 1634890835
1.102769 -0.343043 -2.292039 0.000000000000000e+00 1634890835
1.062198 -0.409461 -2.324608 0.000000000000000e+00 1634890835
0.950198 -0.527375 -2.333592 0.000000000000000e+00 1634890835
0.870199 -0.568692 -2.280263 0.000000000000000e+00 1634890835
1.098493 -0.340269 -2.331625 0.000000000000000e+00 1634890835
1.059244 -0.407539 -2.369148 0.000000000000000e+00 1634890835
0.899602 -0.500154 -2.262082 0.000000000000000e+00 1634890835
0.859436 -0.563555 -2.308411 0.000000000000000e+00 1634890835
1.042262 -0.321433 -2.259855 0.000000000000000e+00 1634890835
0.993198 -0.381369 -2.270988 0.000000000000000e+00 1634890835
0.904464 -0.503756 -2.329474 0.000000000000000e+00 1634890835
0.846616 -0.557097 -2.331856 0.000000000000000e+00 1634890835
1.038215 -0.318722 -2.300157 0.000000000000000e+00 1634890835
0.987382 -0.378351 -2.308787 0.000000000000000e+00 1634890835
0.870220 -0.485583 -2.296543 0.000000000000000e+00 1634890835
0.447996 -0.295870 -1.265895 0.000000000000000e+00 1936876886
1.014584 -0.309986 -2.297498 0.000000000000000e+00 1634890835
0.952699 -0.364276 -2.278865 0.000000000000000e+00 1634890835
0.881569 -0.492869 -2.384851 0.000000000000000e+00 1634890835
0.442033 -0.293041 -1.282005 0.000000000000000e+00 1936876886
0.998533 -0.303570 -2.311872 0.000000000000000e+00 1634890835
0.952781 -0.363492 -2.332231 0.000000000000000e+00 1634890835
0.832265 -0.466240 -2.308950 0.000000000000000e+00 1634890835
0.423967 -0.282178 -1.262679 0.000000000000000e+00 1936876886
0.968179 -0.292820 -2.292635 0.000000000000000e+00 1634890835
0.902139 -0.343368 -2.260616 0.000000000000000e+00 1634890835
0.447551 -0.251247 -1.273924 0.000000000000000e+00 1936876886
0.337799 -0.225756 -1.033646 0.000000000000000e+00 1953264973
0.946972 -0.284862 -2.294279 0.000000000000000e+00 1634890835
0.915334 -0.347542 -2.348961 0.000000000000000e+00 1634890835
0.447707 -0.251885 -1.308140 0.000000000000000e+00 1936876886
0.308167 -0.206842 -0.969378 0.000000000000000e+00 1953264973
0.500439 -0.149689 -1.240933 0.000000000000000e+00 1936876886
0.879543 -0.333104 -2.312449 0.000000000000000e+00 1634890835
0.363132 -0.204770 -1.089697 0.000000000000000e+00 1953264973
0.291659 -0.196645 -0.943687 0.000000000000000e+00 1953264973
0.490079 -0.145725 -1.244280 0.000000000000000e+00 1936876886
0.844069 -0.318819 -2.274560 0.000000000000000e+00 1634890835
0.326134 -0.184347 -1.005666 0.000000000000000e+00 1953264973
0.271617 -0.183996 -0.904533 0.000000000000000e+00 1953264973
0.484105 -0.143058 -1.258991 0.000000000000000e+00 1936876886
0.855191 -0.322122 -2.363106 0.000000000000000e+00 1634890835
0.318614 -0.180548 -1.010158 0.000000000000000e+00 1953264973
0.240132 -0.163474 -0.823605 0.000000000000000e+00 1953264973
