# .PCD v0.7 - Point Cloud Data file format
VERSION 0.7
FIELDS x y z rgb label
SIZE 4 4 4 4 4
TYPE F F F F U
COUNT 1 1 1 1 1
WIDTH 543
HEIGHT 1
VIEWPOINT 0 0 0 1 0 0 0
POINTS 543
DATA ascii
44.043587 -16.779665 10.171070 0.000000000000000e+00 1954047316
41.182045 -21.053621 10.199853 0.000000000000000e+00 1954047316
40.242184 -22.457396 10.120267 0.000000000000000e+00 1954047316
41.473984 -15.431065 -2.258526 0.000000000000000e+00 1851878480
34.768620 -14.548641 -1.794353 0.000000000000000e+00 1851878480
30.769041 -15.873325 -1.357050 0.000000000000000e+00 1851878480
30.090578 -17.074301 -1.183857 0.000000000000000e+00 1851878480
31.421680 -11.682091 -1.996352 0.000000000000000e+00 1851878480
30.515024 -12.764284 -1.860265 0.000000000000000e+00 1851878480
28.592865 -14.755216 -1.546169 0.000000000000000e+00 1851878480
27.881527 -15.830151 -1.384584 0.000000000000000e+00 1851878480
28.857338 -10.720573 -2.095586 0.000000000000000e+00 1851878480
28.136745 -11.765361 -1.978688 0.000000000000000e+00 1851878480
27.188587 -14.034897 -1.741606 0.000000000000000e+00 1851878480
26.465633 -15.035124 -1.587607 0.000000000000000e+00 1851878480
26.774584 -9.939266 -2.187796 0.000000000000000e+00 1851878480
26.453140 -11.057471 -2.108179 0.000000000000000e+00 1851878480
25.745667 -13.294168 -1.906452 0.000000000000000e+00 1851878480
24.895144 -14.151264 -1.750848 0.000000000000000e+00 1851878480
24.496937 -9.086848 -2.224669 0.000000000000000e+00 1851878480
24.681871 -10.313453 -2.198574 0.000000000000000e+00 1851878480
23.908154 -12.349160 -2.009619 0.000000000000000e+00 1851878480
23.458462 -13.342500 -1.892757 0.000000000000000e+00 1851878480
22.304178 -8.267168 -2.228800 0.000000000000000e+00 1851878480
22.555077 -9.421455 -2.220997 0.000000000000000e+00 1851878480
22.137333 -11.438048 -2.082610 0.000000000000000e+00 1851878480
21.814369 -12.414728 -1.986384 0.000000000000000e+00 1851878480
20.451765 -7.574784 -2.230320 0.000000000000000e+00 1851878480
20.573929 -8.590878 -2.219447 0.000000000000000e+00 1851878480
20.491299 -10.590846 -2.133435 0.000000000000000e+00 1851878480
20.072725 -11.430326 -2.036371 0.000000000000000e+00 1851878480
18.927172 -7.004759 -2.237034 0.000000000000000e+00 1851878480
18.980032 -7.922535 -2.226326 0.000000000000000e+00 1851878480
19.143110 -9.897128 -2.185562 0.000000000000000e+00 1851878480
18.752111 -10.684643 -2.097631 0.000000000000000e+00 1851878480
17.577662 -6.500334 -2.238437 0.000000000000000e+00 1851878480
17.614540 -7.349960 -2.232402 0.000000000000000e+00 1851878480
17.704601 -9.156263 -2.199706 0.000000000000000e+00 1851878480
17.629780 -10.051140 -2.156020 0.000000000000000e+00 1851878480
16.396889 -6.059025 -2.238437 0.000000000000000e+00 1851878480
16.435860 -6.855712 -2.238437 0.000000000000000e+00 1851878480
16.466024 -8.518375 -2.212071 0.000000000000000e+00 1851878480
16.510445 -9.418596 -2.191778 0.000000000000000e+00 1851878480
8.776185 -3.240510 -1.278724 1.880790849211783e-38 1684957512
15.366792 -6.407503 -2.238437 0.000000000000000e+00 1851878480
15.398883 -7.968804 -2.224537 0.000000000000000e+00 1851878480
15.398105 -8.789299 -2.205513 0.000000000000000e+00 1851878480
8.254584 -3.045562 -1.278724 1.880790849211783e-38 1684957512
8.241181 -3.435109 -1.278724 1.880790849211783e-38 1684957512
14.475286 -7.493203 -2.237948 0.000000000000000e+00 1851878480
14.443095 -8.249115 -2.220503 0.000000000000000e+00 1851878480
8.074632 -2.976868 -1.325357 1.880790849211783e-38 1684957512
8.074632 -3.364491 -1.329735 1.880790849211783e-38 1684957512
13.584805 -7.034460 -2.238437 0.000000000000000e+00 1851878480
13.584626 -7.763465 -2.231669 0.000000000000000e+00 1851878480
8.074632 -2.974563 -1.400043 1.880790849211783e-38 1684957512
8.074630 -3.363284 -1.406779 1.880790849211783e-38 1684957512
12.793022 -6.626552 -2.238437 0.000000000000000e+00 1851878480
12.802244 -7.320749 -2.238436 0.000000000000000e+00 1851878480
8.074631 -2.972249 -1.474920 1.880790849211783e-38 1684957512
8.074630 -3.362083 -1.484028 1.880790849211783e-38 1684957512
12.086501 -6.262572 -2.238437 0.000000000000000e+00 1851878480
12.070432 -6.906451 -2.238437 0.000000000000000e+00 1851878480
8.074630 -2.969932 -1.549995 1.880790849211783e-38 1684957512
8.074630 -3.360873 -1.561491 1.880790849211783e-38 1684957512
11.452117 -5.935750 -2.238438 0.000000000000000e+00 1851878480
11.415788 -6.535828 -2.238438 0.000000000000000e+00 1851878480
8.074632 -2.967609 -1.625283 1.880790849211783e-38 1684957512
8.074629 -3.359658 -1.639183 1.880790849211783e-38 1684957512
10.879249 -5.640618 -2.238438 0.000000000000000e+00 1851878480
10.826599 -6.202271 -2.238438 0.000000000000000e+00 1851878480
8.074632 -2.965280 -1.700795 1.880790849211783e-38 1684957512
8.074630 -3.358443 -1.717116 1.880790849211783e-38 1684957512
10.359291 -5.372748 -2.238438 0.000000000000000e+00 1851878480
10.293447 -5.900439 -2.238437 0.000000000000000e+00 1851878480
8.074631 -2.962947 -1.776545 1.880790849211783e-38 1684957512
8.074630 -3.357222 -1.795305 1.880790849211783e-38 1684957512
9.885145 -5.128488 -2.238437 0.000000000000000e+00 1851878480
9.808613 -5.625964 -2.238437 0.000000000000000e+00 1851878480
8.074631 -2.960605 -1.852542 1.880790849211783e-38 1684957512
8.074630 -3.356001 -1.873758 1.880790849211783e-38 1684957512
9.450982 -4.904817 -2.238437 0.000000000000000e+00 1851878480
9.365765 -5.375259 -2.238436 0.000000000000000e+00 1851878480
8.074630 -2.958258 -1.928801 1.880790849211783e-38 1684957512
8.074630 -3.354773 -1.952492 1.880790849211783e-38 1684957512
9.051873 -4.699208 -2.238437 0.000000000000000e+00 1851878480
8.959609 -5.145329 -2.238436 0.000000000000000e+00 1851878480
8.074631 -2.955901 -2.005332 1.880790849211783e-38 1684957512
8.074631 -3.353540 -2.031519 1.880790849211783e-38 1684957512
8.683684 -4.509526 -2.238436 0.000000000000000e+00 1851878480
8.585710 -4.933655 -2.238436 0.000000000000000e+00 1851878480
8.074630 -2.953543 -2.082151 1.880790849211783e-38 1684957512
8.074631 -3.352306 -2.110853 1.880790849211783e-38 1684957512
8.342906 -4.333968 -2.238437 0.000000000000000e+00 1851878480
8.240313 -4.738125 -2.238437 0.000000000000000e+00 1851878480
8.074631 -2.951173 -2.159269 1.880790849211783e-38 1684957512
8.074630 -3.351064 -2.190507 1.880790849211783e-38 1684957512
8.026534 -4.170986 -2.238436 0.000000000000000e+00 1851878480
7.920231 -4.556928 -2.238437 0.000000000000000e+00 1851878480
8.074630 -2.948792 -2.236701 1.880790849211783e-38 1684957512
7.960608 -3.302518 -2.238436 0.000000000000000e+00 1851878480
7.731997 -4.019246 -2.238437 0.000000000000000e+00 1851878480
7.622729 -4.388510 -2.238437 0.000000000000000e+00 1851878480
7.809415 -2.849624 -2.238437 0.000000000000000e+00 1851878480
7.688564 -3.188468 -2.238437 0.000000000000000e+00 1851878480
7.457070 -3.877615 -2.238437 0.000000000000000e+00 1851878480
7.345469 -4.231552 -2.238437 0.000000000000000e+00 1851878480
7.554509 -2.754368 -2.238437 0.000000000000000e+00 1851878480
7.433390 -3.081489 -2.238437 0.000000000000000e+00 1851878480
7.199819 -3.745089 -2.238437 0.000000000000000e+00 1851878480
7.086403 -4.084901 -2.238436 0.000000000000000e+00 1851878480
7.314676 -2.664743 -2.238437 0.000000000000000e+00 1851878480
7.193527 -2.980932 -2.238437 0.000000000000000e+00 1851878480
6.958557 -3.620797 -2.238437 0.000000000000000e+00 1851878480
6.843769 -3.947545 -2.238437 0.000000000000000e+00 1851878480
7.088570 -2.580255 -2.238437 0.000000000000000e+00 1851878480
6.967601 -2.886216 -2.238437 0.000000000000000e+00 1851878480
6.731793 -3.503978 -2.238437 0.000000000000000e+00 1851878480
6.616003 -3.818611 -2.238437 0.000000000000000e+00 1851878480
6.875038 -2.500459 -2.238437 0.000000000000000e+00 1851878480
6.754412 -2.796839 -2.238437 0.000000000000000e+00 1851878480
6.518242 -3.393963 -2.238437 0.000000000000000e+00 1851878480
6.401758 -3.697333 -2.238437 0.000000000000000e+00 1851878480
6.673017 -2.424967 -2.238437 0.000000000000000e+00 1851878480
6.552876 -2.712350 -2.238437 0.000000000000000e+00 1851878480
6.316742 -3.290162 -2.238437 0.000000000000000e+00 1851878480
6.199831 -3.583026 -2.238437 0.000000000000000e+00 1851878480
6.481576 -2.353431 -2.238437 0.000000000000000e+00 1851878480
6.362036 -2.632344 -2.238437 0.000000000000000e+00 1851878480
6.126276 -3.192041 -2.238437 0.000000000000000e+00 1851878480
6.009157 -3.475094 -2.238437 0.000000000000000e+00 1851878480
6.299880 -2.285538 -2.238437 0.000000000000000e+00 1851878480
6.181035 -2.556464 -2.238437 0.000000000000000e+00 1851878480
5.945932 -3.099136 -2.238437 0.000000000000000e+00 1851878480
5.828792 -3.372996 -2.238437 0.000000000000000e+00 1851878480
6.127174 -2.221004 -2.238437 0.000000000000000e+00 1851878480
6.009105 -2.484383 -2.238437 0.000000000000000e+00 1851878480
5.774896 -3.011024 -2.238437 0.000000000000000e+00 1851878480
5.657897 -3.276260 -2.238437 0.000000000000000e+00 1851878480
5.962791 -2.159580 -2.238437 0.000000000000000e+00 1851878480
5.845564 -2.415825 -2.238437 0.000000000000000e+00 1851878480
5.612446 -2.927338 -2.238436 0.000000000000000e+00 1851878480
5.495725 -3.184459 -2.238437 0.000000000000000e+00 1851878480
5.806118 -2.101040 -2.238437 0.000000000000000e+00 1851878480
5.689784 -2.350519 -2.238437 0.000000000000000e+00 1851878480
5.457927 -2.847736 -2.238437 0.000000000000000e+00 1851878480
5.341593 -3.097215 -2.238437 0.000000000000000e+00 1851878480
5.656603 -2.045173 -2.238437 0.000000000000000e+00 1851878480
5.541206 -2.288232 -2.238437 0.000000000000000e+00 1851878480
5.310748 -2.771917 -2.238437 0.000000000000000e+00 1851878480
5.194901 -3.014180 -2.238437 0.000000000000000e+00 1851878480
5.513746 -1.991796 -2.238437 0.000000000000000e+00 1851878480
5.399321 -2.228749 -2.238437 0.000000000000000e+00 1851878480
5.170379 -2.699605 -2.238437 0.000000000000000e+00 1851878480
5.055098 -2.935049 -2.238437 0.000000000000000e+00 1851878480
5.377090 -1.940737 -2.238437 0.000000000000000e+00 1851878480
5.263662 -2.171881 -2.238437 0.000000000000000e+00 1851878480
5.036329 -2.630550 -2.238437 0.000000000000000e+00 1851878480
4.921686 -2.859534 -2.238437 0.000000000000000e+00 1851878480
5.246226 -1.891841 -2.238437 0.000000000000000e+00 1851878480
5.133816 -2.117446 -2.238437 0.000000000000000e+00 1851878480
4.908173 -2.564530 -2.238437 0.000000000000000e+00 1851878480
4.794223 -2.787388 -2.238437 0.000000000000000e+00 1851878480
5.120775 -1.844969 -2.238437 0.000000000000000e+00 1851878480
5.009397 -2.065288 -2.238437 0.000000000000000e+00 1851878480
4.785506 -2.501340 -2.238437 0.000000000000000e+00 1851878480
4.672301 -2.718375 -2.238437 0.000000000000000e+00 1851878480
5.000387 -1.799991 -2.238437 0.000000000000000e+00 1851878480
4.890054 -2.015257 -2.238437 0.000000000000000e+00 1851878480
4.667967 -2.440787 -2.238437 0.000000000000000e+00 1851878480
4.555543 -2.652292 -2.238437 0.000000000000000e+00 1851878480
4.884747 -1.756788 -2.238436 0.000000000000000e+00 1851878480
4.775465 -1.967221 -2.238437 0.000000000000000e+00 1851878480
4.555222 -2.382708 -2.238436 0.000000000000000e+00 1851878480
4.443614 -2.588938 -2.238437 0.000000000000000e+00 1851878480
4.773562 -1.715246 -2.238437 0.000000000000000e+00 1851878480
4.665333 -1.921053 -2.238437 0.000000000000000e+00 1851878480
4.446965 -2.326941 -2.238437 0.000000000000000e+00 1851878480
4.336200 -2.528142 -2.238437 0.000000000000000e+00 1851878480
4.666568 -1.675274 -2.238437 0.000000000000000e+00 1851878480
4.559394 -1.876641 -2.238437 0.000000000000000e+00 1851878480
4.342922 -2.273345 -2.238436 0.000000000000000e+00 1851878480
4.233022 -2.469744 -2.238437 0.000000000000000e+00 1851878480
4.563516 -1.636773 -2.238437 0.000000000000000e+00 1851878480
4.457395 -1.833883 -2.238437 0.000000000000000e+00 1851878480
4.242836 -2.221786 -2.238437 0.000000000000000e+00 1851878480
4.133816 -2.413596 -2.238437 0.000000000000000e+00 1851878480
4.464175 -1.599664 -2.238437 0.000000000000000e+00 1851878480
4.359103 -1.792678 -2.238437 0.000000000000000e+00 1851878480
4.146469 -2.172143 -2.238437 0.000000000000000e+00 1851878480
4.038342 -2.359562 -2.238437 0.000000000000000e+00 1851878480
4.368336 -1.563858 -2.238437 0.000000000000000e+00 1851878480
4.264306 -1.752938 -2.238437 0.000000000000000e+00 1851878480
4.053600 -2.124303 -2.238437 0.000000000000000e+00 1851878480
3.946379 -2.307511 -2.238437 0.000000000000000e+00 1851878480
4.275803 -1.529292 -2.238436 0.000000000000000e+00 1851878480
4.172812 -1.714583 -2.238437 0.000000000000000e+00 1851878480
3.964034 -2.078166 -2.238437 0.000000000000000e+00 1851878480
3.857724 -2.257338 -2.238437 0.000000000000000e+00 1851878480
4.186399 -1.495892 -2.238437 0.000000000000000e+00 1851878480
4.084435 -1.677535 -2.238437 0.000000000000000e+00 1851878480
3.877583 -2.033632 -2.238437 0.000000000000000e+00 1851878480
3.772188 -2.208928 -2.238436 0.000000000000000e+00 1851878480
4.099952 -1.463600 -2.238437 0.000000000000000e+00 1851878480
3.999007 -1.641724 -2.238437 0.000000000000000e+00 1851878480
3.794074 -1.990615 -2.238437 0.000000000000000e+00 1851878480
3.689598 -2.162188 -2.238437 0.000000000000000e+00 1851878480
4.016307 -1.432354 -2.238437 0.000000000000000e+00 1851878480
3.916369 -1.607083 -2.238437 0.000000000000000e+00 1851878480
3.713347 -1.949030 -2.238437 0.000000000000000e+00 1851878480
3.609788 -2.117021 -2.238437 0.000000000000000e+00 1851878480
4.006149 -1.427337 -2.278727 0.000000000000000e+00 1634890835
3.836379 -1.573550 -2.238437 0.000000000000000e+00 1851878480
3.635252 -1.908802 -2.238437 0.000000000000000e+00 1851878480
3.532611 -2.073344 -2.238437 0.000000000000000e+00 1851878480
3.926264 -1.397496 -2.278727 0.000000000000000e+00 1634890835
3.758892 -1.541069 -2.238437 0.000000000000000e+00 1851878480
3.559652 -1.869856 -2.238437 0.000000000000000e+00 1851878480
3.457924 -2.031077 -2.238437 0.000000000000000e+00 1851878480
3.848818 -1.368568 -2.278727 0.000000000000000e+00 1634890835
3.683790 -1.509587 -2.238437 0.000000000000000e+00 1851878480
3.486420 -1.832133 -2.238437 0.000000000000000e+00 1851878480
3.385601 -1.990148 -2.238437 0.000000000000000e+00 1851878480
3.773686 -1.340506 -2.278727 0.000000000000000e+00 1634890835
3.610949 -1.479054 -2.238437 0.000000000000000e+00 1851878480
3.415431 -1.795568 -2.238437 0.000000000000000e+00 1851878480
3.315518 -1.950489 -2.238437 0.000000000000000e+00 1851878480
3.700758 -1.313266 -2.278727 0.000000000000000e+00 1634890835
3.540260 -1.449423 -2.238437 0.000000000000000e+00 1851878480
3.346578 -1.760101 -2.238437 0.000000000000000e+00 1851878480
3.247562 -1.912035 -2.238437 0.000000000000000e+00 1851878480
3.629924 -1.286810 -2.278727 0.000000000000000e+00 1634890835
3.471617 -1.420646 -2.238437 0.000000000000000e+00 1851878480
3.279752 -1.725677 -2.238437 0.000000000000000e+00 1851878480
3.181628 -1.874722 -2.238437 0.000000000000000e+00 1851878480
3.561090 -1.261100 -2.278727 0.000000000000000e+00 1634890835
3.466211 -1.417759 -2.278727 0.000000000000000e+00 1634890835
3.214856 -1.692248 -2.238437 0.000000000000000e+00 1851878480
3.117618 -1.838501 -2.238437 0.000000000000000e+00 1851878480
3.494162 -1.236102 -2.278727 0.000000000000000e+00 1634890835
3.400212 -1.390092 -2.278727 0.000000000000000e+00 1634890835
3.151799 -1.659766 -2.238437 0.000000000000000e+00 1851878480
3.055438 -1.803315 -2.238437 0.000000000000000e+00 1851878480
3.429050 -1.211785 -2.278727 0.000000000000000e+00 1634890835
3.336017 -1.363182 -2.278727 0.000000000000000e+00 1634890835
3.090494 -1.628187 -2.238437 0.000000000000000e+00 1851878480
2.995002 -1.769117 -2.238437 0.000000000000000e+00 1851878480
3.365674 -1.188116 -2.278727 0.000000000000000e+00 1634890835
3.273543 -1.336996 -2.278727 0.000000000000000e+00 1634890835
3.030860 -1.597470 -2.238437 0.000000000000000e+00 1851878480
2.936227 -1.735859 -2.238437 0.000000000000000e+00 1851878480
3.303955 -1.165064 -2.278726 0.000000000000000e+00 1634890835
3.212713 -1.311497 -2.278727 0.000000000000000e+00 1634890835
2.972819 -1.567572 -2.238437 0.000000000000000e+00 1851878480
2.879036 -1.703498 -2.238437 0.000000000000000e+00 1851878480
3.243822 -1.142608 -2.278727 0.000000000000000e+00 1634890835
3.153456 -1.286658 -2.278727 0.000000000000000e+00 1634890835
2.916300 -1.538460 -2.238437 0.000000000000000e+00 1851878480
2.823360 -1.671994 -2.238436 0.000000000000000e+00 1851878480
3.185205 -1.120717 -2.278727 0.000000000000000e+00 1634890835
3.095703 -1.262449 -2.278727 0.000000000000000e+00 1634890835
2.861238 -1.510096 -2.238437 0.000000000000000e+00 1851878480
2.769128 -1.641310 -2.238436 0.000000000000000e+00 1851878480
3.128042 -1.099369 -2.278727 0.000000000000000e+00 1634890835
3.039387 -1.238845 -2.278727 0.000000000000000e+00 1634890835
2.807566 -1.482451 -2.238437 0.000000000000000e+00 1851878480
2.716281 -1.611407 -2.238436 0.000000000000000e+00 1851878480
3.072265 -1.078540 -2.278727 0.000000000000000e+00 1634890835
2.984451 -1.215816 -2.278727 0.000000000000000e+00 1634890835
2.755225 -1.455490 -2.238437 0.000000000000000e+00 1851878480
0.840391 -0.499000 -0.705942 0.000000000000000e+00 1886740808
3.017822 -1.058209 -2.278727 0.000000000000000e+00 1634890835
2.930831 -1.193340 -2.278726 0.000000000000000e+00 1634890835
2.704158 -1.429187 -2.238437 0.000000000000000e+00 1851878480
0.824539 -0.490030 -0.705942 0.000000000000000e+00 1886740808
2.964655 -1.038356 -2.278727 0.000000000000000e+00 1634890835
2.878478 -1.171397 -2.278727 0.000000000000000e+00 1634890835
0.837098 -0.442630 -0.705942 0.000000000000000e+00 1886740808
0.809069 -0.481278 -0.705942 0.000000000000000e+00 1886740808
2.912716 -1.018961 -2.278727 0.000000000000000e+00 1634890835
2.827339 -1.149959 -2.278727 0.000000000000000e+00 1634890835
0.821748 -0.434722 -0.705942 0.000000000000000e+00 1886740808
0.793966 -0.472733 -0.705942 0.000000000000000e+00 1886740808
2.861952 -1.000005 -2.278727 0.000000000000000e+00 1634890835
2.777363 -1.129012 -2.278727 0.000000000000000e+00 1634890835
0.806751 -0.426998 -0.705942 0.000000000000000e+00 1886740808
0.779213 -0.464386 -0.705943 0.000000000000000e+00 1886740808
2.812317 -0.981473 -2.278727 0.000000000000000e+00 1634890835
2.728504 -1.108533 -2.278727 0.000000000000000e+00 1634890835
0.792093 -0.419448 -0.705943 0.000000000000000e+00 1886740808
0.764796 -0.456230 -0.705942 0.000000000000000e+00 1886740808
2.763766 -0.963343 -2.278727 0.000000000000000e+00 1634890835
0.830478 -0.337215 -0.705942 0.000000000000000e+00 1886740808
0.777761 -0.412066 -0.705942 0.000000000000000e+00 1886740808
0.750702 -0.448256 -0.705942 0.000000000000000e+00 1886740808
0.841489 -0.292945 -0.705942 0.000000000000000e+00 1886740808
0.815994 -0.331144 -0.705942 0.000000000000000e+00 1886740808
0.763743 -0.404845 -0.705942 0.000000000000000e+00 1886740808
0.744295 -0.444867 -0.713009 0.000000000000000e+00 1886740808
0.827082 -0.287567 -0.705942 0.000000000000000e+00 1886740808
0.801817 -0.325201 -0.705942 0.000000000000000e+00 1886740808
0.750025 -0.397779 -0.705942 0.000000000000000e+00 1886740808
0.744295 -0.445311 -0.726301 0.000000000000000e+00 1886740808
0.812974 -0.282300 -0.705942 0.000000000000000e+00 1886740808
0.787936 -0.319383 -0.705942 0.000000000000000e+00 1886740808
0.744295 -0.394947 -0.713321 0.000000000000000e+00 1886740808
0.744295 -0.445762 -0.739800 0.000000000000000e+00 1886740808
0.799154 -0.277139 -0.705942 0.000000000000000e+00 1886740808
0.774338 -0.313684 -0.705942 0.000000000000000e+00 1886740808
0.744295 -0.395158 -0.726288 0.000000000000000e+00 1886740808
0.744295 -0.446220 -0.753513 0.000000000000000e+00 1886740808
0.785610 -0.272083 -0.705942 0.000000000000000e+00 1886740808
0.761015 -0.308099 -0.705942 0.000000000000000e+00 1886740808
0.744295 -0.395372 -0.739457 0.000000000000000e+00 1886740808
0.744295 -0.446685 -0.767447 0.000000000000000e+00 1886740808
0.772335 -0.267127 -0.705942 0.000000000000000e+00 1886740808
0.747955 -0.302625 -0.705942 0.000000000000000e+00 1886740808
0.744295 -0.395589 -0.752833 0.000000000000000e+00 1886740808
0.744295 -0.447158 -0.781610 0.000000000000000e+00 1886740808
0.759316 -0.262267 -0.705942 0.000000000000000e+00 1886740808
0.744295 -0.300956 -0.714725 0.000000000000000e+00 1886740808
0.744295 -0.395810 -0.766426 0.000000000000000e+00 1886740808
0.744295 -0.447639 -0.796009 0.000000000000000e+00 1886740808
0.746545 -0.257499 -0.705942 0.000000000000000e+00 1886740808
0.744295 -0.300765 -0.727149 0.000000000000000e+00 1886740808
0.744295 -0.396035 -0.780241 0.000000000000000e+00 1886740808
2.092192 -1.259678 -2.278727 0.000000000000000e+00 1634890835
0.744295 -0.256362 -0.715831 0.000000000000000e+00 1886740808
0.744295 -0.300570 -0.739767 0.000000000000000e+00 1886740808
0.744295 -0.396263 -0.794287 0.000000000000000e+00 1886740808
2.054434 -1.238319 -2.278727 0.000000000000000e+00 1634890835
0.744295 -0.255996 -0.728032 0.000000000000000e+00 1886740808
0.744295 -0.300373 -0.752586 0.000000000000000e+00 1886740808
2.097578 -1.117404 -2.278726 0.000000000000000e+00 1634890835
2.017382 -1.217361 -2.278727 0.000000000000000e+00 1634890835
0.744295 -0.255624 -0.740424 0.000000000000000e+00 1886740808
0.744295 -0.300172 -0.765611 0.000000000000000e+00 1886740808
2.060545 -1.098331 -2.278727 0.000000000000000e+00 1634890835
0.796275 -0.481053 -0.915942 0.000000000000000e+00 1886740808
0.744295 -0.255246 -0.753013 0.000000000000000e+00 1886740808
0.744295 -0.299969 -0.778850 0.000000000000000e+00 1886740808
2.024177 -1.079599 -2.278727 0.000000000000000e+00 1634890835
0.784636 -0.474576 -0.919123 0.000000000000000e+00 1886740808
0.744295 -0.254862 -0.765806 0.000000000000000e+00 1886740808
0.744295 -0.299762 -0.792311 0.000000000000000e+00 1886740808
1.988454 -1.061199 -2.278728 0.000000000000000e+00 1634890835
0.775673 -0.469713 -0.925308 0.000000000000000e+00 1886740808
0.744295 -0.254473 -0.778810 0.000000000000000e+00 1886740808
2.104271 -0.846891 -2.278726 0.000000000000000e+00 1634890835
0.797388 -0.425818 -0.930213 0.000000000000000e+00 1886740808
0.768823 -0.466130 -0.933989 0.000000000000000e+00 1886740808
0.744295 -0.254077 -0.792032 0.000000000000000e+00 1886740808
2.068530 -0.831912 -2.278727 0.000000000000000e+00 1634890835
0.785518 -0.419747 -0.932844 0.000000000000000e+00 1886740808
0.764549 -0.464111 -0.945878 0.000000000000000e+00 1886740808
0.744295 -0.253673 -0.805479 0.000000000000000e+00 1886740808
2.033384 -0.817181 -2.278727 0.000000000000000e+00 1634890835
0.776431 -0.415161 -0.938647 0.000000000000000e+00 1886740808
1.808582 -1.099259 -2.278727 0.000000000000000e+00 1634890835
2.070472 -0.704526 -2.278727 0.000000000000000e+00 1634890835
1.998814 -0.802692 -2.278728 0.000000000000000e+00 1634890835
0.769417 -0.411684 -0.946931 0.000000000000000e+00 1886740808
1.775831 -1.080735 -2.278727 0.000000000000000e+00 1634890835
2.035872 -0.691612 -2.278727 0.000000000000000e+00 1634890835
1.964800 -0.788436 -2.278727 0.000000000000000e+00 1634890835
0.764805 -0.409492 -0.958243 0.000000000000000e+00 1886740808
0.749057 -0.456456 -0.978942 0.000000000000000e+00 1886740808
2.001818 -0.678901 -2.278727 0.000000000000000e+00 1634890835
1.931324 -0.774405 -2.278727 0.000000000000000e+00 1634890835
0.767168 -0.411040 -0.978586 0.000000000000000e+00 1886740808
1.711908 -1.044582 -2.278727 0.000000000000000e+00 1634890835
1.968294 -0.666389 -2.278728 0.000000000000000e+00 1634890835
0.797681 -0.319597 -0.957506 0.000000000000000e+00 1886740808
1.754623 -0.940768 -2.278727 0.000000000000000e+00 1634890835
1.680701 -1.026932 -2.278727 0.000000000000000e+00 1634890835
1.935280 -0.654068 -2.278727 0.000000000000000e+00 1634890835
0.785810 -0.314588 -0.959661 0.000000000000000e+00 1886740808
0.751062 -0.402982 -0.993125 0.000000000000000e+00 1886740808
1.649976 -1.009556 -2.278727 0.000000000000000e+00 1634890835
1.902762 -0.641932 -2.278727 0.000000000000000e+00 1634890835
0.776731 -0.310699 -0.965105 0.000000000000000e+00 1886740808
1.692478 -0.908759 -2.278727 0.000000000000000e+00 1634890835
1.619716 -0.992442 -2.278727 0.000000000000000e+00 1634890835
0.796758 -0.268312 -0.970530 0.000000000000000e+00 1886740808
0.769655 -0.307611 -0.973021 0.000000000000000e+00 1886740808
1.662098 -0.893114 -2.278727 0.000000000000000e+00 1634890835
1.589907 -0.975584 -2.278727 0.000000000000000e+00 1634890835
0.785168 -0.263918 -0.972831 0.000000000000000e+00 1886740808
0.764879 -0.305442 -0.983924 0.000000000000000e+00 1886740808
1.632162 -0.877695 -2.278728 0.000000000000000e+00 1634890835
1.560533 -0.958973 -2.278727 0.000000000000000e+00 1634890835
0.776222 -0.260415 -0.978302 0.000000000000000e+00 1886740808
0.765617 -0.305471 -1.002181 0.000000000000000e+00 1886740808
1.602653 -0.862498 -2.278727 0.000000000000000e+00 1634890835
1.531582 -0.942600 -2.278727 0.000000000000000e+00 1634890835
0.769282 -0.257587 -0.986297 0.000000000000000e+00 1886740808
1.710672 -0.681929 -2.278727 0.000000000000000e+00 1634890835
1.573560 -0.847514 -2.278727 0.000000000000000e+00 1634890835
1.503038 -0.926458 -2.278727 0.000000000000000e+00 1634890835
0.764661 -0.255532 -0.997355 0.000000000000000e+00 1886740808
1.680925 -0.669462 -2.278727 0.000000000000000e+00 1634890835
1.544870 -0.832737 -2.278727 0.000000000000000e+00 1634890835
1.474890 -0.910540 -2.278727 0.000000000000000e+00 1634890835
0.766222 -0.255534 -1.016767 0.000000000000000e+00 1886740808
0.744044 -0.296055 -1.026577 0.000000000000000e+00 1886740808
1.516568 -0.818161 -2.278727 0.000000000000000e+00 1634890835
1.447124 -0.894839 -2.278727 0.000000000000000e+00 1634890835
1.687758 -0.561696 -2.278727 0.000000000000000e+00 1634890835
1.622624 -0.645028 -2.278727 0.000000000000000e+00 1634890835
1.488642 -0.803779 -2.278727 0.000000000000000e+00 1634890835
1.419728 -0.879347 -2.278727 0.000000000000000e+00 1634890835
0.752070 -0.249762 -1.033206 0.000000000000000e+00 1886740808
1.594047 -0.633052 -2.278727 0.000000000000000e+00 1634890835
1.461082 -0.789587 -2.278727 0.000000000000000e+00 1634890835
1.392692 -0.864060 -2.278727 0.000000000000000e+00 1634890835
1.629983 -0.540137 -2.278728 0.000000000000000e+00 1634890835
1.565838 -0.621229 -2.278727 0.000000000000000e+00 1634890835
1.433878 -0.775575 -2.278727 0.000000000000000e+00 1634890835
1.366005 -0.848968 -2.278727 0.000000000000000e+00 1634890835
1.601642 -0.529563 -2.278727 0.000000000000000e+00 1634890835
1.537982 -0.609556 -2.278727 0.000000000000000e+00 1634890835
1.407015 -0.761741 -2.278727 0.000000000000000e+00 1634890835
1.339653 -0.834067 -2.278727 0.000000000000000e+00 1634890835
1.573652 -0.519120 -2.278727 0.000000000000000e+00 1634890835
1.510471 -0.598026 -2.278727 0.000000000000000e+00 1634890835
1.380485 -0.748077 -2.278727 0.000000000000000e+00 1634890835
1.313628 -0.819352 -2.278727 0.000000000000000e+00 1634890835
1.546004 -0.508803 -2.278727 0.000000000000000e+00 1634890835
1.483295 -0.586636 -2.278727 0.000000000000000e+00 1634890835
1.354277 -0.734580 -2.278727 0.000000000000000e+00 1634890835
1.287921 -0.804815 -2.278727 0.000000000000000e+00 1634890835
1.518686 -0.498610 -2.278727 0.000000000000000e+00 1634890835
1.456444 -0.575383 -2.278727 0.000000000000000e+00 1634890835
1.328382 -0.721244 -2.278728 0.000000000000000e+00 1634890835
1.262520 -0.790452 -2.278727 0.000000000000000e+00 1634890835
1.491688 -0.488535 -2.278727 0.000000000000000e+00 1634890835
1.429906 -0.564261 -2.278727 0.000000000000000e+00 1634890835
1.302791 -0.708064 -2.278727 0.000000000000000e+00 1634890835
1.237417 -0.776259 -2.278728 0.000000000000000e+00 1634890835
1.465001 -0.478579 -2.278727 0.000000000000000e+00 1634890835
1.403674 -0.553269 -2.278727 0.000000000000000e+00 1634890835
1.277493 -0.695036 -2.278727 0.000000000000000e+00 1634890835
1.212601 -0.762228 -2.278727 0.000000000000000e+00 1634890835
1.438616 -0.468734 -2.278727 0.000000000000000e+00 1634890835
1.377737 -0.542399 -2.278727 0.000000000000000e+00 1634890835
1.252480 -0.682154 -2.278727 0.000000000000000e+00 1634890835
1.188066 -0.748354 -2.278727 0.000000000000000e+00 1634890835
1.412522 -0.458998 -2.278727 0.000000000000000e+00 1634890835
1.352088 -0.531649 -2.278727 0.000000000000000e+00 1634890835
1.227744 -0.669414 -2.278727 0.000000000000000e+00 1634890835
1.163801 -0.734634 -2.278727 0.000000000000000e+00 1634890835
1.386713 -0.449370 -2.278727 0.000000000000000e+00 1634890835
1.326717 -0.521017 -2.278727 0.000000000000000e+00 1634890835
1.203275 -0.656813 -2.278727 0.000000000000000e+00 1634890835
1.139799 -0.721064 -2.278727 0.000000000000000e+00 1634890835
1.361181 -0.439844 -2.278727 0.000000000000000e+00 1634890835
1.301617 -0.510498 -2.278727 0.000000000000000e+00 1634890835
1.179066 -0.644345 -2.278727 0.000000000000000e+00 1634890835
1.116052 -0.707638 -2.278727 0.000000000000000e+00 1634890835
1.335915 -0.430417 -2.278727 0.000000000000000e+00 1634890835
1.276779 -0.500089 -2.278727 0.000000000000000e+00 1634890835
1.155110 -0.632009 -2.278727 0.000000000000000e+00 1634890835
1.092553 -0.694350 -2.278727 0.000000000000000e+00 1634890835
1.310909 -0.421088 -2.278727 0.000000000000000e+00 1634890835
1.252195 -0.489786 -2.278727 0.000000000000000e+00 1634890835
1.131398 -0.619797 -2.278727 0.000000000000000e+00 1634890835
1.069293 -0.681201 -2.278727 0.000000000000000e+00 1634890835
1.286156 -0.411854 -2.278727 0.000000000000000e+00 1634890835
1.227860 -0.479588 -2.278727 0.000000000000000e+00 1634890835
1.107924 -0.607707 -2.278727 0.000000000000000e+00 1634890835
1.046266 -0.668181 -2.278727 0.000000000000000e+00 1634890835
1.261648 -0.402710 -2.278727 0.000000000000000e+00 1634890835
1.203764 -0.469490 -2.278727 0.000000000000000e+00 1634890835
1.084680 -0.595737 -2.278727 0.000000000000000e+00 1634890835
1.023464 -0.655289 -2.278727 0.000000000000000e+00 1634890835
1.237376 -0.393657 -2.278727 0.000000000000000e+00 1634890835
1.179900 -0.459490 -2.278727 0.000000000000000e+00 1634890835
1.061658 -0.583882 -2.278727 0.000000000000000e+00 1634890835
1.000881 -0.642522 -2.278727 0.000000000000000e+00 1634890835
1.213337 -0.384688 -2.278727 0.000000000000000e+00 1634890835
1.156262 -0.449584 -2.278727 0.000000000000000e+00 1634890835
1.038854 -0.572138 -2.278727 0.000000000000000e+00 1634890835
0.978510 -0.629874 -2.278727 0.000000000000000e+00 1634890835
1.189520 -0.375803 -2.278727 0.000000000000000e+00 1634890835
1.132844 -0.439770 -2.278727 0.000000000000000e+00 1634890835
1.016261 -0.560501 -2.278727 0.000000000000000e+00 1634890835
0.956343 -0.617343 -2.278727 0.000000000000000e+00 1634890835
1.165921 -0.366999 -2.278727 0.000000000000000e+00 1634890835
1.109637 -0.430046 -2.278727 0.000000000000000e+00 1634890835
0.993869 -0.548971 -2.278727 0.000000000000000e+00 1634890835
0.934377 -0.604923 -2.278727 0.000000000000000e+00 1634890835
1.142533 -0.358274 -2.278727 0.000000000000000e+00 1634890835
1.086638 -0.420407 -2.278727 0.000000000000000e+00 1634890835
0.971676 -0.537541 -2.278727 0.000000000000000e+00 1634890835
0.912604 -0.592614 -2.278727 0.000000000000000e+00 1634890835
1.119349 -0.349626 -2.278727 0.000000000000000e+00 1634890835
1.063839 -0.410853 -2.278727 0.000000000000000e+00 1634890835
0.949675 -0.526211 -2.278727 0.000000000000000e+00 1634890835
0.891018 -0.580411 -2.278727 0.000000000000000e+00 1634890835
1.096364 -0.341051 -2.278727 0.000000000000000e+00 1634890835
1.041233 -0.401379 -2.278727 0.000000000000000e+00 1634890835
0.927858 -0.514976 -2.278727 0.000000000000000e+00 1634890835
0.869613 -0.568309 -2.278727 0.000000000000000e+00 1634890835
1.073571 -0.332549 -2.278727 0.000000000000000e+00 1634890835
1.018817 -0.391985 -2.278727 0.000000000000000e+00 1634890835
0.906222 -0.503834 -2.278727 0.000000000000000e+00 1634890835
0.848384 -0.556308 -2.278727 0.000000000000000e+00 1634890835
1.050966 -0.324117 -2.278727 0.000000000000000e+00 1634890835
0.996583 -0.382668 -2.278727 0.000000000000000e+00 1634890835
0.884761 -0.492782 -2.278727 0.000000000000000e+00 1634890835
0.827326 -0.544404 -2.278727 0.000000000000000e+00 1634890835
1.028542 -0.315752 -2.278727 0.000000000000000e+00 1634890835
0.974527 -0.373425 -2.278727 0.000000000000000e+00 1634890835
0.863469 -0.481816 -2.278727 0.000000000000000e+00 1634890835
0.451010 -0.297860 -1.274411 0.000000000000000e+00 1936876886
1.006294 -0.307453 -2.278727 0.000000000000000e+00 1634890835
0.952641 -0.364254 -2.278727 0.000000000000000e+00 1634890835
0.842340 -0.470936 -2.278727 0.000000000000000e+00 1634890835
0.433313 -0.287260 -1.256714 0.000000000000000e+00 1936876886
0.984217 -0.299218 -2.278727 0.000000000000000e+00 1634890835
0.930923 -0.355153 -2.278727 0.000000000000000e+00 1634890835
0.821371 -0.460137 -2.278727 0.000000000000000e+00 1634890835
0.421233 -0.280358 -1.254537 0.000000000000000e+00 1936876886
0.962305 -0.291044 -2.278727 0.000000000000000e+00 1634890835
0.909366 -0.346119 -2.278727 0.000000000000000e+00 1634890835
0.445941 -0.250344 -1.269343 0.000000000000000e+00 1936876886
0.335125 -0.223969 -1.025466 0.000000000000000e+00 1953264973
0.940553 -0.282931 -2.278727 0.000000000000000e+00 1634890835
0.887966 -0.337151 -2.278727 0.000000000000000e+00 1634890835
0.428905 -0.241307 -1.253204 0.000000000000000e+00 1936876886
0.306470 -0.205703 -0.964039 0.000000000000000e+00 1953264973
0.495093 -0.148090 -1.227674 0.000000000000000e+00 1936876886
0.866717 -0.328247 -2.278727 0.000000000000000e+00 1634890835
0.358552 -0.202187 -1.075955 0.000000000000000e+00 1953264973
0.281221 -0.189607 -0.909914 0.000000000000000e+00 1953264973
0.483539 -0.143780 -1.227674 0.000000000000000e+00 1936876886
0.845615 -0.319403 -2.278727 0.000000000000000e+00 1634890835
0.326692 -0.184662 -1.007389 0.000000000000000e+00 1953264973
0.258800 -0.175314 -0.861851 0.000000000000000e+00 1953264973
0.472063 -0.139500 -1.227674 0.000000000000000e+00 1936876886
0.824655 -0.310620 -2.278727 0.000000000000000e+00 1634890835
0.299052 -0.169463 -0.948137 0.000000000000000e+00 1953264973
0.238754 -0.162536 -0.818880 0.000000000000000e+00 1953264973
