# .PCD v0.7 - Point Cloud Data file format
VERSION 0.7
FIELDS x y z rgb label
SIZE 4 4 4 4 4
TYPE F F F F U
COUNT 1 1 1 1 1
WIDTH 532
HEIGHT 1
VIEWPOINT 0 0 0 1 0 0 0
POINTS 532
DATA ascii
30.038383 -11.159334 -2.181351 0.000000000000000e+00 1851878480
30.295031 -12.667847 -2.130467 0.000000000000000e+00 1851878480
28.232792 -14.573920 -1.808496 0.000000000000000e+00 1851878480
27.248476 -15.479856 -1.634567 0.000000000000000e+00 1851878480
26.792093 -9.945766 -2.189226 0.000000000000000e+00 1851878480
26.314318 -10.999442 -2.097115 0.000000000000000e+00 1851878480
25.350895 -13.090322 -1.877219 0.000000000000000e+00 1851878480
24.553072 -13.956819 -1.726790 0.000000000000000e+00 1851878480
24.116863 -8.945864 -2.190154 0.000000000000000e+00 1851878480
24.250961 -10.133395 -2.160190 0.000000000000000e+00 1851878480
23.273256 -12.021220 -1.956252 0.000000000000000e+00 1851878480
22.770102 -12.950981 -1.837216 0.000000000000000e+00 1851878480
22.084246 -8.185649 -2.206823 0.000000000000000e+00 1851878480
22.184555 -9.266685 -2.184511 0.000000000000000e+00 1851878480
21.708269 -11.216355 -2.042246 0.000000000000000e+00 1851878480
21.289764 -12.116171 -1.938614 0.000000000000000e+00 1851878480
20.449823 -7.574065 -2.230108 0.000000000000000e+00 1851878480
20.434719 -8.532750 -2.204429 0.000000000000000e+00 1851878480
20.501522 -10.596130 -2.134499 0.000000000000000e+00 1851878480
20.147154 -11.472709 -2.043921 0.000000000000000e+00 1851878480
18.934128 -7.007334 -2.237857 0.000000000000000e+00 1851878480
18.928999 -7.901234 -2.220340 0.000000000000000e+00 1851878480
19.248198 -9.951460 -2.197561 0.000000000000000e+00 1851878480
19.049847 -10.854288 -2.130935 0.000000000000000e+00 1851878480
17.577484 -6.500268 -2.238415 0.000000000000000e+00 1851878480
17.637466 -7.359526 -2.235307 0.000000000000000e+00 1851878480
17.880007 -9.246977 -2.221499 0.000000000000000e+00 1851878480
17.996864 -10.260422 -2.200912 0.000000000000000e+00 1851878480
16.405453 -6.062190 -2.239607 0.000000000000000e+00 1851878480
16.422441 -6.850115 -2.236610 0.000000000000000e+00 1851878480
16.621666 -8.598894 -2.232980 0.000000000000000e+00 1851878480
16.764353 -9.563440 -2.225484 0.000000000000000e+00 1851878480
15.401491 -5.686832 -2.244057 0.000000000000000e+00 1851878480
15.414869 -6.427550 -2.245441 0.000000000000000e+00 1851878480
15.438504 -7.989307 -2.230261 0.000000000000000e+00 1851878480
15.551365 -8.876781 -2.227464 0.000000000000000e+00 1851878480
14.488145 -5.345459 -2.244371 0.000000000000000e+00 1851878480
14.437150 -6.017728 -2.240108 0.000000000000000e+00 1851878480
14.493363 -7.502561 -2.240743 0.000000000000000e+00 1851878480
14.522495 -8.294464 -2.232710 0.000000000000000e+00 1851878480
13.629845 -5.024905 -2.237181 0.000000000000000e+00 1851878480
13.631960 -5.680086 -2.244918 0.000000000000000e+00 1851878480
13.668088 -7.077586 -2.252160 0.000000000000000e+00 1851878480
13.579040 -7.760273 -2.230751 0.000000000000000e+00 1851878480
12.947131 -4.769512 -2.244875 0.000000000000000e+00 1851878480
12.932244 -5.386602 -2.253082 0.000000000000000e+00 1851878480
12.845747 -6.653862 -2.247662 0.000000000000000e+00 1851878480
12.812258 -7.326474 -2.240187 0.000000000000000e+00 1851878480
12.278575 -4.519709 -2.242816 0.000000000000000e+00 1851878480
12.170879 -5.067664 -2.236874 0.000000000000000e+00 1851878480
12.108860 -6.274157 -2.242578 0.000000000000000e+00 1851878480
12.094989 -6.920502 -2.242991 0.000000000000000e+00 1851878480
11.684672 -4.297743 -2.242974 0.000000000000000e+00 1851878480
11.587270 -4.822926 -2.240774 0.000000000000000e+00 1851878480
11.473132 -5.946643 -2.242545 0.000000000000000e+00 1851878480
11.475233 -6.569861 -2.250095 0.000000000000000e+00 1851878480
11.178789 -4.108457 -2.250096 0.000000000000000e+00 1851878480
11.025015 -4.587242 -2.238124 0.000000000000000e+00 1851878480
10.950164 -5.677386 -2.253029 0.000000000000000e+00 1851878480
10.816587 -6.196536 -2.236368 0.000000000000000e+00 1851878480
10.632848 -3.904744 -2.239643 0.000000000000000e+00 1851878480
10.578992 -4.400071 -2.249683 0.000000000000000e+00 1851878480
10.424025 -5.406322 -2.252426 0.000000000000000e+00 1851878480
10.260022 -5.881279 -2.231169 0.000000000000000e+00 1851878480
10.170751 -3.732109 -2.237725 0.000000000000000e+00 1851878480
10.080872 -4.191366 -2.241371 0.000000000000000e+00 1851878480
9.879449 -5.125533 -2.237147 0.000000000000000e+00 1851878480
9.843050 -5.645716 -2.246296 0.000000000000000e+00 1851878480
9.727254 -3.566548 -2.231700 0.000000000000000e+00 1851878480
9.692478 -4.028415 -2.249188 0.000000000000000e+00 1851878480
9.489512 -4.924813 -2.247563 0.000000000000000e+00 1851878480
9.391248 -5.389884 -2.244527 0.000000000000000e+00 1851878480
9.371193 -3.433273 -2.238513 0.000000000000000e+00 1851878480
9.301566 -3.864530 -2.249173 0.000000000000000e+00 1851878480
9.016032 -4.680602 -2.229574 0.000000000000000e+00 1851878480
9.011977 -5.175403 -2.251520 0.000000000000000e+00 1851878480
9.062651 -3.317589 -2.250707 0.000000000000000e+00 1851878480
8.891706 -3.692887 -2.237089 0.000000000000000e+00 1851878480
8.722409 -4.529636 -2.248419 0.000000000000000e+00 1851878480
8.610775 -4.948059 -2.244972 0.000000000000000e+00 1851878480
8.690028 -3.178644 -2.240840 0.000000000000000e+00 1851878480
8.576191 -3.560536 -2.241970 0.000000000000000e+00 1851878480
8.409624 -4.368627 -2.256338 0.000000000000000e+00 1851878480
8.247292 -4.742137 -2.240333 0.000000000000000e+00 1851878480
8.381436 -3.063307 -2.241313 0.000000000000000e+00 1851878480
8.265857 -3.430426 -2.242384 0.000000000000000e+00 1851878480
8.084783 -4.201255 -2.254681 0.000000000000000e+00 1851878480
7.961268 -4.580539 -2.250035 0.000000000000000e+00 1851878480
8.124894 -2.967149 -2.250624 0.000000000000000e+00 1851878480
8.016857 -3.325853 -2.254253 0.000000000000000e+00 1851878480
7.750694 -4.028965 -2.243850 0.000000000000000e+00 1851878480
7.596002 -4.373123 -2.230588 0.000000000000000e+00 1851878480
7.808074 -2.849134 -2.238052 0.000000000000000e+00 1851878480
7.755394 -3.216182 -2.257894 0.000000000000000e+00 1851878480
7.493675 -3.896649 -2.249425 0.000000000000000e+00 1851878480
7.328272 -4.221646 -2.233196 0.000000000000000e+00 1851878480
7.594681 -2.769015 -2.250340 0.000000000000000e+00 1851878480
7.472537 -3.097717 -2.250226 0.000000000000000e+00 1851878480
7.250296 -3.771345 -2.254130 0.000000000000000e+00 1851878480
7.104632 -4.095409 -2.244195 0.000000000000000e+00 1851878480
7.335062 -2.672170 -2.244676 0.000000000000000e+00 1851878480
7.222725 -2.993031 -2.247523 0.000000000000000e+00 1851878480
7.005803 -3.645381 -2.253635 0.000000000000000e+00 1851878480
6.912343 -3.987099 -2.260866 0.000000000000000e+00 1851878480
7.074974 -2.575306 -2.234143 0.000000000000000e+00 1851878480
6.974057 -2.888890 -2.240511 0.000000000000000e+00 1851878480
6.805239 -3.542207 -2.262859 0.000000000000000e+00 1851878480
6.660996 -3.844581 -2.253660 0.000000000000000e+00 1851878480
6.887099 -2.504846 -2.242364 0.000000000000000e+00 1851878480
6.788164 -2.810815 -2.249623 0.000000000000000e+00 1851878480
6.562067 -3.416781 -2.253486 0.000000000000000e+00 1851878480
6.448493 -3.724325 -2.254778 0.000000000000000e+00 1851878480
6.703791 -2.436150 -2.248760 0.000000000000000e+00 1851878480
6.621454 -2.740736 -2.261864 0.000000000000000e+00 1851878480
6.324448 -3.294176 -2.241167 0.000000000000000e+00 1851878480
6.224576 -3.597327 -2.247371 0.000000000000000e+00 1851878480
6.491059 -2.356874 -2.241712 0.000000000000000e+00 1851878480
6.395570 -2.646219 -2.250236 0.000000000000000e+00 1851878480
6.159936 -3.209579 -2.250736 0.000000000000000e+00 1851878480
6.049810 -3.498604 -2.253581 0.000000000000000e+00 1851878480
6.295229 -2.283851 -2.236785 0.000000000000000e+00 1851878480
6.230347 -2.576860 -2.256295 0.000000000000000e+00 1851878480
5.971107 -3.112258 -2.247915 0.000000000000000e+00 1851878480
5.873003 -3.398580 -2.255415 0.000000000000000e+00 1851878480
6.103297 -2.212348 -2.229714 0.000000000000000e+00 1851878480
6.025096 -2.490995 -2.244394 0.000000000000000e+00 1851878480
5.801657 -3.024977 -2.248810 0.000000000000000e+00 1851878480
5.716730 -3.310328 -2.261713 0.000000000000000e+00 1851878480
5.966146 -2.160795 -2.239696 0.000000000000000e+00 1851878480
5.859579 -2.421617 -2.243804 0.000000000000000e+00 1851878480
5.631840 -2.937453 -2.246171 0.000000000000000e+00 1851878480
5.482747 -3.176939 -2.233151 0.000000000000000e+00 1851878480
5.808514 -2.101907 -2.239361 0.000000000000000e+00 1851878480
5.743118 -2.372552 -2.259419 0.000000000000000e+00 1851878480
5.467851 -2.852914 -2.242507 0.000000000000000e+00 1851878480
3.061343 -1.775058 -1.282880 1.880790849211783e-38 1684957512
5.646580 -2.041549 -2.234471 0.000000000000000e+00 1851878480
5.596358 -2.311007 -2.260717 0.000000000000000e+00 1851878480
3.068741 -1.601713 -1.293449 1.880790849211783e-38 1684957512
2.967037 -1.721531 -1.278470 1.880790849211783e-38 1684957512
5.481268 -1.980063 -2.225251 0.000000000000000e+00 1851878480
5.419455 -2.237059 -2.246784 0.000000000000000e+00 1851878480
3.017992 -1.575781 -1.306594 1.880790849211783e-38 1684957512
2.899936 -1.683737 -1.284115 1.880790849211783e-38 1684957512
5.363383 -1.935790 -2.232731 0.000000000000000e+00 1851878480
5.280198 -2.178704 -2.245469 0.000000000000000e+00 1851878480
2.878968 -1.503728 -1.279580 1.880790849211783e-38 1684957512
2.840967 -1.650622 -1.292103 1.880790849211783e-38 1684957512
5.282378 -1.904878 -2.253862 0.000000000000000e+00 1851878480
5.177695 -2.135544 -2.257569 0.000000000000000e+00 1851878480
2.857190 -1.492888 -1.303059 1.880790849211783e-38 1684957512
2.734174 -1.589664 -1.276594 1.880790849211783e-38 1684957512
5.127369 -1.847345 -2.241319 0.000000000000000e+00 1851878480
5.001624 -2.062083 -2.234963 0.000000000000000e+00 1851878480
2.820193 -1.474089 -1.319155 1.880790849211783e-38 1684957512
2.667773 -1.552128 -1.278095 1.880790849211783e-38 1684957512
5.003336 -1.801053 -2.239757 0.000000000000000e+00 1851878480
4.914239 -2.025224 -2.249508 0.000000000000000e+00 1851878480
2.836950 -1.483385 -1.360407 1.880790849211783e-38 1684957512
2.618642 -1.524605 -1.286711 1.880790849211783e-38 1684957512
4.890009 -1.758681 -2.240848 0.000000000000000e+00 1851878480
4.814126 -1.983147 -2.256558 0.000000000000000e+00 1851878480
2.800769 -1.465003 -1.376298 1.880790849211783e-38 1684957512
2.533090 -1.475829 -1.276025 1.880790849211783e-38 1684957512
4.828848 -1.735111 -2.264362 0.000000000000000e+00 1851878480
4.668595 -1.922396 -2.240002 0.000000000000000e+00 1851878480
2.792730 -1.461337 -1.405756 1.880790849211783e-38 1684957512
2.464099 -1.436648 -1.272020 1.880790849211783e-38 1684957512
4.669514 -1.676331 -2.239850 0.000000000000000e+00 1851878480
4.559425 -1.876654 -2.238452 0.000000000000000e+00 1851878480
2.790672 -1.460805 -1.438373 1.880790849211783e-38 1684957512
2.500886 -1.459135 -1.322478 1.880790849211783e-38 1684957512
4.565660 -1.637542 -2.239488 0.000000000000000e+00 1851878480
4.460190 -1.835033 -2.239841 0.000000000000000e+00 1851878480
2.747041 -1.438504 -1.449285 1.880790849211783e-38 1684957512
2.477110 -1.446301 -1.341340 1.880790849211783e-38 1684957512
4.559138 -1.633692 -2.286053 0.000000000000000e+00 1851878480
4.350808 -1.789267 -2.234177 0.000000000000000e+00 1851878480
2.773132 -1.452716 -1.497053 1.880790849211783e-38 1684957512
2.444790 -1.428465 -1.355137 1.880790849211783e-38 1684957512
4.355533 -1.559275 -2.231877 0.000000000000000e+00 1851878480
4.301539 -1.768243 -2.257981 0.000000000000000e+00 1851878480
2.755380 -1.443966 -1.521547 1.880790849211783e-38 1684957512
2.491046 -1.456555 -1.412953 1.880790849211783e-38 1684957512
4.340827 -1.552549 -2.272478 0.000000000000000e+00 1851878480
4.248614 -1.745730 -2.279100 0.000000000000000e+00 1851878480
2.819119 -1.477938 -1.591918 1.880790849211783e-38 1684957512
2.465604 -1.442742 -1.430662 1.880790849211783e-38 1684957512
4.245932 -1.517164 -2.270268 0.000000000000000e+00 1851878480
4.088386 -1.679157 -2.240602 0.000000000000000e+00 1851878480
2.781667 -1.458869 -1.605791 1.880790849211783e-38 1684957512
2.527984 -1.480344 -1.500119 1.880790849211783e-38 1684957512
4.143390 -1.479106 -2.262152 0.000000000000000e+00 1851878480
4.036026 -1.656922 -2.259158 0.000000000000000e+00 1851878480
2.806706 -1.472578 -1.655907 1.880790849211783e-38 1684957512
2.487777 -1.457894 -1.509306 1.880790849211783e-38 1684957512
4.110385 -1.465905 -2.290870 0.000000000000000e+00 1634890835
3.902746 -1.601493 -2.230650 0.000000000000000e+00 1851878480
2.763103 -1.450274 -1.665622 1.880790849211783e-38 1684957512
2.486766 -1.458406 -1.542049 1.880790849211783e-38 1684957512
4.042951 -1.440450 -2.299660 0.000000000000000e+00 1634890835
3.889090 -1.595171 -2.269193 0.000000000000000e+00 1851878480
2.797424 -1.468875 -1.722537 1.880790849211783e-38 1684957512
2.459997 -1.443810 -1.558776 1.880790849211783e-38 1684957512
3.966120 -1.411683 -2.301859 0.000000000000000e+00 1634890835
3.768865 -1.545158 -2.244376 0.000000000000000e+00 1851878480
2.754841 -1.447096 -1.732343 1.880790849211783e-38 1684957512
2.506116 -1.472015 -1.622298 1.880790849211783e-38 1684957512
3.850610 -1.369205 -2.279788 0.000000000000000e+00 1634890835
3.697600 -1.515246 -2.246829 0.000000000000000e+00 1851878480
2.806180 -1.474663 -1.801693 1.880790849211783e-38 1684957512
2.516871 -1.479485 -1.664064 1.880790849211783e-38 1684957512
3.761324 -1.336115 -2.271263 0.000000000000000e+00 1634890835
3.679394 -1.507090 -2.280866 0.000000000000000e+00 1851878480
2.803567 -1.473897 -1.837427 1.880790849211783e-38 1684957512
2.471361 -1.453879 -1.668513 1.880790849211783e-38 1684957512
3.652441 -1.296120 -2.248976 0.000000000000000e+00 1634890835
3.609211 -1.477652 -2.282033 0.000000000000000e+00 1851878480
2.821737 -1.484065 -1.887385 1.880790849211783e-38 1684957512
2.483553 -1.462217 -1.711831 1.880790849211783e-38 1684957512
3.653517 -1.295174 -2.293538 0.000000000000000e+00 1634890835
3.544527 -1.450482 -2.285447 0.000000000000000e+00 1634890835
2.731774 -1.437352 -1.864441 1.880790849211783e-38 1684957512
2.479243 -1.460853 -1.744273 1.880790849211783e-38 1684957512
3.562613 -1.261640 -2.279702 0.000000000000000e+00 1634890835
3.498829 -1.431100 -2.300170 0.000000000000000e+00 1634890835
2.757759 -1.451640 -1.920170 1.880790849211783e-38 1684957512
2.481105 -1.463140 -1.781423 1.880790849211783e-38 1684957512
3.514627 -1.243341 -2.292073 0.000000000000000e+00 1634890835
3.407908 -1.393238 -2.283884 0.000000000000000e+00 1634890835
2.762848 -1.454941 -1.962200 1.880790849211783e-38 1684957512
2.467015 -1.456028 -1.807353 1.880790849211783e-38 1684957512
3.456124 -1.221353 -2.296718 0.000000000000000e+00 1634890835
3.337574 -1.363819 -2.279790 0.000000000000000e+00 1634890835
2.838724 -1.495545 -2.056080 1.880790849211783e-38 1684957512
2.468011 -1.457829 -1.844569 1.880790849211783e-38 1684957512
3.383938 -1.194564 -2.291092 0.000000000000000e+00 1634890835
3.303086 -1.349062 -2.299292 0.000000000000000e+00 1634890835
2.756947 -1.453099 -2.036139 1.880790849211783e-38 1684957512
2.462501 -1.455799 -1.877291 1.880790849211783e-38 1684957512
3.323038 -1.171793 -2.291888 0.000000000000000e+00 1634890835
3.247152 -1.325555 -2.303154 0.000000000000000e+00 1634890835
2.796773 -1.474743 -2.105880 1.880790849211783e-38 1684957512
2.419908 -1.431836 -1.881467 1.880790849211783e-38 1684957512
3.277123 -1.154338 -2.302120 0.000000000000000e+00 1634890835
3.174689 -1.295321 -2.294070 0.000000000000000e+00 1634890835
2.802325 -1.478333 -2.150954 1.880790849211783e-38 1684957512
2.436225 -1.442732 -1.931505 1.880790849211783e-38 1684957512
3.254705 -1.145171 -2.328448 0.000000000000000e+00 1634890835
3.142127 -1.281381 -2.312899 0.000000000000000e+00 1634890835
2.744042 -1.448243 -2.146751 1.880790849211783e-38 1684957512
2.445316 -1.449381 -1.976681 1.880790849211783e-38 1684957512
3.182982 -1.118678 -2.318750 0.000000000000000e+00 1634890835
3.099375 -1.263295 -2.323701 0.000000000000000e+00 1634890835
2.760016 -1.457344 -2.200526 1.880790849211783e-38 1684957512
2.453458 -1.455490 -2.021849 1.880790849211783e-38 1684957512
3.047887 -1.069982 -2.260645 0.000000000000000e+00 1634890835
3.043862 -1.240019 -2.324090 0.000000000000000e+00 1634890835
2.732746 -1.443615 -2.220174 1.880790849211783e-38 1684957512
0.885655 -0.525876 -0.743965 0.000000000000000e+00 1886740808
2.952237 -1.035211 -2.229205 0.000000000000000e+00 1634890835
2.991842 -1.218182 -2.326163 0.000000000000000e+00 1634890835
2.731296 -1.443529 -2.260901 0.000000000000000e+00 1851878480
0.829958 -0.493251 -0.710582 0.000000000000000e+00 1886740808
2.992882 -1.048243 -2.300423 0.000000000000000e+00 1634890835
2.890019 -1.176094 -2.287863 0.000000000000000e+00 1634890835
0.870889 -0.460497 -0.734439 0.000000000000000e+00 1886740808
0.856471 -0.509476 -0.747303 0.000000000000000e+00 1886740808
2.922907 -1.022527 -2.286700 0.000000000000000e+00 1634890835
2.842891 -1.156285 -2.291261 0.000000000000000e+00 1634890835
0.884430 -0.467882 -0.759791 0.000000000000000e+00 1886740808
0.779614 -0.464188 -0.693182 0.000000000000000e+00 1886740808
2.866495 -1.001593 -2.282344 0.000000000000000e+00 1634890835
2.795188 -1.136258 -2.293352 0.000000000000000e+00 1634890835
0.848096 -0.448881 -0.742122 0.000000000000000e+00 1886740808
0.802331 -0.478164 -0.726887 0.000000000000000e+00 1886740808
2.816720 -0.983009 -2.282295 0.000000000000000e+00 1634890835
2.758094 -1.120555 -2.303439 0.000000000000000e+00 1634890835
0.869463 -0.460419 -0.774898 0.000000000000000e+00 1886740808
0.783506 -0.467392 -0.723213 0.000000000000000e+00 1886740808
2.818244 -0.982332 -2.323643 0.000000000000000e+00 1634890835
0.841424 -0.341660 -0.715247 0.000000000000000e+00 1886740808
0.788485 -0.417747 -0.715676 0.000000000000000e+00 1886740808
0.724145 -0.432399 -0.680969 0.000000000000000e+00 1886740808
0.876827 -0.305247 -0.735588 0.000000000000000e+00 1886740808
0.836624 -0.339516 -0.723790 0.000000000000000e+00 1886740808
0.790593 -0.419078 -0.730761 0.000000000000000e+00 1886740808
0.736141 -0.439993 -0.705198 0.000000000000000e+00 1886740808
0.827954 -0.287870 -0.706687 0.000000000000000e+00 1886740808
0.838536 -0.340094 -0.738271 0.000000000000000e+00 1886740808
0.763657 -0.405009 -0.718774 0.000000000000000e+00 1886740808
0.721021 -0.431386 -0.703590 0.000000000000000e+00 1886740808
0.838612 -0.291202 -0.728205 0.000000000000000e+00 1886740808
0.785544 -0.318413 -0.703800 0.000000000000000e+00 1886740808
0.741128 -0.393267 -0.710286 0.000000000000000e+00 1886740808
0.763136 -0.457045 -0.758527 0.000000000000000e+00 1886740808
0.813674 -0.282175 -0.718769 0.000000000000000e+00 1886740808
0.801143 -0.324543 -0.730380 0.000000000000000e+00 1886740808
0.777878 -0.412988 -0.759058 0.000000000000000e+00 1886740808
0.727117 -0.435921 -0.736122 0.000000000000000e+00 1886740808
0.816569 -0.282805 -0.733761 0.000000000000000e+00 1886740808
0.778178 -0.315048 -0.721864 0.000000000000000e+00 1886740808
0.751645 -0.399277 -0.746759 0.000000000000000e+00 1886740808
0.757480 -0.454598 -0.781042 0.000000000000000e+00 1886740808
0.756306 -0.261583 -0.691292 0.000000000000000e+00 1886740808
0.776067 -0.314000 -0.732476 0.000000000000000e+00 1886740808
0.781474 -0.415350 -0.790439 0.000000000000000e+00 1886740808
0.776427 -0.466462 -0.815353 0.000000000000000e+00 1886740808
0.788283 -0.272272 -0.732874 0.000000000000000e+00 1886740808
0.762268 -0.308224 -0.731984 0.000000000000000e+00 1886740808
0.740208 -0.393637 -0.762217 0.000000000000000e+00 1886740808
0.773077 -0.464949 -0.826791 0.000000000000000e+00 1886740808
0.749633 -0.258564 -0.708863 0.000000000000000e+00 1886740808
0.772877 -0.312315 -0.755072 0.000000000000000e+00 1886740808
0.791516 -0.421161 -0.829743 0.000000000000000e+00 1886740808
2.081186 -1.253051 -2.266739 0.000000000000000e+00 1634890835
0.792021 -0.272800 -0.761732 0.000000000000000e+00 1886740808
0.744956 -0.300838 -0.740424 0.000000000000000e+00 1886740808
0.784795 -0.417825 -0.837507 0.000000000000000e+00 1886740808
2.094241 -1.262313 -2.322880 0.000000000000000e+00 1634890835
0.742396 -0.255343 -0.726175 0.000000000000000e+00 1886740808
0.761395 -0.307274 -0.769876 0.000000000000000e+00 1886740808
2.135657 -1.137689 -2.320094 0.000000000000000e+00 1634890835
2.012888 -1.214649 -2.273651 0.000000000000000e+00 1634890835
0.741256 -0.254580 -0.737401 0.000000000000000e+00 1886740808
0.786930 -0.317367 -0.809467 0.000000000000000e+00 1886740808
2.107595 -1.123410 -2.330760 0.000000000000000e+00 1634890835
0.819660 -0.495181 -0.942842 0.000000000000000e+00 1886740808
0.751217 -0.257620 -0.760016 0.000000000000000e+00 1886740808
0.781469 -0.314951 -0.817751 0.000000000000000e+00 1886740808
2.086646 -1.112917 -2.349051 0.000000000000000e+00 1634890835
0.809309 -0.489500 -0.948026 0.000000000000000e+00 1886740808
0.765075 -0.261978 -0.787186 0.000000000000000e+00 1886740808
0.759652 -0.305947 -0.808658 0.000000000000000e+00 1886740808
2.004616 -1.069824 -2.297249 0.000000000000000e+00 1634890835
0.799984 -0.484435 -0.954309 0.000000000000000e+00 1886740808
0.745145 -0.254764 -0.779700 0.000000000000000e+00 1886740808
2.119775 -0.853130 -2.295515 0.000000000000000e+00 1634890835
0.817676 -0.436652 -0.953880 0.000000000000000e+00 1886740808
0.785344 -0.476146 -0.954059 0.000000000000000e+00 1886740808
0.756503 -0.258244 -0.805022 0.000000000000000e+00 1886740808
2.080745 -0.836824 -2.292182 0.000000000000000e+00 1634890835
0.823117 -0.439838 -0.977495 0.000000000000000e+00 1886740808
0.804819 -0.488556 -0.995699 0.000000000000000e+00 1886740808
0.728270 -0.248212 -0.788136 0.000000000000000e+00 1886740808
2.070904 -0.832259 -2.320774 0.000000000000000e+00 1634890835
0.789087 -0.421928 -0.953948 0.000000000000000e+00 1886740808
1.809025 -1.099528 -2.279286 0.000000000000000e+00 1634890835
2.094724 -0.712778 -2.305418 0.000000000000000e+00 1634890835
2.010635 -0.807439 -2.292203 0.000000000000000e+00 1634890835
0.785508 -0.420293 -0.966734 0.000000000000000e+00 1886740808
1.796934 -1.093578 -2.305806 0.000000000000000e+00 1634890835
2.074834 -0.704848 -2.322337 0.000000000000000e+00 1634890835
1.968956 -0.790103 -2.283547 0.000000000000000e+00 1634890835
0.802375 -0.429607 -1.005315 0.000000000000000e+00 1886740808
0.769909 -0.469163 -1.006195 0.000000000000000e+00 1886740808
1.994880 -0.676549 -2.270829 0.000000000000000e+00 1634890835
1.960575 -0.786134 -2.313240 0.000000000000000e+00 1634890835
0.785665 -0.420951 -1.002181 0.000000000000000e+00 1886740808
1.720452 -1.049796 -2.290101 0.000000000000000e+00 1634890835
1.984694 -0.671941 -2.297714 0.000000000000000e+00 1634890835
0.815807 -0.326859 -0.979263 0.000000000000000e+00 1886740808
1.750544 -0.938581 -2.273430 0.000000000000000e+00 1634890835
1.682147 -1.027816 -2.280689 0.000000000000000e+00 1634890835
1.990092 -0.672593 -2.343266 0.000000000000000e+00 1634890835
0.806737 -0.322965 -0.985217 0.000000000000000e+00 1886740808
0.782836 -0.420030 -1.035140 0.000000000000000e+00 1886740808
1.667922 -1.020536 -2.303511 0.000000000000000e+00 1634890835
1.925000 -0.649435 -2.305358 0.000000000000000e+00 1634890835
0.812188 -0.324882 -1.009161 0.000000000000000e+00 1886740808
1.729733 -0.928763 -2.328887 0.000000000000000e+00 1634890835
1.625854 -0.996203 -2.287362 0.000000000000000e+00 1634890835
0.778470 -0.262154 -0.948254 0.000000000000000e+00 1886740808
0.811292 -0.324253 -1.025660 0.000000000000000e+00 1886740808
1.705092 -0.916216 -2.337672 0.000000000000000e+00 1634890835
1.597110 -0.980004 -2.289051 0.000000000000000e+00 1634890835
0.810131 -0.272309 -1.003761 0.000000000000000e+00 1886740808
0.808754 -0.322963 -1.040364 0.000000000000000e+00 1886740808
1.654606 -0.889764 -2.310062 0.000000000000000e+00 1634890835
1.565729 -0.962166 -2.286314 0.000000000000000e+00 1634890835
0.780565 -0.261873 -0.983776 0.000000000000000e+00 1886740808
0.794484 -0.316988 -1.039967 0.000000000000000e+00 1886740808
1.617313 -0.870387 -2.299571 0.000000000000000e+00 1634890835
1.544993 -0.950854 -2.298681 0.000000000000000e+00 1634890835
0.774193 -0.259231 -0.992593 0.000000000000000e+00 1886740808
1.734619 -0.691474 -2.310625 0.000000000000000e+00 1634890835
1.596567 -0.859905 -2.312044 0.000000000000000e+00 1634890835
1.536124 -0.946853 -2.328889 0.000000000000000e+00 1634890835
0.763248 -0.255060 -0.995513 0.000000000000000e+00 1886740808
1.690412 -0.673241 -2.291588 0.000000000000000e+00 1634890835
1.590662 -0.857421 -2.346272 0.000000000000000e+00 1634890835
1.482558 -0.915274 -2.290575 0.000000000000000e+00 1634890835
0.783576 -0.261321 -1.039796 0.000000000000000e+00 1886740808
0.760107 -0.302447 -1.048739 0.000000000000000e+00 1886740808
1.564749 -0.844154 -2.351122 0.000000000000000e+00 1634890835
1.472859 -0.910752 -2.319251 0.000000000000000e+00 1634890835
1.708294 -0.568530 -2.306453 0.000000000000000e+00 1634890835
1.646136 -0.654375 -2.311746 0.000000000000000e+00 1634890835
1.527296 -0.824649 -2.337895 0.000000000000000e+00 1634890835
1.444639 -0.894776 -2.318710 0.000000000000000e+00 1634890835
0.773258 -0.256798 -1.062314 0.000000000000000e+00 1886740808
1.616776 -0.642078 -2.311218 0.000000000000000e+00 1634890835
1.487878 -0.804068 -2.320518 0.000000000000000e+00 1634890835
1.399421 -0.868235 -2.289737 0.000000000000000e+00 1634890835
1.649633 -0.546649 -2.306199 0.000000000000000e+00 1634890835
1.589371 -0.630565 -2.312974 0.000000000000000e+00 1634890835
1.459040 -0.789185 -2.318715 0.000000000000000e+00 1634890835
1.396761 -0.868083 -2.330035 0.000000000000000e+00 1634890835
1.615844 -0.534259 -2.298934 0.000000000000000e+00 1634890835
1.565787 -0.620576 -2.319924 0.000000000000000e+00 1634890835
1.443736 -0.781621 -2.338198 0.000000000000000e+00 1634890835
1.365175 -0.849957 -2.322140 0.000000000000000e+00 1634890835
1.577932 -0.520532 -2.284925 0.000000000000000e+00 1634890835
1.551247 -0.614170 -2.340244 0.000000000000000e+00 1634890835
1.393528 -0.755145 -2.300256 0.000000000000000e+00 1634890835
1.343247 -0.837826 -2.330106 0.000000000000000e+00 1634890835
1.526137 -0.502264 -2.249444 0.000000000000000e+00 1634890835
1.497876 -0.592403 -2.301127 0.000000000000000e+00 1634890835
1.367893 -0.741966 -2.301638 0.000000000000000e+00 1634890835
1.312680 -0.820287 -2.322534 0.000000000000000e+00 1634890835
1.541474 -0.506091 -2.312920 0.000000000000000e+00 1634890835
1.459790 -0.576704 -2.283962 0.000000000000000e+00 1634890835
1.345925 -0.730769 -2.308820 0.000000000000000e+00 1634890835
1.245353 -0.779704 -2.247743 0.000000000000000e+00 1634890835
1.509361 -0.494323 -2.305724 0.000000000000000e+00 1634890835
1.414197 -0.558062 -2.253692 0.000000000000000e+00 1634890835
1.298185 -0.705561 -2.270671 0.000000000000000e+00 1634890835
1.255318 -0.787488 -2.311693 0.000000000000000e+00 1634890835
1.486942 -0.485747 -2.312856 0.000000000000000e+00 1634890835
1.403692 -0.553276 -2.278758 0.000000000000000e+00 1634890835
1.299585 -0.707055 -2.318134 0.000000000000000e+00 1634890835
1.229045 -0.772565 -2.309630 0.000000000000000e+00 1634890835
1.453129 -0.473463 -2.301716 0.000000000000000e+00 1634890835
1.399074 -0.550799 -2.314017 0.000000000000000e+00 1634890835
1.291047 -0.703159 -2.348894 0.000000000000000e+00 1634890835
1.180793 -0.743773 -2.264778 0.000000000000000e+00 1634890835
1.420737 -0.461668 -2.291979 0.000000000000000e+00 1634890835
1.371399 -0.539243 -2.311273 0.000000000000000e+00 1634890835
1.246322 -0.679543 -2.313209 0.000000000000000e+00 1634890835
1.157317 -0.730541 -2.266032 0.000000000000000e+00 1634890835
1.397061 -0.452724 -2.295731 0.000000000000000e+00 1634890835
1.348715 -0.529656 -2.316510 0.000000000000000e+00 1634890835
1.242979 -0.678486 -2.353918 0.000000000000000e+00 1634890835
1.153817 -0.729933 -2.306752 0.000000000000000e+00 1634890835
1.368537 -0.442221 -2.291043 0.000000000000000e+00 1634890835
1.309779 -0.513699 -2.293016 0.000000000000000e+00 1634890835
1.195311 -0.653223 -2.310122 0.000000000000000e+00 1634890835
1.118793 -0.709376 -2.284324 0.000000000000000e+00 1634890835
1.343369 -0.432818 -2.291441 0.000000000000000e+00 1634890835
1.284460 -0.503097 -2.292436 0.000000000000000e+00 1634890835
1.166713 -0.638358 -2.301617 0.000000000000000e+00 1634890835
1.100095 -0.699143 -2.294457 0.000000000000000e+00 1634890835
1.329257 -0.426982 -2.310621 0.000000000000000e+00 1634890835
1.262757 -0.493917 -2.297947 0.000000000000000e+00 1634890835
1.131149 -0.619660 -2.278226 0.000000000000000e+00 1634890835
1.088196 -0.693243 -2.319010 0.000000000000000e+00 1634890835
1.278486 -0.409398 -2.265137 0.000000000000000e+00 1634890835
1.197204 -0.467614 -2.221834 0.000000000000000e+00 1634890835
1.120173 -0.614426 -2.303921 0.000000000000000e+00 1634890835
1.061071 -0.677636 -2.310971 0.000000000000000e+00 1634890835
1.302633 -0.415792 -2.352753 0.000000000000000e+00 1634890835
1.205797 -0.470283 -2.282575 0.000000000000000e+00 1634890835
1.099229 -0.603728 -2.309294 0.000000000000000e+00 1634890835
1.028726 -0.658658 -2.290443 0.000000000000000e+00 1634890835
1.243038 -0.395458 -2.289153 0.000000000000000e+00 1634890835
1.198242 -0.466633 -2.314151 0.000000000000000e+00 1634890835
1.072108 -0.589629 -2.301156 0.000000000000000e+00 1634890835
1.008662 -0.647517 -2.296443 0.000000000000000e+00 1634890835
1.209236 -0.383388 -2.271026 0.000000000000000e+00 1634890835
1.188664 -0.462183 -2.342584 0.000000000000000e+00 1634890835
1.069221 -0.588862 -2.345336 0.000000000000000e+00 1634890835
0.991487 -0.638227 -2.308947 0.000000000000000e+00 1634890835
1.191089 -0.376298 -2.281733 0.000000000000000e+00 1634890835
1.147311 -0.445386 -2.307827 0.000000000000000e+00 1634890835
1.031239 -0.568763 -2.312313 0.000000000000000e+00 1634890835
0.973098 -0.628158 -2.318648 0.000000000000000e+00 1634890835
1.165957 -0.367010 -2.278798 0.000000000000000e+00 1634890835
1.116205 -0.432591 -2.292215 0.000000000000000e+00 1634890835
1.004263 -0.554712 -2.302558 0.000000000000000e+00 1634890835
0.948665 -0.614174 -2.313573 0.000000000000000e+00 1634890835
1.151705 -0.361150 -2.297020 0.000000000000000e+00 1634890835
1.101264 -0.426065 -2.309398 0.000000000000000e+00 1634890835
0.988161 -0.546661 -2.317387 0.000000000000000e+00 1634890835
0.907663 -0.589405 -2.266390 0.000000000000000e+00 1634890835
1.152208 -0.359889 -2.345619 0.000000000000000e+00 1634890835
1.076374 -0.415694 -2.305578 0.000000000000000e+00 1634890835
0.969264 -0.537065 -2.325732 0.000000000000000e+00 1634890835
0.900751 -0.586751 -2.303619 0.000000000000000e+00 1634890835
1.104938 -0.343718 -2.296547 0.000000000000000e+00 1634890835
1.036202 -0.399440 -2.267717 0.000000000000000e+00 1634890835
0.941202 -0.522382 -2.311497 0.000000000000000e+00 1634890835
0.883865 -0.577623 -2.316073 0.000000000000000e+00 1634890835
1.083324 -0.335570 -2.299428 0.000000000000000e+00 1634890835
1.030873 -0.396624 -2.305691 0.000000000000000e+00 1634890835
0.922042 -0.512630 -2.318506 0.000000000000000e+00 1634890835
0.846821 -0.555283 -2.274528 0.000000000000000e+00 1634890835
1.048590 -0.323384 -2.273575 0.000000000000000e+00 1634890835
1.003338 -0.385262 -2.294173 0.000000000000000e+00 1634890835
0.891436 -0.496500 -2.295920 0.000000000000000e+00 1634890835
0.834188 -0.548919 -2.297626 0.000000000000000e+00 1634890835
1.062994 -0.326329 -2.355055 0.000000000000000e+00 1634890835
0.986727 -0.378100 -2.307256 0.000000000000000e+00 1634890835
0.899335 -0.501830 -2.373379 0.000000000000000e+00 1634890835
0.462381 -0.305370 -1.306544 0.000000000000000e+00 1936876886
1.014507 -0.309962 -2.297323 0.000000000000000e+00 1634890835
0.966838 -0.369682 -2.312685 0.000000000000000e+00 1634890835
0.847704 -0.473935 -2.293237 0.000000000000000e+00 1634890835
0.435225 -0.288528 -1.262261 0.000000000000000e+00 1936876886
1.011090 -0.307388 -2.340946 0.000000000000000e+00 1634890835
0.941239 -0.359089 -2.303980 0.000000000000000e+00 1634890835
0.856298 -0.479704 -2.375626 0.000000000000000e+00 1634890835
0.436774 -0.290701 -1.300821 0.000000000000000e+00 1936876886
0.974607 -0.294765 -2.307857 0.000000000000000e+00 1634890835
0.914698 -0.348148 -2.292088 0.000000000000000e+00 1634890835
0.461097 -0.258852 -1.312482 0.000000000000000e+00 1936876886
0.332296 -0.222079 -1.016810 0.000000000000000e+00 1953264973
0.978004 -0.294196 -2.369461 0.000000000000000e+00 1634890835
0.910501 -0.345707 -2.336557 0.000000000000000e+00 1634890835
0.437231 -0.245991 -1.277530 0.000000000000000e+00 1936876886
0.318343 -0.213672 -1.001388 0.000000000000000e+00 1953264973
0.500629 -0.149746 -1.241404 0.000000000000000e+00 1936876886
0.877108 -0.332182 -2.306047 0.000000000000000e+00 1634890835
0.376265 -0.212175 -1.129107 0.000000000000000e+00 1953264973
0.295450 -0.199200 -0.955952 0.000000000000000e+00 1953264973
0.510080 -0.151672 -1.295059 0.000000000000000e+00 1936876886
0.860480 -0.325018 -2.318784 0.000000000000000e+00 1634890835
0.338922 -0.191575 -1.045101 0.000000000000000e+00 1953264973
0.262152 -0.177585 -0.873013 0.000000000000000e+00 1953264973
0.477088 -0.140985 -1.240741 0.000000000000000e+00 1936876886
0.838674 -0.315900 -2.317465 0.000000000000000e+00 1634890835
0.321999 -0.182466 -1.020889 0.000000000000000e+00 1953264973
0.246311 -0.167680 -0.844797 0.000000000000000e+00 1953264973
