# .PCD v0.7 - Point Cloud Data file format
VERSION 0.7
FIELDS x y z rgb label
SIZE 4 4 4 4 4
TYPE F F F F U
COUNT 1 1 1 1 1
WIDTH 529
HEIGHT 1
VIEWPOINT 0 0 0 1 0 0 0
POINTS 529
DATA ascii
30.742760 -11.421012 -2.232503 0.000000000000000e+00 1851878480
31.830811 -13.310032 -2.238469 0.000000000000000e+00 1851878480
26.858931 -9.970578 -2.194687 0.000000000000000e+00 1851878480
26.556160 -11.100533 -2.116389 0.000000000000000e+00 1851878480
25.792570 -13.318389 -1.909925 0.000000000000000e+00 1851878480
24.901072 -14.154634 -1.751265 0.000000000000000e+00 1851878480
24.228455 -8.987258 -2.200287 0.000000000000000e+00 1851878480
24.305048 -10.155996 -2.165008 0.000000000000000e+00 1851878480
23.333033 -12.052096 -1.961276 0.000000000000000e+00 1851878480
22.782784 -12.958194 -1.838240 0.000000000000000e+00 1851878480
22.094126 -8.189311 -2.207810 0.000000000000000e+00 1851878480
22.165010 -9.258521 -2.182587 0.000000000000000e+00 1851878480
21.689293 -11.206552 -2.040461 0.000000000000000e+00 1851878480
21.245005 -12.090698 -1.934538 0.000000000000000e+00 1851878480
20.372545 -7.545444 -2.221681 0.000000000000000e+00 1851878480
20.371038 -8.506161 -2.197560 0.000000000000000e+00 1851878480
20.375843 -10.531174 -2.121414 0.000000000000000e+00 1851878480
19.965221 -11.369107 -2.025465 0.000000000000000e+00 1851878480
18.913054 -6.999534 -2.235365 0.000000000000000e+00 1851878480
18.905041 -7.891232 -2.217530 0.000000000000000e+00 1851878480
19.103703 -9.876754 -2.181063 0.000000000000000e+00 1851878480
18.889032 -10.762659 -2.112947 0.000000000000000e+00 1851878480
17.577671 -6.500337 -2.238439 0.000000000000000e+00 1851878480
17.599506 -7.343687 -2.230497 0.000000000000000e+00 1851878480
17.728779 -9.168768 -2.202710 0.000000000000000e+00 1851878480
17.914652 -10.213551 -2.190857 0.000000000000000e+00 1851878480
16.396885 -6.059024 -2.238437 0.000000000000000e+00 1851878480
16.435469 -6.855549 -2.238384 0.000000000000000e+00 1851878480
16.567244 -8.570740 -2.225670 0.000000000000000e+00 1851878480
16.701775 -9.527741 -2.217177 0.000000000000000e+00 1851878480
15.362927 -5.672594 -2.238439 0.000000000000000e+00 1851878480
15.366799 -6.407506 -2.238438 0.000000000000000e+00 1851878480
15.446238 -7.993309 -2.231378 0.000000000000000e+00 1851878480
15.540611 -8.870642 -2.225924 0.000000000000000e+00 1851878480
14.449849 -5.331330 -2.238438 0.000000000000000e+00 1851878480
14.426393 -6.013244 -2.238439 0.000000000000000e+00 1851878480
14.451369 -7.480823 -2.234251 0.000000000000000e+00 1851878480
14.497663 -8.280282 -2.228893 0.000000000000000e+00 1851878480
13.637510 -5.027730 -2.238439 0.000000000000000e+00 1851878480
13.592610 -5.663691 -2.238439 0.000000000000000e+00 1851878480
13.577046 -7.030442 -2.237158 0.000000000000000e+00 1851878480
13.587805 -7.765282 -2.232191 0.000000000000000e+00 1851878480
12.910007 -4.755836 -2.238439 0.000000000000000e+00 1851878480
12.848190 -5.351592 -2.238439 0.000000000000000e+00 1851878480
12.793030 -6.626555 -2.238438 0.000000000000000e+00 1851878480
12.784108 -7.310378 -2.235265 0.000000000000000e+00 1851878480
12.254606 -4.510887 -2.238438 0.000000000000000e+00 1851878480
12.179391 -5.071208 -2.238438 0.000000000000000e+00 1851878480
12.086511 -6.262576 -2.238438 0.000000000000000e+00 1851878480
12.066621 -6.904270 -2.237731 0.000000000000000e+00 1851878480
11.661046 -4.289053 -2.238438 0.000000000000000e+00 1851878480
11.575187 -4.817897 -2.238438 0.000000000000000e+00 1851878480
11.452117 -5.935750 -2.238438 0.000000000000000e+00 1851878480
11.415784 -6.535826 -2.238437 0.000000000000000e+00 1851878480
11.120872 -4.087171 -2.238439 0.000000000000000e+00 1851878480
11.026564 -4.587886 -2.238439 0.000000000000000e+00 1851878480
10.879250 -5.640619 -2.238438 0.000000000000000e+00 1851878480
10.826599 -6.202271 -2.238438 0.000000000000000e+00 1851878480
10.627126 -3.902643 -2.238438 0.000000000000000e+00 1851878480
10.526116 -4.378078 -2.238439 0.000000000000000e+00 1851878480
10.359293 -5.372749 -2.238438 0.000000000000000e+00 1851878480
10.293449 -5.900441 -2.238438 0.000000000000000e+00 1851878480
10.173994 -3.733299 -2.238438 0.000000000000000e+00 1851878480
10.067681 -4.185881 -2.238438 0.000000000000000e+00 1851878480
9.885149 -5.128490 -2.238438 0.000000000000000e+00 1851878480
9.808616 -5.625966 -2.238438 0.000000000000000e+00 1851878480
9.756626 -3.577318 -2.238439 0.000000000000000e+00 1851878480
9.646152 -4.009161 -2.238438 0.000000000000000e+00 1851878480
9.450986 -4.904819 -2.238438 0.000000000000000e+00 1851878480
9.365773 -5.375264 -2.238438 0.000000000000000e+00 1851878480
9.370879 -3.433158 -2.238438 0.000000000000000e+00 1851878480
9.257173 -3.846086 -2.238438 0.000000000000000e+00 1851878480
9.051875 -4.699209 -2.238438 0.000000000000000e+00 1851878480
8.959615 -5.145332 -2.238438 0.000000000000000e+00 1851878480
9.013250 -3.299504 -2.238438 0.000000000000000e+00 1851878480
8.897067 -3.695113 -2.238438 0.000000000000000e+00 1851878480
8.683689 -4.509529 -2.238438 0.000000000000000e+00 1851878480
8.585713 -4.933658 -2.238437 0.000000000000000e+00 1851878480
8.680714 -3.175236 -2.238438 0.000000000000000e+00 1851878480
8.562682 -3.554927 -2.238438 0.000000000000000e+00 1851878480
8.342909 -4.333970 -2.238437 0.000000000000000e+00 1851878480
8.240314 -4.738126 -2.238437 0.000000000000000e+00 1851878480
8.370685 -3.059377 -2.238438 0.000000000000000e+00 1851878480
8.251313 -3.424389 -2.238438 0.000000000000000e+00 1851878480
8.026540 -4.170989 -2.238438 0.000000000000000e+00 1851878480
7.920234 -4.556930 -2.238438 0.000000000000000e+00 1851878480
8.080903 -2.951083 -2.238439 0.000000000000000e+00 1851878480
7.960613 -3.302520 -2.238438 0.000000000000000e+00 1851878480
7.732000 -4.019248 -2.238438 0.000000000000000e+00 1851878480
7.622731 -4.388511 -2.238438 0.000000000000000e+00 1851878480
7.809420 -2.849625 -2.238438 0.000000000000000e+00 1851878480
7.688567 -3.188469 -2.238438 0.000000000000000e+00 1851878480
7.457072 -3.877616 -2.238438 0.000000000000000e+00 1851878480
7.345471 -4.231554 -2.238438 0.000000000000000e+00 1851878480
7.554513 -2.754369 -2.238438 0.000000000000000e+00 1851878480
7.433393 -3.081490 -2.238438 0.000000000000000e+00 1851878480
7.199821 -3.745090 -2.238438 0.000000000000000e+00 1851878480
7.086406 -4.084903 -2.238437 0.000000000000000e+00 1851878480
7.314680 -2.664744 -2.238438 0.000000000000000e+00 1851878480
7.193529 -2.980933 -2.238438 0.000000000000000e+00 1851878480
6.958559 -3.620799 -2.238438 0.000000000000000e+00 1851878480
6.843771 -3.947546 -2.238437 0.000000000000000e+00 1851878480
7.088572 -2.580255 -2.238437 0.000000000000000e+00 1851878480
6.967604 -2.886217 -2.238438 0.000000000000000e+00 1851878480
6.731795 -3.503978 -2.238438 0.000000000000000e+00 1851878480
6.616005 -3.818613 -2.238438 0.000000000000000e+00 1851878480
6.875039 -2.500459 -2.238437 0.000000000000000e+00 1851878480
6.754414 -2.796840 -2.238438 0.000000000000000e+00 1851878480
6.518244 -3.393964 -2.238438 0.000000000000000e+00 1851878480
6.401761 -3.697335 -2.238438 0.000000000000000e+00 1851878480
6.673020 -2.424968 -2.238438 0.000000000000000e+00 1851878480
6.552877 -2.712351 -2.238438 0.000000000000000e+00 1851878480
6.316744 -3.290164 -2.238438 0.000000000000000e+00 1851878480
6.199833 -3.583027 -2.238438 0.000000000000000e+00 1851878480
6.481578 -2.353432 -2.238437 0.000000000000000e+00 1851878480
6.362037 -2.632344 -2.238438 0.000000000000000e+00 1851878480
6.126279 -3.192042 -2.238438 0.000000000000000e+00 1851878480
6.009158 -3.475095 -2.238438 0.000000000000000e+00 1851878480
6.299882 -2.285539 -2.238438 0.000000000000000e+00 1851878480
6.181036 -2.556465 -2.238438 0.000000000000000e+00 1851878480
5.945935 -3.099137 -2.238438 0.000000000000000e+00 1851878480
5.828794 -3.372998 -2.238438 0.000000000000000e+00 1851878480
6.127176 -2.221004 -2.238438 0.000000000000000e+00 1851878480
6.009108 -2.484385 -2.238438 0.000000000000000e+00 1851878480
5.774898 -3.011025 -2.238438 0.000000000000000e+00 1851878480
5.657898 -3.276261 -2.238438 0.000000000000000e+00 1851878480
5.962794 -2.159581 -2.238438 0.000000000000000e+00 1851878480
5.845565 -2.415825 -2.238437 0.000000000000000e+00 1851878480
5.612449 -2.927339 -2.238438 0.000000000000000e+00 1851878480
5.495726 -3.184460 -2.238438 0.000000000000000e+00 1851878480
5.806120 -2.101041 -2.238438 0.000000000000000e+00 1851878480
5.689785 -2.350520 -2.238438 0.000000000000000e+00 1851878480
5.457928 -2.847737 -2.238437 0.000000000000000e+00 1851878480
5.341596 -3.097217 -2.238438 0.000000000000000e+00 1851878480
5.656605 -2.045174 -2.238438 0.000000000000000e+00 1851878480
5.541208 -2.288232 -2.238438 0.000000000000000e+00 1851878480
5.310750 -2.771918 -2.238438 0.000000000000000e+00 1851878480
5.194903 -3.014181 -2.238438 0.000000000000000e+00 1851878480
5.513750 -1.991797 -2.238438 0.000000000000000e+00 1851878480
5.399323 -2.228750 -2.238438 0.000000000000000e+00 1851878480
5.170381 -2.699606 -2.238438 0.000000000000000e+00 1851878480
5.055099 -2.935050 -2.238438 0.000000000000000e+00 1851878480
5.377092 -1.940738 -2.238438 0.000000000000000e+00 1851878480
5.263665 -2.171882 -2.238438 0.000000000000000e+00 1851878480
5.036330 -2.630551 -2.238438 0.000000000000000e+00 1851878480
4.921687 -2.859535 -2.238437 0.000000000000000e+00 1851878480
5.246229 -1.891842 -2.238438 0.000000000000000e+00 1851878480
5.133818 -2.117447 -2.238438 0.000000000000000e+00 1851878480
4.908174 -2.564531 -2.238438 0.000000000000000e+00 1851878480
4.794225 -2.787389 -2.238438 0.000000000000000e+00 1851878480
5.120777 -1.844970 -2.238438 0.000000000000000e+00 1851878480
5.009400 -2.065289 -2.238438 0.000000000000000e+00 1851878480
4.785508 -2.501341 -2.238438 0.000000000000000e+00 1851878480
4.672302 -2.718377 -2.238438 0.000000000000000e+00 1851878480
5.000390 -1.799992 -2.238438 0.000000000000000e+00 1851878480
4.890057 -2.015258 -2.238438 0.000000000000000e+00 1851878480
4.667969 -2.440788 -2.238438 0.000000000000000e+00 1851878480
4.555545 -2.652292 -2.238438 0.000000000000000e+00 1851878480
4.884748 -1.756789 -2.238437 0.000000000000000e+00 1851878480
4.775467 -1.967222 -2.238438 0.000000000000000e+00 1851878480
4.555223 -2.382709 -2.238437 0.000000000000000e+00 1851878480
4.443616 -2.588939 -2.238438 0.000000000000000e+00 1851878480
4.773564 -1.715247 -2.238437 0.000000000000000e+00 1851878480
4.665335 -1.921054 -2.238438 0.000000000000000e+00 1851878480
4.446967 -2.326941 -2.238438 0.000000000000000e+00 1851878480
4.336201 -2.528143 -2.238438 0.000000000000000e+00 1851878480
4.666571 -1.675275 -2.238438 0.000000000000000e+00 1851878480
4.559397 -1.876642 -2.238438 0.000000000000000e+00 1851878480
4.342924 -2.273346 -2.238437 0.000000000000000e+00 1851878480
4.233024 -2.469745 -2.238438 0.000000000000000e+00 1851878480
4.563519 -1.636774 -2.238438 0.000000000000000e+00 1851878480
4.457395 -1.833883 -2.238438 0.000000000000000e+00 1851878480
4.242838 -2.221788 -2.238438 0.000000000000000e+00 1851878480
4.133818 -2.413597 -2.238437 0.000000000000000e+00 1851878480
4.464177 -1.599664 -2.238438 0.000000000000000e+00 1851878480
4.359104 -1.792678 -2.238438 0.000000000000000e+00 1851878480
4.146471 -2.172143 -2.238438 0.000000000000000e+00 1851878480
4.038343 -2.359562 -2.238437 0.000000000000000e+00 1851878480
4.368338 -1.563859 -2.238438 0.000000000000000e+00 1851878480
4.264308 -1.752938 -2.238438 0.000000000000000e+00 1851878480
4.053601 -2.124303 -2.238437 0.000000000000000e+00 1851878480
3.946381 -2.307512 -2.238438 0.000000000000000e+00 1851878480
4.275805 -1.529293 -2.238438 0.000000000000000e+00 1851878480
4.172813 -1.714584 -2.238438 0.000000000000000e+00 1851878480
3.964036 -2.078166 -2.238438 0.000000000000000e+00 1851878480
3.857725 -2.257338 -2.238437 0.000000000000000e+00 1851878480
4.186401 -1.495892 -2.238437 0.000000000000000e+00 1851878480
4.084437 -1.677535 -2.238438 0.000000000000000e+00 1851878480
3.877584 -2.033632 -2.238437 0.000000000000000e+00 1851878480
3.772190 -2.208928 -2.238437 0.000000000000000e+00 1851878480
4.099953 -1.463600 -2.238437 0.000000000000000e+00 1851878480
3.999008 -1.641725 -2.238437 0.000000000000000e+00 1851878480
3.794075 -1.990615 -2.238437 0.000000000000000e+00 1851878480
3.689598 -2.162189 -2.238438 0.000000000000000e+00 1851878480
4.088600 -1.458136 -2.278729 0.000000000000000e+00 1634890835
3.916371 -1.607084 -2.238438 0.000000000000000e+00 1851878480
3.713347 -1.949030 -2.238437 0.000000000000000e+00 1851878480
3.609789 -2.117021 -2.238437 0.000000000000000e+00 1851878480
4.006152 -1.427339 -2.278729 0.000000000000000e+00 1634890835
3.836379 -1.573551 -2.238437 0.000000000000000e+00 1851878480
3.635253 -1.908803 -2.238437 0.000000000000000e+00 1851878480
3.532611 -2.073344 -2.238437 0.000000000000000e+00 1851878480
3.926267 -1.397498 -2.278729 0.000000000000000e+00 1634890835
3.758893 -1.541070 -2.238438 0.000000000000000e+00 1851878480
3.559653 -1.869856 -2.238437 0.000000000000000e+00 1851878480
3.457924 -2.031077 -2.238437 0.000000000000000e+00 1851878480
3.848821 -1.368569 -2.278729 0.000000000000000e+00 1634890835
3.683791 -1.509587 -2.238437 0.000000000000000e+00 1851878480
3.486421 -1.832134 -2.238437 0.000000000000000e+00 1851878480
3.385602 -1.990149 -2.238438 0.000000000000000e+00 1851878480
3.773689 -1.340507 -2.278729 0.000000000000000e+00 1634890835
3.610950 -1.479054 -2.238437 0.000000000000000e+00 1851878480
3.415432 -1.795568 -2.238437 0.000000000000000e+00 1851878480
3.315519 -1.950489 -2.238437 0.000000000000000e+00 1851878480
3.700761 -1.313267 -2.278729 0.000000000000000e+00 1634890835
3.346578 -1.760101 -2.238437 0.000000000000000e+00 1851878480
3.247563 -1.912036 -2.238438 0.000000000000000e+00 1851878480
3.629927 -1.286811 -2.278729 0.000000000000000e+00 1634890835
3.534107 -1.446218 -2.278729 0.000000000000000e+00 1634890835
3.279752 -1.725677 -2.238437 0.000000000000000e+00 1851878480
3.181630 -1.874723 -2.238438 0.000000000000000e+00 1851878480
3.561093 -1.261101 -2.278729 0.000000000000000e+00 1634890835
3.466214 -1.417760 -2.278729 0.000000000000000e+00 1634890835
3.214857 -1.692249 -2.238438 0.000000000000000e+00 1851878480
3.117619 -1.838501 -2.238438 0.000000000000000e+00 1851878480
3.494165 -1.236103 -2.278729 0.000000000000000e+00 1634890835
3.400215 -1.390093 -2.278729 0.000000000000000e+00 1634890835
3.151800 -1.659767 -2.238438 0.000000000000000e+00 1851878480
3.055439 -1.803316 -2.238437 0.000000000000000e+00 1851878480
3.429053 -1.211786 -2.278729 0.000000000000000e+00 1634890835
3.336020 -1.363184 -2.278729 0.000000000000000e+00 1634890835
3.090495 -1.628188 -2.238437 0.000000000000000e+00 1851878480
2.995002 -1.769117 -2.238437 0.000000000000000e+00 1851878480
3.365677 -1.188118 -2.278729 0.000000000000000e+00 1634890835
3.273546 -1.336997 -2.278729 0.000000000000000e+00 1634890835
3.030861 -1.597470 -2.238438 0.000000000000000e+00 1851878480
2.936229 -1.735860 -2.238438 0.000000000000000e+00 1851878480
3.303959 -1.165066 -2.278729 0.000000000000000e+00 1634890835
3.212716 -1.311498 -2.278729 0.000000000000000e+00 1634890835
2.972820 -1.567573 -2.238438 0.000000000000000e+00 1851878480
2.879037 -1.703498 -2.238437 0.000000000000000e+00 1851878480
3.243826 -1.142609 -2.278729 0.000000000000000e+00 1634890835
3.153459 -1.286659 -2.278729 0.000000000000000e+00 1634890835
2.916301 -1.538460 -2.238438 0.000000000000000e+00 1851878480
2.823361 -1.671994 -2.238437 0.000000000000000e+00 1851878480
3.185209 -1.120718 -2.278729 0.000000000000000e+00 1634890835
3.095705 -1.262450 -2.278729 0.000000000000000e+00 1634890835
2.861238 -1.510096 -2.238437 0.000000000000000e+00 1851878480
2.769129 -1.641310 -2.238437 0.000000000000000e+00 1851878480
3.128045 -1.099370 -2.278729 0.000000000000000e+00 1634890835
3.039391 -1.238846 -2.278729 0.000000000000000e+00 1634890835
2.807567 -1.482452 -2.238438 0.000000000000000e+00 1851878480
2.716282 -1.611408 -2.238437 0.000000000000000e+00 1851878480
3.072269 -1.078541 -2.278729 0.000000000000000e+00 1634890835
2.984454 -1.215817 -2.278729 0.000000000000000e+00 1634890835
2.755226 -1.455490 -2.238438 0.000000000000000e+00 1851878480
0.840392 -0.499001 -0.705944 0.000000000000000e+00 1886740808
3.017825 -1.058210 -2.278729 0.000000000000000e+00 1634890835
2.930834 -1.193342 -2.278729 0.000000000000000e+00 1634890835
2.752833 -1.454912 -2.278729 0.000000000000000e+00 1634890835
0.824540 -0.490031 -0.705943 0.000000000000000e+00 1886740808
2.964659 -1.038358 -2.278729 0.000000000000000e+00 1634890835
2.878480 -1.171399 -2.278729 0.000000000000000e+00 1634890835
0.837100 -0.442630 -0.705943 0.000000000000000e+00 1886740808
0.809070 -0.481279 -0.705943 0.000000000000000e+00 1886740808
2.912719 -1.018963 -2.278729 0.000000000000000e+00 1634890835
2.827341 -1.149960 -2.278729 0.000000000000000e+00 1634890835
0.821749 -0.434723 -0.705943 0.000000000000000e+00 1886740808
0.793967 -0.472734 -0.705943 0.000000000000000e+00 1886740808
2.861955 -1.000007 -2.278729 0.000000000000000e+00 1634890835
2.777366 -1.129013 -2.278729 0.000000000000000e+00 1634890835
0.806752 -0.426998 -0.705943 0.000000000000000e+00 1886740808
0.779214 -0.464387 -0.705943 0.000000000000000e+00 1886740808
2.812320 -0.981474 -2.278729 0.000000000000000e+00 1634890835
2.728507 -1.108535 -2.278729 0.000000000000000e+00 1634890835
0.792094 -0.419448 -0.705943 0.000000000000000e+00 1886740808
0.764797 -0.456231 -0.705943 0.000000000000000e+00 1886740808
2.763769 -0.963344 -2.278729 0.000000000000000e+00 1634890835
0.830479 -0.337215 -0.705943 0.000000000000000e+00 1886740808
0.777762 -0.412066 -0.705943 0.000000000000000e+00 1886740808
0.750703 -0.448257 -0.705943 0.000000000000000e+00 1886740808
0.841490 -0.292946 -0.705943 0.000000000000000e+00 1886740808
0.815995 -0.331144 -0.705943 0.000000000000000e+00 1886740808
0.763744 -0.404845 -0.705943 0.000000000000000e+00 1886740808
0.744297 -0.444868 -0.713011 0.000000000000000e+00 1886740808
0.827083 -0.287567 -0.705943 0.000000000000000e+00 1886740808
0.801818 -0.325202 -0.705943 0.000000000000000e+00 1886740808
0.750026 -0.397780 -0.705943 0.000000000000000e+00 1886740808
0.744297 -0.445312 -0.726303 0.000000000000000e+00 1886740808
0.812975 -0.282300 -0.705943 0.000000000000000e+00 1886740808
0.787937 -0.319383 -0.705943 0.000000000000000e+00 1886740808
0.744297 -0.394948 -0.713323 0.000000000000000e+00 1886740808
0.744297 -0.445763 -0.739802 0.000000000000000e+00 1886740808
0.799155 -0.277140 -0.705943 0.000000000000000e+00 1886740808
0.774339 -0.313685 -0.705943 0.000000000000000e+00 1886740808
0.744297 -0.395159 -0.726290 0.000000000000000e+00 1886740808
0.744297 -0.446221 -0.753515 0.000000000000000e+00 1886740808
0.785612 -0.272084 -0.705943 0.000000000000000e+00 1886740808
0.761016 -0.308100 -0.705943 0.000000000000000e+00 1886740808
0.744297 -0.395373 -0.739458 0.000000000000000e+00 1886740808
0.744297 -0.446686 -0.767449 0.000000000000000e+00 1886740808
0.772336 -0.267127 -0.705943 0.000000000000000e+00 1886740808
0.747956 -0.302626 -0.705943 0.000000000000000e+00 1886740808
0.744297 -0.395590 -0.752835 0.000000000000000e+00 1886740808
0.744297 -0.447159 -0.781612 0.000000000000000e+00 1886740808
0.759317 -0.262267 -0.705943 0.000000000000000e+00 1886740808
0.744297 -0.300957 -0.714727 0.000000000000000e+00 1886740808
0.744297 -0.395811 -0.766428 0.000000000000000e+00 1886740808
0.744297 -0.447640 -0.796011 0.000000000000000e+00 1886740808
0.746546 -0.257499 -0.705943 0.000000000000000e+00 1886740808
0.744297 -0.300766 -0.727151 0.000000000000000e+00 1886740808
0.744297 -0.396036 -0.780243 0.000000000000000e+00 1886740808
2.092195 -1.259679 -2.278729 0.000000000000000e+00 1634890835
0.744297 -0.256362 -0.715833 0.000000000000000e+00 1886740808
0.744297 -0.300571 -0.739769 0.000000000000000e+00 1886740808
0.744297 -0.396264 -0.794289 0.000000000000000e+00 1886740808
2.054436 -1.238320 -2.278729 0.000000000000000e+00 1634890835
0.744297 -0.255996 -0.728034 0.000000000000000e+00 1886740808
0.744297 -0.300374 -0.752588 0.000000000000000e+00 1886740808
2.097581 -1.117406 -2.278729 0.000000000000000e+00 1634890835
2.017384 -1.217362 -2.278729 0.000000000000000e+00 1634890835
0.744297 -0.255624 -0.740426 0.000000000000000e+00 1886740808
0.744297 -0.300173 -0.765613 0.000000000000000e+00 1886740808
2.060547 -1.098332 -2.278729 0.000000000000000e+00 1634890835
0.796275 -0.481053 -0.915942 0.000000000000000e+00 1886740808
0.744297 -0.255247 -0.753015 0.000000000000000e+00 1886740808
0.744297 -0.299970 -0.778852 0.000000000000000e+00 1886740808
2.024179 -1.079600 -2.278729 0.000000000000000e+00 1634890835
0.784636 -0.474577 -0.919123 0.000000000000000e+00 1886740808
0.744297 -0.254863 -0.765808 0.000000000000000e+00 1886740808
0.744297 -0.299763 -0.792313 0.000000000000000e+00 1886740808
1.988455 -1.061200 -2.278729 0.000000000000000e+00 1634890835
0.775673 -0.469714 -0.925309 0.000000000000000e+00 1886740808
0.744297 -0.254474 -0.778812 0.000000000000000e+00 1886740808
2.104275 -0.846892 -2.278729 0.000000000000000e+00 1634890835
0.797388 -0.425818 -0.930213 0.000000000000000e+00 1886740808
0.768824 -0.466130 -0.933990 0.000000000000000e+00 1886740808
0.744297 -0.254077 -0.792034 0.000000000000000e+00 1886740808
2.068532 -0.831913 -2.278729 0.000000000000000e+00 1634890835
0.785518 -0.419747 -0.932844 0.000000000000000e+00 1886740808
0.764550 -0.464111 -0.945879 0.000000000000000e+00 1886740808
0.744297 -0.253674 -0.805481 0.000000000000000e+00 1886740808
2.033386 -0.817182 -2.278729 0.000000000000000e+00 1634890835
0.776431 -0.415161 -0.938648 0.000000000000000e+00 1886740808
1.808584 -1.099260 -2.278730 0.000000000000000e+00 1634890835
2.070475 -0.704527 -2.278730 0.000000000000000e+00 1634890835
1.998816 -0.802692 -2.278729 0.000000000000000e+00 1634890835
0.769417 -0.411684 -0.946931 0.000000000000000e+00 1886740808
1.775832 -1.080736 -2.278729 0.000000000000000e+00 1634890835
2.035874 -0.691613 -2.278729 0.000000000000000e+00 1634890835
1.964802 -0.788437 -2.278730 0.000000000000000e+00 1634890835
0.764806 -0.409492 -0.958244 0.000000000000000e+00 1886740808
0.749057 -0.456456 -0.978942 0.000000000000000e+00 1886740808
2.001821 -0.678902 -2.278730 0.000000000000000e+00 1634890835
1.931326 -0.774406 -2.278729 0.000000000000000e+00 1634890835
0.767171 -0.411041 -0.978589 0.000000000000000e+00 1886740808
1.711909 -1.044582 -2.278729 0.000000000000000e+00 1634890835
1.968295 -0.666390 -2.278730 0.000000000000000e+00 1634890835
0.797681 -0.319597 -0.957506 0.000000000000000e+00 1886740808
1.754625 -0.940769 -2.278730 0.000000000000000e+00 1634890835
1.680702 -1.026933 -2.278729 0.000000000000000e+00 1634890835
1.935282 -0.654069 -2.278729 0.000000000000000e+00 1634890835
0.785811 -0.314588 -0.959661 0.000000000000000e+00 1886740808
0.751062 -0.402982 -0.993125 0.000000000000000e+00 1886740808
1.649977 -1.009557 -2.278729 0.000000000000000e+00 1634890835
1.902765 -0.641933 -2.278730 0.000000000000000e+00 1634890835
0.776731 -0.310699 -0.965105 0.000000000000000e+00 1886740808
1.692480 -0.908760 -2.278729 0.000000000000000e+00 1634890835
1.619718 -0.992444 -2.278729 0.000000000000000e+00 1634890835
0.796758 -0.268312 -0.970530 0.000000000000000e+00 1886740808
0.769655 -0.307611 -0.973022 0.000000000000000e+00 1886740808
1.662099 -0.893114 -2.278729 0.000000000000000e+00 1634890835
1.589908 -0.975585 -2.278729 0.000000000000000e+00 1634890835
0.785168 -0.263918 -0.972831 0.000000000000000e+00 1886740808
0.764878 -0.305442 -0.983923 0.000000000000000e+00 1886740808
1.632163 -0.877696 -2.278730 0.000000000000000e+00 1634890835
1.560535 -0.958974 -2.278729 0.000000000000000e+00 1634890835
0.776222 -0.260416 -0.978303 0.000000000000000e+00 1886740808
0.765618 -0.305472 -1.002182 0.000000000000000e+00 1886740808
1.602655 -0.862499 -2.278730 0.000000000000000e+00 1634890835
1.531583 -0.942601 -2.278729 0.000000000000000e+00 1634890835
0.769282 -0.257587 -0.986297 0.000000000000000e+00 1886740808
1.710674 -0.681929 -2.278729 0.000000000000000e+00 1634890835
1.573562 -0.847514 -2.278730 0.000000000000000e+00 1634890835
1.503039 -0.926459 -2.278729 0.000000000000000e+00 1634890835
0.764662 -0.255532 -0.997356 0.000000000000000e+00 1886740808
1.680927 -0.669463 -2.278729 0.000000000000000e+00 1634890835
1.544871 -0.832738 -2.278729 0.000000000000000e+00 1634890835
1.474891 -0.910541 -2.278730 0.000000000000000e+00 1634890835
0.766223 -0.255534 -1.016769 0.000000000000000e+00 1886740808
0.744045 -0.296056 -1.026578 0.000000000000000e+00 1886740808
1.516569 -0.818162 -2.278729 0.000000000000000e+00 1634890835
1.447126 -0.894840 -2.278730 0.000000000000000e+00 1634890835
1.687760 -0.561696 -2.278730 0.000000000000000e+00 1634890835
1.622626 -0.645029 -2.278730 0.000000000000000e+00 1634890835
1.488644 -0.803780 -2.278729 0.000000000000000e+00 1634890835
1.419730 -0.879348 -2.278729 0.000000000000000e+00 1634890835
0.752069 -0.249761 -1.033204 0.000000000000000e+00 1886740808
1.594049 -0.633053 -2.278729 0.000000000000000e+00 1634890835
1.461084 -0.789588 -2.278729 0.000000000000000e+00 1634890835
1.392694 -0.864061 -2.278730 0.000000000000000e+00 1634890835
1.629984 -0.540138 -2.278730 0.000000000000000e+00 1634890835
1.565840 -0.621230 -2.278730 0.000000000000000e+00 1634890835
1.433879 -0.775576 -2.278729 0.000000000000000e+00 1634890835
1.366006 -0.848969 -2.278729 0.000000000000000e+00 1634890835
1.601644 -0.529564 -2.278730 0.000000000000000e+00 1634890835
1.537983 -0.609556 -2.278729 0.000000000000000e+00 1634890835
1.407016 -0.761741 -2.278729 0.000000000000000e+00 1634890835
1.339655 -0.834068 -2.278729 0.000000000000000e+00 1634890835
1.573654 -0.519120 -2.278730 0.000000000000000e+00 1634890835
1.510473 -0.598027 -2.278730 0.000000000000000e+00 1634890835
1.380486 -0.748078 -2.278730 0.000000000000000e+00 1634890835
1.313630 -0.819353 -2.278730 0.000000000000000e+00 1634890835
1.546006 -0.508803 -2.278730 0.000000000000000e+00 1634890835
1.483297 -0.586637 -2.278730 0.000000000000000e+00 1634890835
1.354279 -0.734581 -2.278730 0.000000000000000e+00 1634890835
1.287923 -0.804816 -2.278730 0.000000000000000e+00 1634890835
1.518688 -0.498610 -2.278730 0.000000000000000e+00 1634890835
1.456445 -0.575383 -2.278729 0.000000000000000e+00 1634890835
1.328385 -0.721245 -2.278731 0.000000000000000e+00 1634890835
1.262521 -0.790453 -2.278730 0.000000000000000e+00 1634890835
1.491690 -0.488536 -2.278729 0.000000000000000e+00 1634890835
1.429908 -0.564262 -2.278730 0.000000000000000e+00 1634890835
1.302793 -0.708065 -2.278731 0.000000000000000e+00 1634890835
1.237418 -0.776260 -2.278730 0.000000000000000e+00 1634890835
1.465002 -0.478579 -2.278730 0.000000000000000e+00 1634890835
1.403675 -0.553269 -2.278730 0.000000000000000e+00 1634890835
1.277495 -0.695037 -2.278730 0.000000000000000e+00 1634890835
1.212602 -0.762229 -2.278730 0.000000000000000e+00 1634890835
1.438617 -0.468735 -2.278730 0.000000000000000e+00 1634890835
1.377739 -0.542400 -2.278730 0.000000000000000e+00 1634890835
1.252482 -0.682155 -2.278730 0.000000000000000e+00 1634890835
1.188068 -0.748355 -2.278730 0.000000000000000e+00 1634890835
1.412524 -0.458999 -2.278730 0.000000000000000e+00 1634890835
1.352089 -0.531650 -2.278730 0.000000000000000e+00 1634890835
1.227745 -0.669414 -2.278730 0.000000000000000e+00 1634890835
1.163803 -0.734635 -2.278730 0.000000000000000e+00 1634890835
1.386715 -0.449371 -2.278730 0.000000000000000e+00 1634890835
1.326719 -0.521018 -2.278730 0.000000000000000e+00 1634890835
1.203277 -0.656814 -2.278731 0.000000000000000e+00 1634890835
1.139801 -0.721065 -2.278730 0.000000000000000e+00 1634890835
1.361182 -0.439845 -2.278730 0.000000000000000e+00 1634890835
1.301619 -0.510498 -2.278730 0.000000000000000e+00 1634890835
1.179068 -0.644346 -2.278730 0.000000000000000e+00 1634890835
1.116054 -0.707639 -2.278730 0.000000000000000e+00 1634890835
1.335917 -0.430417 -2.278730 0.000000000000000e+00 1634890835
1.276781 -0.500090 -2.278731 0.000000000000000e+00 1634890835
1.155111 -0.632010 -2.278731 0.000000000000000e+00 1634890835
1.092555 -0.694351 -2.278730 0.000000000000000e+00 1634890835
1.310911 -0.421089 -2.278730 0.000000000000000e+00 1634890835
1.252197 -0.489787 -2.278730 0.000000000000000e+00 1634890835
1.131399 -0.619797 -2.278730 0.000000000000000e+00 1634890835
1.069294 -0.681201 -2.278730 0.000000000000000e+00 1634890835
1.286158 -0.411854 -2.278730 0.000000000000000e+00 1634890835
1.227862 -0.479589 -2.278731 0.000000000000000e+00 1634890835
1.107926 -0.607708 -2.278730 0.000000000000000e+00 1634890835
1.046268 -0.668182 -2.278730 0.000000000000000e+00 1634890835
1.261650 -0.402711 -2.278731 0.000000000000000e+00 1634890835
1.203765 -0.469490 -2.278730 0.000000000000000e+00 1634890835
1.084681 -0.595738 -2.278730 0.000000000000000e+00 1634890835
1.023466 -0.655290 -2.278730 0.000000000000000e+00 1634890835
1.237378 -0.393657 -2.278731 0.000000000000000e+00 1634890835
1.179902 -0.459491 -2.278731 0.000000000000000e+00 1634890835
1.061660 -0.583883 -2.278730 0.000000000000000e+00 1634890835
1.000882 -0.642522 -2.278730 0.000000000000000e+00 1634890835
1.213339 -0.384688 -2.278731 0.000000000000000e+00 1634890835
1.156264 -0.449585 -2.278730 0.000000000000000e+00 1634890835
1.038856 -0.572139 -2.278730 0.000000000000000e+00 1634890835
0.978511 -0.629875 -2.278730 0.000000000000000e+00 1634890835
1.189522 -0.375803 -2.278730 0.000000000000000e+00 1634890835
1.132846 -0.439771 -2.278730 0.000000000000000e+00 1634890835
1.016262 -0.560502 -2.278730 0.000000000000000e+00 1634890835
0.956345 -0.617344 -2.278730 0.000000000000000e+00 1634890835
1.165922 -0.366999 -2.278731 0.000000000000000e+00 1634890835
1.109639 -0.430047 -2.278730 0.000000000000000e+00 1634890835
0.993870 -0.548971 -2.278730 0.000000000000000e+00 1634890835
0.934378 -0.604924 -2.278730 0.000000000000000e+00 1634890835
1.142535 -0.358274 -2.278731 0.000000000000000e+00 1634890835
1.086640 -0.420408 -2.278731 0.000000000000000e+00 1634890835
0.971677 -0.537542 -2.278730 0.000000000000000e+00 1634890835
0.912605 -0.592615 -2.278731 0.000000000000000e+00 1634890835
1.119351 -0.349626 -2.278730 0.000000000000000e+00 1634890835
1.063840 -0.410853 -2.278730 0.000000000000000e+00 1634890835
0.949676 -0.526212 -2.278730 0.000000000000000e+00 1634890835
0.891019 -0.580411 -2.278730 0.000000000000000e+00 1634890835
1.096365 -0.341051 -2.278731 0.000000000000000e+00 1634890835
1.041235 -0.401380 -2.278730 0.000000000000000e+00 1634890835
0.927859 -0.514977 -2.278730 0.000000000000000e+00 1634890835
0.869614 -0.568310 -2.278730 0.000000000000000e+00 1634890835
1.073573 -0.332550 -2.278731 0.000000000000000e+00 1634890835
1.018818 -0.391986 -2.278730 0.000000000000000e+00 1634890835
0.906223 -0.503835 -2.278730 0.000000000000000e+00 1634890835
0.848386 -0.556309 -2.278730 0.000000000000000e+00 1634890835
1.050968 -0.324117 -2.278731 0.000000000000000e+00 1634890835
0.996584 -0.382669 -2.278730 0.000000000000000e+00 1634890835
0.884762 -0.492782 -2.278730 0.000000000000000e+00 1634890835
0.827327 -0.544405 -2.278730 0.000000000000000e+00 1634890835
1.028544 -0.315753 -2.278731 0.000000000000000e+00 1634890835
0.974528 -0.373425 -2.278730 0.000000000000000e+00 1634890835
0.863471 -0.481817 -2.278730 0.000000000000000e+00 1634890835
0.451009 -0.297860 -1.274410 0.000000000000000e+00 1936876886
1.006296 -0.307453 -2.278730 0.000000000000000e+00 1634890835
0.952643 -0.364255 -2.278730 0.000000000000000e+00 1634890835
0.842341 -0.470937 -2.278730 0.000000000000000e+00 1634890835
0.433312 -0.287260 -1.256712 0.000000000000000e+00 1936876886
0.984219 -0.299219 -2.278730 0.000000000000000e+00 1634890835
0.930924 -0.355154 -2.278730 0.000000000000000e+00 1634890835
0.821372 -0.460138 -2.278730 0.000000000000000e+00 1634890835
0.421232 -0.280357 -1.254533 0.000000000000000e+00 1936876886
0.962307 -0.291044 -2.278731 0.000000000000000e+00 1634890835
0.909367 -0.346119 -2.278730 0.000000000000000e+00 1634890835
0.445941 -0.250343 -1.269341 0.000000000000000e+00 1936876886
0.335123 -0.223968 -1.025459 0.000000000000000e+00 1953264973
0.940555 -0.282931 -2.278730 0.000000000000000e+00 1634890835
0.887967 -0.337151 -2.278730 0.000000000000000e+00 1634890835
0.428905 -0.241307 -1.253204 0.000000000000000e+00 1936876886
0.306468 -0.205701 -0.964033 0.000000000000000e+00 1953264973
0.495093 -0.148090 -1.227674 0.000000000000000e+00 1936876886
0.866718 -0.328247 -2.278730 0.000000000000000e+00 1634890835
0.358550 -0.202186 -1.075947 0.000000000000000e+00 1953264973
0.281219 -0.189606 -0.909908 0.000000000000000e+00 1953264973
0.483539 -0.143780 -1.227674 0.000000000000000e+00 1936876886
0.845617 -0.319403 -2.278730 0.000000000000000e+00 1634890835
0.326690 -0.184661 -1.007382 0.000000000000000e+00 1953264973
0.258798 -0.175313 -0.861846 0.000000000000000e+00 1953264973
0.472063 -0.139500 -1.227674 0.000000000000000e+00 1936876886
0.824656 -0.310620 -2.278730 0.000000000000000e+00 1634890835
0.299050 -0.169462 -0.948132 0.000000000000000e+00 1953264973
0.238753 -0.162535 -0.818875 0.000000000000000e+00 1953264973
