# .PCD v0.7 - Point Cloud Data file format
VERSION 0.7
FIELDS x y z rgb label
SIZE 4 4 4 4 4
TYPE F F F F U
COUNT 1 1 1 1 1
WIDTH 538
HEIGHT 1
VIEWPOINT 0 0 0 1 0 0 0
POINTS 538
DATA ascii
38.281780 -19.558214 10.279379 0.000000000000000e+00 1954047316
38.302059 -19.574940 9.884910 0.000000000000000e+00 1954047316
33.842999 -12.582300 -2.150188 0.000000000000000e+00 1851878480
36.774899 -15.382759 -2.241881 0.000000000000000e+00 1851878480
29.804865 -15.380663 -1.611709 0.000000000000000e+00 1851878480
28.363407 -16.103745 -1.408513 0.000000000000000e+00 1851878480
29.076233 -10.801893 -2.111481 0.000000000000000e+00 1851878480
28.571180 -11.947020 -2.009240 0.000000000000000e+00 1851878480
26.777128 -13.822499 -1.715251 0.000000000000000e+00 1851878480
25.964140 -14.750225 -1.557523 0.000000000000000e+00 1851878480
26.572641 -9.864302 -2.171294 0.000000000000000e+00 1851878480
26.105925 -10.912334 -2.080508 0.000000000000000e+00 1851878480
24.903082 -12.859088 -1.844060 0.000000000000000e+00 1851878480
24.370417 -13.852991 -1.713944 0.000000000000000e+00 1851878480
24.142765 -8.955471 -2.192505 0.000000000000000e+00 1851878480
24.347708 -10.173821 -2.168809 0.000000000000000e+00 1851878480
23.464308 -12.119903 -1.972311 0.000000000000000e+00 1851878480
23.206364 -13.199113 -1.872416 0.000000000000000e+00 1851878480
22.155842 -8.212186 -2.213976 0.000000000000000e+00 1851878480
22.347471 -9.334737 -2.200554 0.000000000000000e+00 1851878480
22.176575 -11.458323 -2.086303 0.000000000000000e+00 1851878480
21.859978 -12.440685 -1.990537 0.000000000000000e+00 1851878480
20.476093 -7.583795 -2.232973 0.000000000000000e+00 1851878480
20.678493 -8.634542 -2.230726 0.000000000000000e+00 1851878480
20.804319 -10.752629 -2.166024 0.000000000000000e+00 1851878480
20.448744 -11.644446 -2.074517 0.000000000000000e+00 1851878480
18.997341 -7.030728 -2.245327 0.000000000000000e+00 1851878480
19.036112 -7.945944 -2.232904 0.000000000000000e+00 1851878480
19.358913 -10.008699 -2.210201 0.000000000000000e+00 1851878480
19.119135 -10.893766 -2.138686 0.000000000000000e+00 1851878480
17.621265 -6.516459 -2.243990 0.000000000000000e+00 1851878480
17.652483 -7.365792 -2.237211 0.000000000000000e+00 1851878480
17.916105 -9.265646 -2.225984 0.000000000000000e+00 1851878480
17.877014 -10.192092 -2.186254 0.000000000000000e+00 1851878480
16.422539 -6.068504 -2.241939 0.000000000000000e+00 1851878480
16.453199 -6.862945 -2.240799 0.000000000000000e+00 1851878480
16.518518 -8.545532 -2.219123 0.000000000000000e+00 1851878480
16.636337 -9.490413 -2.208490 0.000000000000000e+00 1851878480
15.373626 -5.676544 -2.239997 0.000000000000000e+00 1851878480
15.434690 -6.435815 -2.248328 0.000000000000000e+00 1851878480
15.460134 -8.000501 -2.233385 0.000000000000000e+00 1851878480
15.501845 -8.848515 -2.220371 0.000000000000000e+00 1851878480
14.493760 -5.347531 -2.245240 0.000000000000000e+00 1851878480
14.444244 -6.020685 -2.241209 0.000000000000000e+00 1851878480
14.439030 -7.474435 -2.232343 0.000000000000000e+00 1851878480
14.470936 -8.265017 -2.224783 0.000000000000000e+00 1851878480
13.648340 -5.031723 -2.240216 0.000000000000000e+00 1851878480
13.585519 -5.660736 -2.237271 0.000000000000000e+00 1851878480
13.639048 -7.062548 -2.247375 0.000000000000000e+00 1851878480
13.581701 -7.761794 -2.231188 0.000000000000000e+00 1851878480
12.883310 -4.746001 -2.233810 0.000000000000000e+00 1851878480
12.841254 -5.348702 -2.237230 0.000000000000000e+00 1851878480
12.841557 -6.651691 -2.246929 0.000000000000000e+00 1851878480
12.789559 -7.313495 -2.236218 0.000000000000000e+00 1851878480
12.238164 -4.504834 -2.235435 0.000000000000000e+00 1851878480
12.187243 -5.074478 -2.239882 0.000000000000000e+00 1851878480
12.108279 -6.273855 -2.242470 0.000000000000000e+00 1851878480
12.117054 -6.933127 -2.247083 0.000000000000000e+00 1851878480
11.664209 -4.290216 -2.239046 0.000000000000000e+00 1851878480
11.575055 -4.817842 -2.238412 0.000000000000000e+00 1851878480
11.497472 -5.959258 -2.247303 0.000000000000000e+00 1851878480
11.414074 -6.534847 -2.238102 0.000000000000000e+00 1851878480
11.097681 -4.078648 -2.233771 0.000000000000000e+00 1851878480
11.042624 -4.594569 -2.241699 0.000000000000000e+00 1851878480
10.893061 -5.647779 -2.241280 0.000000000000000e+00 1851878480
10.822054 -6.199667 -2.237499 0.000000000000000e+00 1851878480
6.066463 -2.227812 -1.277805 1.880790849211783e-38 1684957512
6.042517 -2.513236 -1.284976 1.880790849211783e-38 1684957512
5.935666 -3.078477 -1.282580 1.880790849211783e-38 1684957512
5.921629 -3.394413 -1.287732 1.880790849211783e-38 1684957512
5.849723 -2.146528 -1.287031 1.880790849211783e-38 1684957512
5.810202 -2.415732 -1.291834 1.880790849211783e-38 1684957512
5.665594 -2.939353 -1.282943 1.880790849211783e-38 1684957512
5.652996 -3.242410 -1.290078 1.880790849211783e-38 1684957512
5.559969 -2.038592 -1.275610 1.880790849211783e-38 1684957512
5.505591 -2.288250 -1.277600 1.880790849211783e-38 1684957512
5.434765 -2.820504 -1.287208 1.880790849211783e-38 1684957512
5.389456 -3.093151 -1.288091 1.880790849211783e-38 1684957512
5.300176 -1.941797 -1.266062 1.880790849211783e-38 1684957512
5.345613 -2.220947 -1.292600 1.880790849211783e-38 1684957512
5.198967 -2.699003 -1.285652 1.880790849211783e-38 1684957512
5.092029 -2.924253 -1.272174 1.880790849211783e-38 1684957512
5.154057 -1.886759 -1.280008 1.880790849211783e-38 1684957512
5.042623 -2.094292 -1.268687 1.880790849211783e-38 1684957512
4.999312 -2.596194 -1.288698 1.880790849211783e-38 1684957512
4.941069 -2.839315 -1.288218 1.880790849211783e-38 1684957512
4.927514 -1.802389 -1.270625 1.880790849211783e-38 1684957512
4.970879 -2.063736 -1.299477 1.880790849211783e-38 1684957512
4.807825 -2.497566 -1.289960 1.880790849211783e-38 1684957512
4.738224 -2.724447 -1.287113 1.880790849211783e-38 1684957512
4.732413 -1.729636 -1.265514 1.880790849211783e-38 1684957512
4.773245 -1.980952 -1.294899 1.880790849211783e-38 1684957512
4.647332 -2.414985 -1.296046 1.880790849211783e-38 1684957512
4.511671 -2.595803 -1.275101 1.880790849211783e-38 1684957512
4.631486 -1.691383 -1.282938 1.880790849211783e-38 1684957512
4.567605 -1.894905 -1.284361 1.880790849211783e-38 1684957512
4.453697 -2.315120 -1.289359 1.880790849211783e-38 1684957512
4.325231 -2.490095 -1.270117 1.880790849211783e-38 1684957512
4.442220 -1.620948 -1.273287 1.880790849211783e-38 1684957512
4.439164 -1.840933 -1.292411 1.880790849211783e-38 1684957512
4.252573 -2.211303 -1.276523 1.880790849211783e-38 1684957512
4.224395 -2.433575 -1.287330 1.880790849211783e-38 1684957512
4.327368 -1.577755 -1.282220 1.880790849211783e-38 1684957512
4.262656 -1.767071 -1.283625 1.880790849211783e-38 1684957512
4.152863 -2.160171 -1.291133 1.880790849211783e-38 1684957512
4.161685 -2.398970 -1.314583 1.880790849211783e-38 1684957512
4.168294 -1.518513 -1.275581 1.880790849211783e-38 1684957512
4.165089 -1.725975 -1.296067 1.880790849211783e-38 1684957512
4.172761 -2.171244 -1.342299 1.880790849211783e-38 1684957512
4.131561 -2.383120 -1.351337 1.880790849211783e-38 1684957512
4.145907 -1.509119 -1.309199 1.880790849211783e-38 1684957512
4.149409 -1.718826 -1.333054 1.880790849211783e-38 1684957512
4.166314 -2.168615 -1.385371 1.880790849211783e-38 1684957512
4.171161 -2.407502 -1.411257 1.880790849211783e-38 1684957512
4.189579 -1.523755 -1.364081 1.880790849211783e-38 1684957512
4.185115 -1.732955 -1.386963 1.880790849211783e-38 1684957512
4.207949 -2.191024 -1.445057 1.880790849211783e-38 1684957512
4.146575 -2.394853 -1.449890 1.880790849211783e-38 1684957512
4.194881 -1.524415 -1.407156 1.880790849211783e-38 1684957512
4.130620 -1.709736 -1.411004 1.880790849211783e-38 1684957512
4.171629 -2.172851 -1.478282 1.880790849211783e-38 1684957512
4.169689 -2.409760 -1.505458 1.880790849211783e-38 1684957512
4.177365 -1.516782 -1.442669 1.880790849211783e-38 1684957512
4.096313 -1.694882 -1.441259 1.880790849211783e-38 1684957512
4.160373 -2.167725 -1.520129 1.880790849211783e-38 1684957512
4.198885 -2.428215 -1.564103 1.880790849211783e-38 1684957512
4.148156 -1.504912 -1.473899 1.880790849211783e-38 1684957512
4.187803 -1.732068 -1.516596 1.880790849211783e-38 1684957512
4.170659 -2.173829 -1.570108 1.880790849211783e-38 1684957512
4.195606 -2.427907 -1.611243 1.880790849211783e-38 1684957512
4.156919 -1.506817 -1.518645 1.880790849211783e-38 1684957512
4.152697 -1.716877 -1.546911 1.880790849211783e-38 1684957512
4.210952 -2.195585 -1.632229 1.880790849211783e-38 1684957512
4.121345 -2.386504 -1.630530 1.880790849211783e-38 1684957512
4.172462 -1.511166 -1.566346 1.880790849211783e-38 1684957512
4.125369 -1.704912 -1.579724 1.880790849211783e-38 1684957512
4.169585 -2.174771 -1.662974 1.880790849211783e-38 1684957512
4.161314 -2.411244 -1.694925 1.880790849211783e-38 1684957512
4.155282 -1.503658 -1.601989 1.880790849211783e-38 1684957512
4.180391 -1.726971 -1.644622 1.880790849211783e-38 1684957512
4.183806 -2.182949 -1.715887 1.880790849211783e-38 1684957512
4.170221 -2.418019 -1.747564 1.880790849211783e-38 1684957512
4.157333 -1.503105 -1.645144 1.880790849211783e-38 1684957512
4.158960 -1.717435 -1.680062 1.880790849211783e-38 1684957512
4.190917 -2.187427 -1.766437 1.880790849211783e-38 1684957512
4.184910 -2.428164 -1.803241 1.880790849211783e-38 1684957512
4.168220 -1.505735 -1.692188 1.880790849211783e-38 1684957512
4.171852 -1.722070 -1.729556 1.880790849211783e-38 1684957512
4.168946 -2.176728 -1.804882 1.880790849211783e-38 1684957512
4.180183 -2.427063 -1.851018 1.880790849211783e-38 1684957512
4.139152 -1.493932 -1.723094 1.880790849211783e-38 1684957512
4.190157 -1.728933 -1.781916 1.880790849211783e-38 1684957512
4.141659 -2.163251 -1.840794 1.880790849211783e-38 1684957512
4.158973 -2.416392 -1.891547 1.880790849211783e-38 1684957512
4.149360 -1.496300 -1.770431 1.880790849211783e-38 1684957512
4.134435 -1.705251 -1.802688 1.880790849211783e-38 1684957512
4.224204 -2.207155 -1.926504 1.880790849211783e-38 1684957512
4.143502 -2.409055 -1.934613 1.880790849211783e-38 1684957512
4.139870 -1.491558 -1.809655 1.880790849211783e-38 1684957512
4.182704 -1.724457 -1.869031 1.880790849211783e-38 1684957512
4.178777 -2.184208 -1.954637 1.880790849211783e-38 1684957512
4.194465 -2.440368 -2.009512 1.880790849211783e-38 1684957512
4.138056 -1.489578 -1.852412 1.880790849211783e-38 1684957512
4.152091 -1.711133 -1.900632 1.880790849211783e-38 1684957512
4.163753 -2.177143 -1.996650 1.880790849211783e-38 1684957512
4.108006 -2.391730 -2.018533 1.880790849211783e-38 1684957512
4.147731 -1.491722 -1.900699 1.880790849211783e-38 1684957512
4.208477 -1.733654 -1.972669 1.880790849211783e-38 1684957512
4.177630 -2.185201 -2.052888 1.880790849211783e-38 1684957512
4.187341 -2.439628 -2.109341 1.880790849211783e-38 1684957512
4.189371 -1.505333 -1.964495 1.880790849211783e-38 1684957512
4.164959 -1.715013 -1.998356 1.880790849211783e-38 1684957512
4.196252 -2.195751 -2.112237 1.880790849211783e-38 1684957512
4.134231 -2.410388 -2.134176 1.880790849211783e-38 1684957512
4.153627 -1.491131 -1.992392 1.880790849211783e-38 1684957512
4.196838 -1.727413 -2.060440 1.880790849211783e-38 1684957512
4.193247 -2.194996 -2.161291 1.880790849211783e-38 1684957512
4.138394 -2.414534 -2.188397 1.880790849211783e-38 1684957512
4.133099 -1.482398 -2.027314 1.880790849211783e-38 1684957512
4.172540 -1.716687 -2.095388 1.880790849211783e-38 1684957512
4.187132 -2.192617 -2.209049 1.880790849211783e-38 1684957512
4.130043 -2.411393 -2.236394 0.000000000000000e+00 1851878480
4.176379 -1.496537 -2.094130 1.880790849211783e-38 1684957512
4.172684 -1.716013 -2.142709 1.880790849211783e-38 1684957512
4.156204 -2.177243 -2.243692 1.880790849211783e-38 1684957512
4.078887 -2.383251 -2.260910 0.000000000000000e+00 1851878480
4.158491 -1.488734 -2.130908 1.880790849211783e-38 1684957512
4.160255 -1.710165 -2.183818 1.880790849211783e-38 1684957512
4.035494 -2.114815 -2.228439 0.000000000000000e+00 1851878480
3.979961 -2.327148 -2.257485 0.000000000000000e+00 1851878480
4.174043 -1.492897 -2.185164 1.880790849211783e-38 1684957512
4.177808 -1.716636 -2.241117 1.880790849211783e-38 1684957512
4.032341 -2.113976 -2.277009 0.000000000000000e+00 1851878480
3.875188 -2.267556 -2.248570 0.000000000000000e+00 1851878480
4.164699 -1.488138 -2.226833 1.880790849211783e-38 1684957512
4.121176 -1.692625 -2.258572 0.000000000000000e+00 1851878480
3.909229 -2.050229 -2.256705 0.000000000000000e+00 1851878480
3.819597 -2.236689 -2.266569 0.000000000000000e+00 1851878480
4.063312 -1.450520 -2.218432 0.000000000000000e+00 1851878480
4.036705 -1.657200 -2.259538 0.000000000000000e+00 1851878480
3.810035 -1.998989 -2.247854 0.000000000000000e+00 1851878480
3.727102 -2.184166 -2.261190 0.000000000000000e+00 1851878480
4.049257 -1.444105 -2.256802 0.000000000000000e+00 1851878480
3.950380 -1.621039 -2.257876 0.000000000000000e+00 1851878480
3.774451 -1.981102 -2.275271 0.000000000000000e+00 1851878480
3.618533 -2.122149 -2.243860 0.000000000000000e+00 1851878480
3.980528 -1.418209 -2.264153 0.000000000000000e+00 1634890835
3.837701 -1.574093 -2.239209 0.000000000000000e+00 1851878480
3.648573 -1.915797 -2.246639 0.000000000000000e+00 1851878480
3.537986 -2.076499 -2.241843 0.000000000000000e+00 1851878480
3.983292 -1.417795 -2.311825 0.000000000000000e+00 1634890835
3.807436 -1.560971 -2.267345 0.000000000000000e+00 1851878480
3.598034 -1.890018 -2.262573 0.000000000000000e+00 1851878480
3.443295 -2.022484 -2.228967 0.000000000000000e+00 1851878480
3.871349 -1.376580 -2.292067 0.000000000000000e+00 1634890835
3.685317 -1.510213 -2.239365 0.000000000000000e+00 1851878480
3.511256 -1.845185 -2.254383 0.000000000000000e+00 1851878480
3.432820 -2.017905 -2.269657 0.000000000000000e+00 1851878480
3.780794 -1.343031 -2.283019 0.000000000000000e+00 1634890835
3.611258 -1.479181 -2.238628 0.000000000000000e+00 1851878480
3.463632 -1.820908 -2.270027 0.000000000000000e+00 1851878480
3.330882 -1.959527 -2.248810 0.000000000000000e+00 1851878480
3.689743 -1.309357 -2.271945 0.000000000000000e+00 1634890835
3.590343 -1.469927 -2.270104 0.000000000000000e+00 1851878480
3.392148 -1.784068 -2.268918 0.000000000000000e+00 1851878480
3.292279 -1.938363 -2.269259 0.000000000000000e+00 1851878480
3.617235 -1.282312 -2.270761 0.000000000000000e+00 1634890835
3.456403 -1.414420 -2.228626 0.000000000000000e+00 1851878480
3.349392 -1.762319 -2.285967 0.000000000000000e+00 1851878480
3.158749 -1.861241 -2.222340 0.000000000000000e+00 1851878480
3.601199 -1.275304 -2.304393 0.000000000000000e+00 1634890835
3.521106 -1.440212 -2.314816 0.000000000000000e+00 1634890835
3.242896 -1.707008 -2.257961 0.000000000000000e+00 1851878480
3.147402 -1.856065 -2.259822 0.000000000000000e+00 1851878480
3.503728 -1.239486 -2.284965 0.000000000000000e+00 1634890835
3.378441 -1.381191 -2.264137 0.000000000000000e+00 1634890835
3.178108 -1.673620 -2.257122 0.000000000000000e+00 1851878480
3.086214 -1.821479 -2.260984 0.000000000000000e+00 1851878480
3.415603 -1.207033 -2.269791 0.000000000000000e+00 1634890835
3.353573 -1.370356 -2.290719 0.000000000000000e+00 1634890835
3.099060 -1.632700 -2.244641 0.000000000000000e+00 1851878480
3.018285 -1.782870 -2.255838 0.000000000000000e+00 1851878480
3.393377 -1.197896 -2.297483 0.000000000000000e+00 1634890835
3.260748 -1.331771 -2.269821 0.000000000000000e+00 1634890835
3.094401 -1.630961 -2.285365 0.000000000000000e+00 1851878480
2.959368 -1.749539 -2.256078 0.000000000000000e+00 1851878480
3.338120 -1.177112 -2.302290 0.000000000000000e+00 1634890835
3.217037 -1.313262 -2.281794 0.000000000000000e+00 1634890835
3.013635 -1.589095 -2.269170 0.000000000000000e+00 1851878480
2.904970 -1.718843 -2.258600 0.000000000000000e+00 1851878480
3.262293 -1.149114 -2.291703 0.000000000000000e+00 1634890835
3.168148 -1.292652 -2.289343 0.000000000000000e+00 1634890835
2.938896 -1.550380 -2.255781 0.000000000000000e+00 1851878480
2.794526 -1.654919 -2.215576 0.000000000000000e+00 1851878480
3.211447 -1.129950 -2.297501 0.000000000000000e+00 1634890835
3.112744 -1.269399 -2.291271 0.000000000000000e+00 1634890835
2.905251 -1.533325 -2.272870 0.000000000000000e+00 1851878480
2.780708 -1.648174 -2.247797 0.000000000000000e+00 1851878480
3.174408 -1.115664 -2.312504 0.000000000000000e+00 1634890835
3.058733 -1.246730 -2.293231 0.000000000000000e+00 1634890835
2.825495 -1.491918 -2.252731 0.000000000000000e+00 1851878480
2.754868 -1.634298 -2.270236 0.000000000000000e+00 1851878480
3.107130 -1.090780 -2.304586 0.000000000000000e+00 1634890835
2.986706 -1.216735 -2.280449 0.000000000000000e+00 1634890835
2.777636 -1.467328 -2.256643 0.000000000000000e+00 1851878480
0.868450 -0.515661 -0.729513 0.000000000000000e+00 1886740808
3.037159 -1.064990 -2.293328 0.000000000000000e+00 1634890835
2.880263 -1.172751 -2.239410 0.000000000000000e+00 1634890835
2.754700 -1.455899 -2.280274 0.000000000000000e+00 1851878480
0.840442 -0.499482 -0.719558 0.000000000000000e+00 1886740808
2.983950 -1.045114 -2.293557 0.000000000000000e+00 1634890835
2.902258 -1.181075 -2.297552 0.000000000000000e+00 1634890835
0.827394 -0.437498 -0.697759 0.000000000000000e+00 1886740808
0.802034 -0.477094 -0.699804 0.000000000000000e+00 1886740808
2.919183 -1.021224 -2.283786 0.000000000000000e+00 1634890835
2.866304 -1.165807 -2.310131 0.000000000000000e+00 1634890835
0.851089 -0.450244 -0.731149 0.000000000000000e+00 1886740808
0.837640 -0.498737 -0.744775 0.000000000000000e+00 1886740808
2.886524 -1.008591 -2.298291 0.000000000000000e+00 1634890835
2.830709 -1.150697 -2.322495 0.000000000000000e+00 1634890835
0.858298 -0.454281 -0.751049 0.000000000000000e+00 1886740808
0.787342 -0.469231 -0.713307 0.000000000000000e+00 1886740808
2.827284 -0.986696 -2.290854 0.000000000000000e+00 1634890835
2.726091 -1.107553 -2.276711 0.000000000000000e+00 1634890835
0.831910 -0.440533 -0.741429 0.000000000000000e+00 1886740808
0.761493 -0.454260 -0.702894 0.000000000000000e+00 1886740808
2.789521 -0.972320 -2.299962 0.000000000000000e+00 1634890835
0.846831 -0.343855 -0.719843 0.000000000000000e+00 1886740808
0.796564 -0.422028 -0.723009 0.000000000000000e+00 1886740808
0.815922 -0.487200 -0.767274 0.000000000000000e+00 1886740808
0.872819 -0.303852 -0.732226 0.000000000000000e+00 1886740808
0.874664 -0.354953 -0.756699 0.000000000000000e+00 1886740808
0.786038 -0.416663 -0.726550 0.000000000000000e+00 1886740808
0.735671 -0.439713 -0.704748 0.000000000000000e+00 1886740808
0.855972 -0.297611 -0.730601 0.000000000000000e+00 1886740808
0.818289 -0.331882 -0.720445 0.000000000000000e+00 1886740808
0.772721 -0.409816 -0.727305 0.000000000000000e+00 1886740808
0.768316 -0.459683 -0.749741 0.000000000000000e+00 1886740808
0.826610 -0.287034 -0.717783 0.000000000000000e+00 1886740808
0.844340 -0.342246 -0.756477 0.000000000000000e+00 1886740808
0.760728 -0.403667 -0.729070 0.000000000000000e+00 1886740808
0.779079 -0.466594 -0.774374 0.000000000000000e+00 1886740808
0.806320 -0.279624 -0.712273 0.000000000000000e+00 1886740808
0.782655 -0.317053 -0.713525 0.000000000000000e+00 1886740808
0.765666 -0.406504 -0.747142 0.000000000000000e+00 1886740808
0.714353 -0.428269 -0.723200 0.000000000000000e+00 1886740808
0.796590 -0.275886 -0.715808 0.000000000000000e+00 1886740808
0.785912 -0.318179 -0.729038 0.000000000000000e+00 1886740808
0.768338 -0.408144 -0.763343 0.000000000000000e+00 1886740808
0.755560 -0.453446 -0.779062 0.000000000000000e+00 1886740808
0.793069 -0.274298 -0.724895 0.000000000000000e+00 1886740808
0.788648 -0.319090 -0.744350 0.000000000000000e+00 1886740808
0.779771 -0.414445 -0.788716 0.000000000000000e+00 1886740808
0.743681 -0.446789 -0.780964 0.000000000000000e+00 1886740808
0.731057 -0.252506 -0.679670 0.000000000000000e+00 1886740808
0.754518 -0.305090 -0.724541 0.000000000000000e+00 1886740808
0.749474 -0.398564 -0.771759 0.000000000000000e+00 1886740808
0.739355 -0.444668 -0.790727 0.000000000000000e+00 1886740808
0.740268 -0.255334 -0.700007 0.000000000000000e+00 1886740808
0.761389 -0.307672 -0.743849 0.000000000000000e+00 1886740808
0.765349 -0.407237 -0.802312 0.000000000000000e+00 1886740808
2.107040 -1.268618 -2.294899 0.000000000000000e+00 1634890835
0.796169 -0.274229 -0.765721 0.000000000000000e+00 1886740808
0.750759 -0.303181 -0.746192 0.000000000000000e+00 1886740808
0.797809 -0.424754 -0.851396 0.000000000000000e+00 1886740808
2.039799 -1.229498 -2.262494 0.000000000000000e+00 1634890835
0.791408 -0.272200 -0.774116 0.000000000000000e+00 1886740808
0.746536 -0.301278 -0.754852 0.000000000000000e+00 1886740808
2.115995 -1.127215 -2.298734 0.000000000000000e+00 1634890835
2.047609 -1.235601 -2.312870 0.000000000000000e+00 1634890835
0.762353 -0.261826 -0.758388 0.000000000000000e+00 1886740808
0.753450 -0.303865 -0.775028 0.000000000000000e+00 1886740808
2.106277 -1.122707 -2.329302 0.000000000000000e+00 1634890835
0.805922 -0.486881 -0.927039 0.000000000000000e+00 1886740808
0.761216 -0.261049 -0.770132 0.000000000000000e+00 1886740808
0.733437 -0.295593 -0.767489 0.000000000000000e+00 1886740808
2.065519 -1.101649 -2.325268 0.000000000000000e+00 1634890835
0.792717 -0.479464 -0.928589 0.000000000000000e+00 1886740808
0.791430 -0.271002 -0.814303 0.000000000000000e+00 1886740808
0.788648 -0.317625 -0.839525 0.000000000000000e+00 1886740808
2.019370 -1.077699 -2.314157 0.000000000000000e+00 1634890835
0.792051 -0.479631 -0.944845 0.000000000000000e+00 1886740808
0.746765 -0.255317 -0.781395 0.000000000000000e+00 1886740808
2.105188 -0.847260 -2.279719 0.000000000000000e+00 1634890835
0.826382 -0.441301 -0.964037 0.000000000000000e+00 1886740808
0.785045 -0.475965 -0.953696 0.000000000000000e+00 1886740808
0.738662 -0.252154 -0.786037 0.000000000000000e+00 1886740808
2.075819 -0.834844 -2.286757 0.000000000000000e+00 1634890835
0.830171 -0.443608 -0.985871 0.000000000000000e+00 1886740808
0.778283 -0.472448 -0.962870 0.000000000000000e+00 1886740808
0.784741 -0.267458 -0.849250 0.000000000000000e+00 1886740808
2.061821 -0.828609 -2.310595 0.000000000000000e+00 1634890835
0.801186 -0.428398 -0.968575 0.000000000000000e+00 1886740808
1.825170 -1.109341 -2.299628 0.000000000000000e+00 1634890835
2.075182 -0.706129 -2.283911 0.000000000000000e+00 1634890835
2.026117 -0.813656 -2.309854 0.000000000000000e+00 1634890835
0.808451 -0.432569 -0.994970 0.000000000000000e+00 1886740808
1.782476 -1.084779 -2.287254 0.000000000000000e+00 1634890835
2.042838 -0.693979 -2.286524 0.000000000000000e+00 1634890835
2.002194 -0.803441 -2.322096 0.000000000000000e+00 1634890835
0.795097 -0.425711 -0.996197 0.000000000000000e+00 1886740808
0.743154 -0.452859 -0.971228 0.000000000000000e+00 1886740808
2.012100 -0.682388 -2.290431 0.000000000000000e+00 1634890835
1.977847 -0.793060 -2.333619 0.000000000000000e+00 1634890835
0.780505 -0.418185 -0.995597 0.000000000000000e+00 1886740808
1.706207 -1.041103 -2.271139 0.000000000000000e+00 1634890835
1.957066 -0.662588 -2.265729 0.000000000000000e+00 1634890835
0.831823 -0.333276 -0.998488 0.000000000000000e+00 1886740808
1.757124 -0.942109 -2.281976 0.000000000000000e+00 1634890835
1.657416 -1.012705 -2.247158 0.000000000000000e+00 1634890835
1.970799 -0.666072 -2.320549 0.000000000000000e+00 1634890835
0.819395 -0.328033 -1.000675 0.000000000000000e+00 1886740808
0.773643 -0.415098 -1.022984 0.000000000000000e+00 1886740808
1.667005 -1.019975 -2.302245 0.000000000000000e+00 1634890835
1.885134 -0.635985 -2.257615 0.000000000000000e+00 1634890835
0.794776 -0.317917 -0.987526 0.000000000000000e+00 1886740808
1.695852 -0.910571 -2.283270 0.000000000000000e+00 1634890835
1.636245 -1.002570 -2.301980 0.000000000000000e+00 1634890835
0.823086 -0.277178 -1.002600 0.000000000000000e+00 1886740808
0.800433 -0.319912 -1.011931 0.000000000000000e+00 1886740808
1.697439 -0.912104 -2.327180 0.000000000000000e+00 1634890835
1.570660 -0.963774 -2.251142 0.000000000000000e+00 1634890835
0.749069 -0.251784 -0.928105 0.000000000000000e+00 1886740808
0.764551 -0.305311 -0.983502 0.000000000000000e+00 1886740808
1.648314 -0.886381 -2.301278 0.000000000000000e+00 1634890835
1.575235 -0.968008 -2.300196 0.000000000000000e+00 1634890835
0.779928 -0.261659 -0.982974 0.000000000000000e+00 1886740808
0.843703 -0.336626 -1.104394 0.000000000000000e+00 1886740808
1.648507 -0.887175 -2.343924 0.000000000000000e+00 1634890835
1.531476 -0.942535 -2.278569 0.000000000000000e+00 1634890835
0.773612 -0.259037 -0.991849 0.000000000000000e+00 1886740808
1.730225 -0.689723 -2.304773 0.000000000000000e+00 1634890835
1.589918 -0.856324 -2.302415 0.000000000000000e+00 1634890835
1.524217 -0.939513 -2.310837 0.000000000000000e+00 1634890835
0.786510 -0.262834 -1.025854 0.000000000000000e+00 1886740808
1.661272 -0.661635 -2.252084 0.000000000000000e+00 1634890835
1.537689 -0.828867 -2.268135 0.000000000000000e+00 1634890835
1.489150 -0.919344 -2.300760 0.000000000000000e+00 1634890835
0.777366 -0.259250 -1.031556 0.000000000000000e+00 1886740808
0.748340 -0.297765 -1.032504 0.000000000000000e+00 1886740808
1.544145 -0.833039 -2.320163 0.000000000000000e+00 1634890835
1.469517 -0.908685 -2.313988 0.000000000000000e+00 1634890835
1.670636 -0.555997 -2.255609 0.000000000000000e+00 1634890835
1.650699 -0.656189 -2.318154 0.000000000000000e+00 1634890835
1.509466 -0.815023 -2.310603 0.000000000000000e+00 1634890835
1.429123 -0.885166 -2.293806 0.000000000000000e+00 1634890835
0.765851 -0.254338 -1.052140 0.000000000000000e+00 1886740808
1.571157 -0.623961 -2.246005 0.000000000000000e+00 1634890835
1.459529 -0.788748 -2.276305 0.000000000000000e+00 1634890835
1.409881 -0.874724 -2.306852 0.000000000000000e+00 1634890835
1.628645 -0.539694 -2.276858 0.000000000000000e+00 1634890835
1.563780 -0.620412 -2.275732 0.000000000000000e+00 1634890835
1.450847 -0.784754 -2.305695 0.000000000000000e+00 1634890835
1.382271 -0.859078 -2.305862 0.000000000000000e+00 1634890835
1.616176 -0.534369 -2.299406 0.000000000000000e+00 1634890835
1.564691 -0.620141 -2.318300 0.000000000000000e+00 1634890835
1.415638 -0.766409 -2.292692 0.000000000000000e+00 1634890835
1.347719 -0.839089 -2.292446 0.000000000000000e+00 1634890835
1.584584 -0.522726 -2.294557 0.000000000000000e+00 1634890835
1.531989 -0.606546 -2.311190 0.000000000000000e+00 1634890835
1.409392 -0.763742 -2.326444 0.000000000000000e+00 1634890835
1.347306 -0.840358 -2.337149 0.000000000000000e+00 1634890835
1.542849 -0.507764 -2.274076 0.000000000000000e+00 1634890835
1.519454 -0.600937 -2.334276 0.000000000000000e+00 1634890835
1.373089 -0.744784 -2.310380 0.000000000000000e+00 1634890835
1.289126 -0.805568 -2.280860 0.000000000000000e+00 1634890835
1.544105 -0.506955 -2.316867 0.000000000000000e+00 1634890835
1.490550 -0.588857 -2.332089 0.000000000000000e+00 1634890835
1.369346 -0.743486 -2.348997 0.000000000000000e+00 1634890835
1.282458 -0.802935 -2.314714 0.000000000000000e+00 1634890835
1.465279 -0.479886 -2.238383 0.000000000000000e+00 1634890835
1.444667 -0.570086 -2.302250 0.000000000000000e+00 1634890835
1.322369 -0.718705 -2.312972 0.000000000000000e+00 1634890835
1.262178 -0.791792 -2.324325 0.000000000000000e+00 1634890835
1.495597 -0.488574 -2.326318 0.000000000000000e+00 1634890835
1.397949 -0.551012 -2.269433 0.000000000000000e+00 1634890835
1.297135 -0.705722 -2.313764 0.000000000000000e+00 1634890835
1.232932 -0.775008 -2.316935 0.000000000000000e+00 1634890835
1.422760 -0.463568 -2.253612 0.000000000000000e+00 1634890835
1.399983 -0.551157 -2.315521 0.000000000000000e+00 1634890835
1.245508 -0.678357 -2.266042 0.000000000000000e+00 1634890835
1.176786 -0.741248 -2.257091 0.000000000000000e+00 1634890835
1.419164 -0.461157 -2.289441 0.000000000000000e+00 1634890835
1.379755 -0.542528 -2.325356 0.000000000000000e+00 1634890835
1.225719 -0.668310 -2.274969 0.000000000000000e+00 1634890835
1.164614 -0.735147 -2.280318 0.000000000000000e+00 1634890835
1.412492 -0.457724 -2.321088 0.000000000000000e+00 1634890835
1.348947 -0.529747 -2.316908 0.000000000000000e+00 1634890835
1.218973 -0.665382 -2.308455 0.000000000000000e+00 1634890835
1.158164 -0.732682 -2.315443 0.000000000000000e+00 1634890835
1.353902 -0.437492 -2.266542 0.000000000000000e+00 1634890835
1.326116 -0.520106 -2.321617 0.000000000000000e+00 1634890835
1.191945 -0.651383 -2.303616 0.000000000000000e+00 1634890835
1.122205 -0.711539 -2.291289 0.000000000000000e+00 1634890835
1.352097 -0.435630 -2.306329 0.000000000000000e+00 1634890835
1.284155 -0.502978 -2.291891 0.000000000000000e+00 1634890835
1.171919 -0.641206 -2.311887 0.000000000000000e+00 1634890835
1.108732 -0.704632 -2.312471 0.000000000000000e+00 1634890835
1.314182 -0.422139 -2.284416 0.000000000000000e+00 1634890835
1.258190 -0.492131 -2.289635 0.000000000000000e+00 1634890835
1.155926 -0.633234 -2.328130 0.000000000000000e+00 1634890835
1.079186 -0.687503 -2.299809 0.000000000000000e+00 1634890835
1.290278 -0.413174 -2.286029 0.000000000000000e+00 1634890835
1.245104 -0.486323 -2.310730 0.000000000000000e+00 1634890835
1.121713 -0.615271 -2.307088 0.000000000000000e+00 1634890835
1.048998 -0.669926 -2.284678 0.000000000000000e+00 1634890835
1.303781 -0.416159 -2.354826 0.000000000000000e+00 1634890835
1.234015 -0.481288 -2.335993 0.000000000000000e+00 1634890835
1.146798 -0.629854 -2.409228 0.000000000000000e+00 1634890835
1.037073 -0.664002 -2.309027 0.000000000000000e+00 1634890835
1.229873 -0.391270 -2.264909 0.000000000000000e+00 1634890835
1.176871 -0.458311 -2.272879 0.000000000000000e+00 1634890835
1.063467 -0.584877 -2.282610 0.000000000000000e+00 1634890835
1.007940 -0.647053 -2.294800 0.000000000000000e+00 1634890835
1.219543 -0.386655 -2.290383 0.000000000000000e+00 1634890835
1.159373 -0.450794 -2.284858 0.000000000000000e+00 1634890835
1.034520 -0.569751 -2.269220 0.000000000000000e+00 1634890835
1.002949 -0.645606 -2.335641 0.000000000000000e+00 1634890835
1.197064 -0.378186 -2.293178 0.000000000000000e+00 1634890835
1.145329 -0.444617 -2.303841 0.000000000000000e+00 1634890835
1.038306 -0.572660 -2.328158 0.000000000000000e+00 1634890835
0.971120 -0.626882 -2.313935 0.000000000000000e+00 1634890835
1.176681 -0.370386 -2.299758 0.000000000000000e+00 1634890835
1.140287 -0.441924 -2.341668 0.000000000000000e+00 1634890835
1.020541 -0.563703 -2.339880 0.000000000000000e+00 1634890835
0.944846 -0.611701 -2.304260 0.000000000000000e+00 1634890835
1.147293 -0.359767 -2.288222 0.000000000000000e+00 1634890835
1.087014 -0.420552 -2.279516 0.000000000000000e+00 1634890835
0.981953 -0.543226 -2.302828 0.000000000000000e+00 1634890835
0.910704 -0.591380 -2.273982 0.000000000000000e+00 1634890835
1.114299 -0.348048 -2.268446 0.000000000000000e+00 1634890835
1.070887 -0.413575 -2.293824 0.000000000000000e+00 1634890835
0.962115 -0.533104 -2.308578 0.000000000000000e+00 1634890835
0.899265 -0.585783 -2.299818 0.000000000000000e+00 1634890835
1.105295 -0.343829 -2.297290 0.000000000000000e+00 1634890835
1.052195 -0.405605 -2.302718 0.000000000000000e+00 1634890835
0.963425 -0.534716 -2.366075 0.000000000000000e+00 1634890835
0.865265 -0.565468 -2.267334 0.000000000000000e+00 1634890835
1.092556 -0.338430 -2.319023 0.000000000000000e+00 1634890835
1.030882 -0.396627 -2.305711 0.000000000000000e+00 1634890835
0.923688 -0.513545 -2.322645 0.000000000000000e+00 1634890835
0.855435 -0.560931 -2.297663 0.000000000000000e+00 1634890835
1.068011 -0.329374 -2.315685 0.000000000000000e+00 1634890835
1.002142 -0.384803 -2.291440 0.000000000000000e+00 1634890835
0.891954 -0.496788 -2.297252 0.000000000000000e+00 1634890835
0.831793 -0.547343 -2.291031 0.000000000000000e+00 1634890835
1.032167 -0.316865 -2.286758 0.000000000000000e+00 1634890835
0.987467 -0.378383 -2.308985 0.000000000000000e+00 1634890835
0.880967 -0.491580 -2.324903 0.000000000000000e+00 1634890835
0.471485 -0.311382 -1.332267 0.000000000000000e+00 1936876886
1.022454 -0.312390 -2.315320 0.000000000000000e+00 1634890835
0.968210 -0.370207 -2.315967 0.000000000000000e+00 1634890835
0.853909 -0.477404 -2.310022 0.000000000000000e+00 1634890835
0.440546 -0.292056 -1.277693 0.000000000000000e+00 1936876886
1.003245 -0.305003 -2.322781 0.000000000000000e+00 1634890835
0.943286 -0.359870 -2.308991 0.000000000000000e+00 1634890835
0.839119 -0.470080 -2.327965 0.000000000000000e+00 1634890835
0.429761 -0.286034 -1.279934 0.000000000000000e+00 1936876886
0.984261 -0.297684 -2.330719 0.000000000000000e+00 1634890835
0.902537 -0.343519 -2.261614 0.000000000000000e+00 1634890835
0.458347 -0.257308 -1.304656 0.000000000000000e+00 1936876886
0.355109 -0.237325 -1.086616 0.000000000000000e+00 1953264973
0.939143 -0.282506 -2.275310 0.000000000000000e+00 1634890835
0.899190 -0.341413 -2.307531 0.000000000000000e+00 1634890835
0.443287 -0.249399 -1.295226 0.000000000000000e+00 1936876886
0.321896 -0.216056 -1.012563 0.000000000000000e+00 1953264973
0.504139 -0.150796 -1.250105 0.000000000000000e+00 1936876886
0.872761 -0.330536 -2.294617 0.000000000000000e+00 1634890835
0.370629 -0.208997 -1.112194 0.000000000000000e+00 1953264973
0.292809 -0.197420 -0.947407 0.000000000000000e+00 1953264973
0.488872 -0.145366 -1.241214 0.000000000000000e+00 1936876886
0.863647 -0.326214 -2.327317 0.000000000000000e+00 1634890835
0.351190 -0.198509 -1.082928 0.000000000000000e+00 1953264973
0.273735 -0.185432 -0.911589 0.000000000000000e+00 1953264973
0.488568 -0.144377 -1.270598 0.000000000000000e+00 1936876886
0.833048 -0.313781 -2.301919 0.000000000000000e+00 1634890835
0.320231 -0.181464 -1.015286 0.000000000000000e+00 1953264973
0.240926 -0.164014 -0.826328 0.000000000000000e+00 1953264973
