# .PCD v0.7 - Point Cloud Data file format
VERSION 0.7
FIELDS x y z rgb label
SIZE 4 4 4 4 4
TYPE F F F F U
COUNT 1 1 1 1 1
WIDTH 535
HEIGHT 1
VIEWPOINT 0 0 0 1 0 0 0
POINTS 535
DATA ascii
37.006214 -18.900391 10.324800 0.000000000000000e+00 1954047316
36.153103 -20.150583 9.867094 0.000000000000000e+00 1954047316
35.415512 -13.166936 -2.250098 0.000000000000000e+00 1851878480
29.363550 -10.908632 -2.132347 0.000000000000000e+00 1851878480
29.042418 -12.144067 -2.042379 0.000000000000000e+00 1851878480
27.432550 -14.160832 -1.757234 0.000000000000000e+00 1851878480
26.354984 -14.972264 -1.580969 0.000000000000000e+00 1851878480
26.705009 -9.913439 -2.182110 0.000000000000000e+00 1851878480
26.289141 -10.988918 -2.095109 0.000000000000000e+00 1851878480
24.974911 -12.896178 -1.849378 0.000000000000000e+00 1851878480
24.299150 -13.812480 -1.708932 0.000000000000000e+00 1851878480
24.144480 -8.956108 -2.192662 0.000000000000000e+00 1851878480
24.273306 -10.142732 -2.162181 0.000000000000000e+00 1851878480
23.183086 -11.974646 -1.948673 0.000000000000000e+00 1851878480
22.746323 -12.937455 -1.835298 0.000000000000000e+00 1851878480
22.119064 -8.198555 -2.210302 0.000000000000000e+00 1851878480
22.232439 -9.286687 -2.189227 0.000000000000000e+00 1851878480
21.829185 -11.278831 -2.053622 0.000000000000000e+00 1851878480
21.558840 -12.269305 -1.963116 0.000000000000000e+00 1851878480
20.428516 -7.566173 -2.227784 0.000000000000000e+00 1851878480
20.567776 -8.588310 -2.218783 0.000000000000000e+00 1851878480
20.649967 -10.672853 -2.149955 0.000000000000000e+00 1851878480
20.365223 -11.596888 -2.066045 0.000000000000000e+00 1851878480
18.924395 -7.003731 -2.236706 0.000000000000000e+00 1851878480
19.052813 -7.952915 -2.234863 0.000000000000000e+00 1851878480
19.433029 -10.047017 -2.218662 0.000000000000000e+00 1851878480
19.116495 -10.892262 -2.138391 0.000000000000000e+00 1851878480
17.578167 -6.500522 -2.238502 0.000000000000000e+00 1851878480
17.658102 -7.368137 -2.237923 0.000000000000000e+00 1851878480
17.952875 -9.284662 -2.230552 0.000000000000000e+00 1851878480
18.034185 -10.281700 -2.205476 0.000000000000000e+00 1851878480
16.399170 -6.059869 -2.238749 0.000000000000000e+00 1851878480
16.449732 -6.861499 -2.240327 0.000000000000000e+00 1851878480
16.660263 -8.618861 -2.238166 0.000000000000000e+00 1851878480
16.700975 -9.527287 -2.217071 0.000000000000000e+00 1851878480
15.355181 -5.669733 -2.237309 0.000000000000000e+00 1851878480
15.362250 -6.405610 -2.237776 0.000000000000000e+00 1851878480
15.474093 -8.007725 -2.235402 0.000000000000000e+00 1851878480
15.531876 -8.865655 -2.224673 0.000000000000000e+00 1851878480
14.439369 -5.327463 -2.236815 0.000000000000000e+00 1851878480
14.448034 -6.022265 -2.241796 0.000000000000000e+00 1851878480
14.422956 -7.466115 -2.229858 0.000000000000000e+00 1851878480
14.467595 -8.263107 -2.224270 0.000000000000000e+00 1851878480
13.662441 -5.036922 -2.242531 0.000000000000000e+00 1851878480
13.620318 -5.675236 -2.243001 0.000000000000000e+00 1851878480
13.636404 -7.061179 -2.246939 0.000000000000000e+00 1851878480
13.575346 -7.758162 -2.230144 0.000000000000000e+00 1851878480
12.962327 -4.775110 -2.247510 0.000000000000000e+00 1851878480
12.865508 -5.358804 -2.241456 0.000000000000000e+00 1851878480
12.814433 -6.637641 -2.242183 0.000000000000000e+00 1851878480
12.741037 -7.285749 -2.227735 0.000000000000000e+00 1851878480
12.267626 -4.515678 -2.240816 0.000000000000000e+00 1851878480
12.144947 -5.056867 -2.232108 0.000000000000000e+00 1851878480
12.109691 -6.274586 -2.242731 0.000000000000000e+00 1851878480
12.108310 -6.928124 -2.245461 0.000000000000000e+00 1851878480
11.673983 -4.293811 -2.240922 0.000000000000000e+00 1851878480
11.572891 -4.816941 -2.237994 0.000000000000000e+00 1851878480
11.518788 -5.970307 -2.251469 0.000000000000000e+00 1851878480
11.453033 -6.557152 -2.245742 0.000000000000000e+00 1851878480
11.135782 -4.092650 -2.241440 0.000000000000000e+00 1851878480
11.055576 -4.599958 -2.244328 0.000000000000000e+00 1851878480
10.892023 -5.647241 -2.241066 0.000000000000000e+00 1851878480
10.841430 -6.210767 -2.241504 0.000000000000000e+00 1851878480
10.633133 -3.904849 -2.239703 0.000000000000000e+00 1851878480
10.548679 -4.387463 -2.243237 0.000000000000000e+00 1851878480
10.386384 -5.386800 -2.244292 0.000000000000000e+00 1851878480
10.314716 -5.912631 -2.243063 0.000000000000000e+00 1851878480
10.171139 -3.732251 -2.237810 0.000000000000000e+00 1851878480
10.113111 -4.204770 -2.248539 0.000000000000000e+00 1851878480
9.921996 -5.147606 -2.246782 0.000000000000000e+00 1851878480
9.788425 -5.614385 -2.233830 0.000000000000000e+00 1851878480
9.820887 -3.600880 -2.253182 0.000000000000000e+00 1851878480
9.679204 -4.022899 -2.246108 0.000000000000000e+00 1851878480
9.558850 -4.960798 -2.263985 0.000000000000000e+00 1851878480
9.366319 -5.375577 -2.238569 0.000000000000000e+00 1851878480
9.424359 -3.452751 -2.251213 0.000000000000000e+00 1851878480
9.292171 -3.860626 -2.246901 0.000000000000000e+00 1851878480
9.069613 -4.708417 -2.242824 0.000000000000000e+00 1851878480
8.963962 -5.147829 -2.239524 0.000000000000000e+00 1851878480
9.057670 -3.315765 -2.249470 0.000000000000000e+00 1851878480
8.954990 -3.719170 -2.253011 0.000000000000000e+00 1851878480
8.729807 -4.533478 -2.250326 0.000000000000000e+00 1851878480
8.647593 -4.969216 -2.254570 0.000000000000000e+00 1851878480
8.681568 -3.175549 -2.238658 0.000000000000000e+00 1851878480
8.581907 -3.562909 -2.243464 0.000000000000000e+00 1851878480
8.402966 -4.365168 -2.254551 0.000000000000000e+00 1851878480
8.269158 -4.754711 -2.246273 0.000000000000000e+00 1851878480
8.405541 -3.072117 -2.247759 0.000000000000000e+00 1851878480
8.291450 -3.441047 -2.249327 0.000000000000000e+00 1851878480
8.079828 -4.198680 -2.253299 0.000000000000000e+00 1851878480
7.982074 -4.592510 -2.255915 0.000000000000000e+00 1851878480
8.091291 -2.954877 -2.241316 0.000000000000000e+00 1851878480
7.945833 -3.296389 -2.234282 0.000000000000000e+00 1851878480
7.773630 -4.040887 -2.250490 0.000000000000000e+00 1851878480
4.366906 -2.514088 -1.282355 1.880790849211783e-38 1684957512
7.784864 -2.840665 -2.231400 0.000000000000000e+00 1851878480
7.686267 -3.187515 -2.237768 0.000000000000000e+00 1851878480
4.299763 -2.235842 -1.290688 1.880790849211783e-38 1684957512
4.244486 -2.445149 -1.293453 1.880790849211783e-38 1684957512
4.344549 -1.584019 -1.287310 1.880790849211783e-38 1684957512
4.290397 -1.778571 -1.291979 1.880790849211783e-38 1684957512
4.166127 -2.167070 -1.295256 1.880790849211783e-38 1684957512
4.021228 -2.318006 -1.270216 1.880790849211783e-38 1684957512
4.200408 -1.530212 -1.285409 1.880790849211783e-38 1684957512
4.125783 -1.709687 -1.283835 1.880790849211783e-38 1684957512
3.981716 -2.071836 -1.280843 1.880790849211783e-38 1684957512
3.918179 -2.260040 -1.281545 1.880790849211783e-38 1684957512
4.094489 -1.490403 -1.292963 1.880790849211783e-38 1684957512
4.036417 -1.672021 -1.296754 1.880790849211783e-38 1684957512
3.874505 -2.016725 -1.288339 1.880790849211783e-38 1684957512
3.815413 -2.202172 -1.290894 1.880790849211783e-38 1684957512
3.989472 -1.450975 -1.298928 1.880790849211783e-38 1684957512
3.867301 -1.601356 -1.281638 1.880790849211783e-38 1684957512
3.740289 -1.947519 -1.284457 1.880790849211783e-38 1684957512
3.690736 -2.131584 -1.290502 1.880790849211783e-38 1684957512
3.990456 -1.450127 -1.338583 1.880790849211783e-38 1684957512
3.746084 -1.550570 -1.279648 1.880790849211783e-38 1684957512
3.647995 -1.900108 -1.292724 1.880790849211783e-38 1684957512
3.553717 -2.053776 -1.283063 1.880790849211783e-38 1684957512
3.961282 -1.438323 -1.368043 1.880790849211783e-38 1684957512
3.681512 -1.523255 -1.295314 1.880790849211783e-38 1684957512
3.486352 -1.816532 -1.273854 1.880790849211783e-38 1684957512
3.447619 -1.993757 -1.284253 1.880790849211783e-38 1684957512
3.981612 -1.444492 -1.414724 1.880790849211783e-38 1684957512
3.609402 -1.492842 -1.307131 1.880790849211783e-38 1684957512
3.446043 -1.796144 -1.297315 1.880790849211783e-38 1684957512
3.326293 -1.924854 -1.277400 1.880790849211783e-38 1684957512
3.970490 -1.439240 -1.450537 1.880790849211783e-38 1684957512
3.533728 -1.460972 -1.316340 1.880790849211783e-38 1684957512
3.327199 -1.734798 -1.289673 1.880790849211783e-38 1684957512
3.230177 -1.870465 -1.277957 1.880790849211783e-38 1684957512
4.011503 -1.452870 -1.505921 1.880790849211783e-38 1684957512
3.494289 -1.444102 -1.338066 1.880790849211783e-38 1684957512
3.247816 -1.693995 -1.295341 1.880790849211783e-38 1684957512
3.127562 -1.812244 -1.273872 1.880790849211783e-38 1684957512
3.968856 -1.436196 -1.530116 1.880790849211783e-38 1684957512
3.512255 -1.450956 -1.381768 1.880790849211783e-38 1684957512
3.126888 -1.631489 -1.282417 1.880790849211783e-38 1684957512
3.071782 -1.781111 -1.287255 1.880790849211783e-38 1684957512
3.981704 -1.439605 -1.575644 1.880790849211783e-38 1684957512
3.516102 -1.451968 -1.420372 1.880790849211783e-38 1684957512
3.058016 -1.596115 -1.288929 1.880790849211783e-38 1684957512
2.973320 -1.725177 -1.281177 1.880790849211783e-38 1684957512
4.013744 -1.449932 -1.629475 1.880790849211783e-38 1684957512
3.531633 -1.457799 -1.464136 1.880790849211783e-38 1684957512
2.979964 -1.555926 -1.290130 1.880790849211783e-38 1684957512
2.867824 -1.665092 -1.269895 1.880790849211783e-38 1684957512
3.983168 -1.437633 -1.658159 1.880790849211783e-38 1684957512
3.537830 -1.459772 -1.504506 1.880790849211783e-38 1684957512
2.915513 -1.522816 -1.295823 1.880790849211783e-38 1684957512
2.798196 -1.625772 -1.272651 1.880790849211783e-38 1684957512
4.072305 -1.468514 -1.737553 1.880790849211783e-38 1684957512
3.555491 -1.466465 -1.550259 1.880790849211783e-38 1684957512
2.856096 -1.492316 -1.302560 1.880790849211783e-38 1684957512
2.754798 -1.601655 -1.286223 1.880790849211783e-38 1684957512
3.996725 -1.439984 -1.747083 1.880790849211783e-38 1684957512
3.504655 -1.444909 -1.566047 1.880790849211783e-38 1684957512
2.777238 -1.451637 -1.299063 1.880790849211783e-38 1684957512
2.718421 -1.581595 -1.302359 1.880790849211783e-38 1684957512
3.982438 -1.433560 -1.782749 1.880790849211783e-38 1684957512
3.525086 -1.452735 -1.613619 1.880790849211783e-38 1684957512
2.805992 -1.467197 -1.345561 1.880790849211783e-38 1684957512
2.623409 -1.527380 -1.289053 1.880790849211783e-38 1684957512
4.034836 -1.451120 -1.848965 1.880790849211783e-38 1684957512
3.540231 -1.458375 -1.659437 1.880790849211783e-38 1684957512
2.767489 -1.447596 -1.359945 1.880790849211783e-38 1684957512
2.537925 -1.478646 -1.278460 1.880790849211783e-38 1684957512
4.018989 -1.444111 -1.884599 1.880790849211783e-38 1684957512
3.521530 -1.450067 -1.689638 1.880790849211783e-38 1684957512
2.844229 -1.488285 -1.431679 1.880790849211783e-38 1684957512
2.459822 -1.434154 -1.269812 1.880790849211783e-38 1684957512
4.007813 -1.438784 -1.922449 1.880790849211783e-38 1684957512
3.504954 -1.442635 -1.720759 1.880790849211783e-38 1684957512
2.727202 -1.427581 -1.405659 1.880790849211783e-38 1684957512
2.480163 -1.447044 -1.311519 1.880790849211783e-38 1684957512
4.027908 -1.444670 -1.975718 1.880790849211783e-38 1684957512
3.531987 -1.453147 -1.773712 1.880790849211783e-38 1684957512
2.820830 -1.477145 -1.488215 1.880790849211783e-38 1684957512
2.506563 -1.463498 -1.357289 1.880790849211783e-38 1684957512
4.025501 -1.442472 -2.018476 1.880790849211783e-38 1684957512
3.529755 -1.451609 -1.812560 1.880790849211783e-38 1684957512
2.763580 -1.447711 -1.491896 1.880790849211783e-38 1684957512
2.457885 -1.436116 -1.362396 1.880790849211783e-38 1684957512
4.001079 -1.432381 -2.050246 1.880790849211783e-38 1684957512
3.514604 -1.444756 -1.844900 1.880790849211783e-38 1684957512
2.767653 -1.450398 -1.528324 1.880790849211783e-38 1684957512
2.447478 -1.431080 -1.388241 1.880790849211783e-38 1684957512
4.032069 -1.442118 -2.110838 1.880790849211783e-38 1684957512
3.534530 -1.452317 -1.896041 1.880790849211783e-38 1684957512
2.809410 -1.472848 -1.586436 1.880790849211783e-38 1684957512
2.492960 -1.458750 -1.446535 1.880790849211783e-38 1684957512
4.024797 -1.438148 -2.152029 1.880790849211783e-38 1684957512
3.552461 -1.459046 -1.946893 1.880790849211783e-38 1684957512
2.757443 -1.446164 -1.591806 1.880790849211783e-38 1684957512
2.484883 -1.455104 -1.474542 1.880790849211783e-38 1684957512
4.038167 -1.441544 -2.204705 1.880790849211783e-38 1684957512
3.505627 -1.439176 -1.962269 1.880790849211783e-38 1684957512
2.781571 -1.459391 -1.641078 1.880790849211783e-38 1684957512
2.469828 -1.447376 -1.498417 1.880790849211783e-38 1684957512
4.028986 -1.436876 -2.245504 0.000000000000000e+00 1851878480
3.544147 -1.454342 -2.025690 1.880790849211783e-38 1684957512
2.791862 -1.465369 -1.682958 1.880790849211783e-38 1684957512
2.500296 -1.466341 -1.550439 1.880790849211783e-38 1684957512
4.032938 -1.436882 -2.293964 0.000000000000000e+00 1634890835
3.543074 -1.453247 -2.067301 1.880790849211783e-38 1684957512
2.780824 -1.460158 -1.712316 1.880790849211783e-38 1684957512
2.482075 -1.456768 -1.572766 1.880790849211783e-38 1684957512
3.946374 -1.404655 -2.290399 0.000000000000000e+00 1634890835
3.498363 -1.434258 -2.083291 1.880790849211783e-38 1684957512
2.811022 -1.476607 -1.767671 1.880790849211783e-38 1684957512
2.463323 -1.446879 -1.594596 1.880790849211783e-38 1684957512
3.822029 -1.359043 -2.262866 0.000000000000000e+00 1634890835
3.526930 -1.445307 -2.143122 1.880790849211783e-38 1684957512
2.753331 -1.446891 -1.767761 1.880790849211783e-38 1684957512
2.424551 -1.425217 -1.603025 1.880790849211783e-38 1684957512
3.801775 -1.350484 -2.295688 0.000000000000000e+00 1634890835
3.540304 -1.450118 -2.194643 1.880790849211783e-38 1684957512
2.769823 -1.456157 -1.815312 1.880790849211783e-38 1684957512
2.485284 -1.462070 -1.677914 1.880790849211783e-38 1684957512
3.728789 -1.323213 -2.295987 0.000000000000000e+00 1634890835
3.530874 -1.445580 -2.232502 1.880790849211783e-38 1684957512
2.731529 -1.436621 -1.827047 1.880790849211783e-38 1684957512
2.480309 -1.460307 -1.709595 1.880790849211783e-38 1684957512
3.626219 -1.285496 -2.276401 0.000000000000000e+00 1634890835
3.419575 -1.399350 -2.204881 0.000000000000000e+00 1851878480
2.783630 -1.464637 -1.899834 1.880790849211783e-38 1684957512
2.459651 -1.449309 -1.730489 1.880790849211783e-38 1684957512
3.606802 -1.277288 -2.307978 0.000000000000000e+00 1634890835
3.501268 -1.432098 -2.301773 0.000000000000000e+00 1634890835
2.762409 -1.454087 -1.923408 1.880790849211783e-38 1684957512
2.484666 -1.465241 -1.783980 1.880790849211783e-38 1684957512
3.508271 -1.241093 -2.287928 0.000000000000000e+00 1634890835
3.416726 -1.396843 -2.289794 0.000000000000000e+00 1634890835
2.765969 -1.456584 -1.964417 1.880790849211783e-38 1684957512
2.444103 -1.442506 -1.790568 1.880790849211783e-38 1684957512
3.462502 -1.223607 -2.300957 0.000000000000000e+00 1634890835
3.350970 -1.369293 -2.288941 0.000000000000000e+00 1634890835
2.714581 -1.430142 -1.966164 1.880790849211783e-38 1684957512
2.460747 -1.453538 -1.839140 1.880790849211783e-38 1684957512
3.399252 -1.199970 -2.301461 0.000000000000000e+00 1634890835
3.328974 -1.359635 -2.317312 0.000000000000000e+00 1634890835
2.774476 -1.462338 -2.049085 1.880790849211783e-38 1684957512
2.453672 -1.450579 -1.870561 1.880790849211783e-38 1684957512
3.337261 -1.176809 -2.301697 0.000000000000000e+00 1634890835
3.238730 -1.322117 -2.297180 0.000000000000000e+00 1634890835
2.771452 -1.461391 -2.086814 1.880790849211783e-38 1684957512
2.445708 -1.447101 -1.901526 1.880790849211783e-38 1684957512
3.241779 -1.141888 -2.277291 0.000000000000000e+00 1634890835
3.166795 -1.292101 -2.288366 0.000000000000000e+00 1634890835
2.754262 -1.452979 -2.114063 1.880790849211783e-38 1684957512
2.396837 -1.419407 -1.900278 1.880790849211783e-38 1684957512
3.206947 -1.128367 -2.294281 0.000000000000000e+00 1634890835
3.161035 -1.289092 -2.326818 0.000000000000000e+00 1634890835
2.737498 -1.444789 -2.141632 1.880790849211783e-38 1684957512
2.429868 -1.440225 -1.964194 1.880790849211783e-38 1684957512
3.157386 -1.109682 -2.300104 0.000000000000000e+00 1634890835
3.065511 -1.249493 -2.298312 0.000000000000000e+00 1634890835
2.772806 -1.464098 -2.210723 1.880790849211783e-38 1684957512
2.416028 -1.433285 -1.991004 1.880790849211783e-38 1684957512
3.065041 -1.076004 -2.273368 0.000000000000000e+00 1634890835
2.997727 -1.221224 -2.288864 0.000000000000000e+00 1634890835
2.753132 -1.454384 -2.236737 1.880790849211783e-38 1684957512
0.850407 -0.504947 -0.714356 0.000000000000000e+00 1886740808
3.050583 -1.069697 -2.303465 0.000000000000000e+00 1634890835
2.950442 -1.201325 -2.293974 0.000000000000000e+00 1634890835
2.707342 -1.430869 -2.241073 0.000000000000000e+00 1851878480
0.843177 -0.501107 -0.721899 0.000000000000000e+00 1886740808
2.981316 -1.044192 -2.291533 0.000000000000000e+00 1634890835
2.876494 -1.170590 -2.277157 0.000000000000000e+00 1634890835
0.881154 -0.465925 -0.743095 0.000000000000000e+00 1886740808
0.814260 -0.484366 -0.710472 0.000000000000000e+00 1886740808
2.935221 -1.026835 -2.296334 0.000000000000000e+00 1634890835
2.874084 -1.168972 -2.316401 0.000000000000000e+00 1634890835
0.844571 -0.446796 -0.725550 0.000000000000000e+00 1886740808
0.796441 -0.474207 -0.708143 0.000000000000000e+00 1886740808
2.888740 -1.009366 -2.300056 0.000000000000000e+00 1634890835
2.824613 -1.148220 -2.317493 0.000000000000000e+00 1634890835
0.828740 -0.438636 -0.725184 0.000000000000000e+00 1886740808
0.829922 -0.494607 -0.751883 0.000000000000000e+00 1886740808
2.848728 -0.994180 -2.308229 0.000000000000000e+00 1634890835
2.771040 -1.125815 -2.314251 0.000000000000000e+00 1634890835
0.844510 -0.447205 -0.752658 0.000000000000000e+00 1886740808
0.781797 -0.466372 -0.721635 0.000000000000000e+00 1886740808
2.801868 -0.976624 -2.310142 0.000000000000000e+00 1634890835
0.881707 -0.358017 -0.749489 0.000000000000000e+00 1886740808
0.797795 -0.422680 -0.724126 0.000000000000000e+00 1886740808
0.760275 -0.453973 -0.714945 0.000000000000000e+00 1886740808
0.859456 -0.299200 -0.721015 0.000000000000000e+00 1886740808
0.825986 -0.335199 -0.714587 0.000000000000000e+00 1886740808
0.799796 -0.423956 -0.739267 0.000000000000000e+00 1886740808
0.760372 -0.454477 -0.728411 0.000000000000000e+00 1886740808
0.820622 -0.285321 -0.700429 0.000000000000000e+00 1886740808
0.815151 -0.330609 -0.717682 0.000000000000000e+00 1886740808
0.761357 -0.403789 -0.716608 0.000000000000000e+00 1886740808
0.775209 -0.463807 -0.756468 0.000000000000000e+00 1886740808
0.793199 -0.275433 -0.688771 0.000000000000000e+00 1886740808
0.817742 -0.331464 -0.732646 0.000000000000000e+00 1886740808
0.790973 -0.419717 -0.758057 0.000000000000000e+00 1886740808
0.806351 -0.482927 -0.801482 0.000000000000000e+00 1886740808
0.794518 -0.275531 -0.701847 0.000000000000000e+00 1886740808
0.797497 -0.323066 -0.727056 0.000000000000000e+00 1886740808
0.789397 -0.419103 -0.770299 0.000000000000000e+00 1886740808
0.770630 -0.462008 -0.780174 0.000000000000000e+00 1886740808
0.800706 -0.277311 -0.719507 0.000000000000000e+00 1886740808
0.754830 -0.305596 -0.700205 0.000000000000000e+00 1886740808
0.762993 -0.405305 -0.758033 0.000000000000000e+00 1886740808
0.753121 -0.451982 -0.776548 0.000000000000000e+00 1886740808
0.770886 -0.266626 -0.704618 0.000000000000000e+00 1886740808
0.801616 -0.324337 -0.756590 0.000000000000000e+00 1886740808
0.766134 -0.407197 -0.774923 0.000000000000000e+00 1886740808
0.755673 -0.453994 -0.793558 0.000000000000000e+00 1886740808
0.785701 -0.271380 -0.730473 0.000000000000000e+00 1886740808
0.742269 -0.300137 -0.712779 0.000000000000000e+00 1886740808
0.746035 -0.396735 -0.768218 0.000000000000000e+00 1886740808
0.777634 -0.467690 -0.831665 0.000000000000000e+00 1886740808
0.738977 -0.254889 -0.698786 0.000000000000000e+00 1886740808
0.781744 -0.315898 -0.763735 0.000000000000000e+00 1886740808
0.780105 -0.415089 -0.817781 0.000000000000000e+00 1886740808
2.102931 -1.266144 -2.290423 0.000000000000000e+00 1634890835
0.737729 -0.254100 -0.709516 0.000000000000000e+00 1886740808
0.777198 -0.313858 -0.772470 0.000000000000000e+00 1886740808
0.811169 -0.431867 -0.865653 0.000000000000000e+00 1886740808
2.080005 -1.253732 -2.307090 0.000000000000000e+00 1634890835
0.783895 -0.269616 -0.766767 0.000000000000000e+00 1886740808
0.754227 -0.304381 -0.762628 0.000000000000000e+00 1886740808
2.127879 -1.133546 -2.311644 0.000000000000000e+00 1634890835
2.043741 -1.233267 -2.308501 0.000000000000000e+00 1634890835
0.744924 -0.255840 -0.741050 0.000000000000000e+00 1886740808
0.758678 -0.305973 -0.780406 0.000000000000000e+00 1886740808
2.070395 -1.103581 -2.289620 0.000000000000000e+00 1634890835
0.810798 -0.489826 -0.932647 0.000000000000000e+00 1886740808
0.746422 -0.255976 -0.755165 0.000000000000000e+00 1886740808
0.813792 -0.327978 -0.851573 0.000000000000000e+00 1886740808
2.050209 -1.093483 -2.308033 0.000000000000000e+00 1634890835
0.820935 -0.496532 -0.961644 0.000000000000000e+00 1886740808
0.727939 -0.249262 -0.748978 0.000000000000000e+00 1886740808
0.754322 -0.303800 -0.802985 0.000000000000000e+00 1886740808
2.042830 -1.090219 -2.341042 0.000000000000000e+00 1634890835
0.817344 -0.494948 -0.975019 0.000000000000000e+00 1886740808
0.772258 -0.264033 -0.808070 0.000000000000000e+00 1886740808
2.109370 -0.848943 -2.284247 0.000000000000000e+00 1634890835
0.818934 -0.437324 -0.955348 0.000000000000000e+00 1886740808
0.795895 -0.482543 -0.966876 0.000000000000000e+00 1886740808
0.738841 -0.252215 -0.786228 0.000000000000000e+00 1886740808
2.076469 -0.835105 -2.287473 0.000000000000000e+00 1634890835
0.856408 -0.457628 -1.017029 0.000000000000000e+00 1886740808
0.749897 -0.455216 -0.927751 0.000000000000000e+00 1886740808
0.746278 -0.254349 -0.807624 0.000000000000000e+00 1886740808
2.048817 -0.823383 -2.296022 0.000000000000000e+00 1634890835
0.805469 -0.430688 -0.973753 0.000000000000000e+00 1886740808
1.807654 -1.098695 -2.277558 0.000000000000000e+00 1634890835
2.061436 -0.701451 -2.268782 0.000000000000000e+00 1634890835
2.023800 -0.812726 -2.307212 0.000000000000000e+00 1634890835
0.768606 -0.411250 -0.945933 0.000000000000000e+00 1886740808
1.794757 -1.092253 -2.303013 0.000000000000000e+00 1634890835
2.046242 -0.695135 -2.290334 0.000000000000000e+00 1634890835
1.986573 -0.797173 -2.303978 0.000000000000000e+00 1634890835
0.806881 -0.432020 -1.010962 0.000000000000000e+00 1886740808
0.776258 -0.473031 -1.014491 0.000000000000000e+00 1886740808
2.044477 -0.693369 -2.327287 0.000000000000000e+00 1634890835
1.915933 -0.768234 -2.260568 0.000000000000000e+00 1634890835
0.794121 -0.425481 -1.012966 0.000000000000000e+00 1886740808
1.723874 -1.051883 -2.294656 0.000000000000000e+00 1634890835
2.005330 -0.678928 -2.321605 0.000000000000000e+00 1634890835
0.811184 -0.325007 -0.973714 0.000000000000000e+00 1886740808
1.798244 -0.964156 -2.335378 0.000000000000000e+00 1634890835
1.682775 -1.028199 -2.281539 0.000000000000000e+00 1634890835
1.905480 -0.643996 -2.243638 0.000000000000000e+00 1634890835
0.804337 -0.322005 -0.982286 0.000000000000000e+00 1886740808
0.770735 -0.413537 -1.019138 0.000000000000000e+00 1886740808
1.657496 -1.014157 -2.289113 0.000000000000000e+00 1634890835
1.927543 -0.650293 -2.308404 0.000000000000000e+00 1634890835
0.831035 -0.332421 -1.032579 0.000000000000000e+00 1886740808
1.702608 -0.914198 -2.292366 0.000000000000000e+00 1634890835
1.662636 -1.018740 -2.339109 0.000000000000000e+00 1634890835
0.824712 -0.277726 -1.004581 0.000000000000000e+00 1886740808
0.793085 -0.316975 -1.002641 0.000000000000000e+00 1886740808
1.675796 -0.900474 -2.297507 0.000000000000000e+00 1634890835
1.631557 -1.001141 -2.338423 0.000000000000000e+00 1634890835
0.802410 -0.269714 -0.994194 0.000000000000000e+00 1886740808
0.772865 -0.308631 -0.994197 0.000000000000000e+00 1886740808
1.649539 -0.887040 -2.302989 0.000000000000000e+00 1634890835
1.572531 -0.966346 -2.296247 0.000000000000000e+00 1634890835
0.784582 -0.263220 -0.988839 0.000000000000000e+00 1886740808
0.759800 -0.303150 -0.994567 0.000000000000000e+00 1886740808
1.619256 -0.871433 -2.302335 0.000000000000000e+00 1634890835
1.561509 -0.961018 -2.323254 0.000000000000000e+00 1634890835
0.788172 -0.263912 -1.010516 0.000000000000000e+00 1886740808
1.701518 -0.678280 -2.266533 0.000000000000000e+00 1634890835
1.601971 -0.862815 -2.319870 0.000000000000000e+00 1634890835
1.521415 -0.937786 -2.306589 0.000000000000000e+00 1634890835
0.778093 -0.260021 -1.014874 0.000000000000000e+00 1886740808
1.676322 -0.667629 -2.272487 0.000000000000000e+00 1634890835
1.535333 -0.827597 -2.264660 0.000000000000000e+00 1634890835
1.487979 -0.918622 -2.298951 0.000000000000000e+00 1634890835
0.732068 -0.244143 -0.971445 0.000000000000000e+00 1886740808
0.730862 -0.290810 -1.008389 0.000000000000000e+00 1886740808
1.578508 -0.851577 -2.371796 0.000000000000000e+00 1634890835
1.467980 -0.907735 -2.311568 0.000000000000000e+00 1634890835
1.719625 -0.572301 -2.321751 0.000000000000000e+00 1634890835
1.643123 -0.653177 -2.307514 0.000000000000000e+00 1634890835
1.542127 -0.832657 -2.360598 0.000000000000000e+00 1634890835
1.422421 -0.881015 -2.283049 0.000000000000000e+00 1634890835
0.766816 -0.254659 -1.053464 0.000000000000000e+00 1886740808
1.595755 -0.633730 -2.281168 0.000000000000000e+00 1634890835
1.483832 -0.801882 -2.314209 0.000000000000000e+00 1634890835
1.419969 -0.880983 -2.323357 0.000000000000000e+00 1634890835
1.607063 -0.532542 -2.246686 0.000000000000000e+00 1634890835
1.592961 -0.631990 -2.318199 0.000000000000000e+00 1634890835
1.467960 -0.794010 -2.332892 0.000000000000000e+00 1634890835
1.336564 -0.830671 -2.229615 0.000000000000000e+00 1634890835
1.610582 -0.532519 -2.291446 0.000000000000000e+00 1634890835
1.553072 -0.615536 -2.301085 0.000000000000000e+00 1634890835
1.413198 -0.765088 -2.288741 0.000000000000000e+00 1634890835
1.348560 -0.839613 -2.293878 0.000000000000000e+00 1634890835
1.595318 -0.526267 -2.310100 0.000000000000000e+00 1634890835
1.528269 -0.605073 -2.305578 0.000000000000000e+00 1634890835
1.419887 -0.769429 -2.343767 0.000000000000000e+00 1634890835
1.339662 -0.835589 -2.323887 0.000000000000000e+00 1634890835
1.569245 -0.516451 -2.312983 0.000000000000000e+00 1634890835
1.501964 -0.594020 -2.307408 0.000000000000000e+00 1634890835
1.373623 -0.745074 -2.311278 0.000000000000000e+00 1634890835
1.282736 -0.801575 -2.269553 0.000000000000000e+00 1634890835
1.525071 -0.500706 -2.288307 0.000000000000000e+00 1634890835
1.473988 -0.582314 -2.306177 0.000000000000000e+00 1634890835
1.363660 -0.740398 -2.339243 0.000000000000000e+00 1634890835
1.269543 -0.794849 -2.291403 0.000000000000000e+00 1634890835
1.508722 -0.494114 -2.304747 0.000000000000000e+00 1634890835
1.448427 -0.571570 -2.308242 0.000000000000000e+00 1634890835
1.349827 -0.733628 -2.360998 0.000000000000000e+00 1634890835
1.248042 -0.782924 -2.298293 0.000000000000000e+00 1634890835
1.466713 -0.479138 -2.281391 0.000000000000000e+00 1634890835
1.442470 -0.568560 -2.341709 0.000000000000000e+00 1634890835
1.292892 -0.703414 -2.306195 0.000000000000000e+00 1634890835
1.237320 -0.777766 -2.325181 0.000000000000000e+00 1634890835
1.442760 -0.470084 -2.285292 0.000000000000000e+00 1634890835
1.375547 -0.541537 -2.275105 0.000000000000000e+00 1634890835
1.267987 -0.690599 -2.306939 0.000000000000000e+00 1634890835
1.196358 -0.753577 -2.294632 0.000000000000000e+00 1634890835
1.412346 -0.458941 -2.278443 0.000000000000000e+00 1634890835
1.400464 -0.550671 -2.360258 0.000000000000000e+00 1634890835
1.267150 -0.690899 -2.351867 0.000000000000000e+00 1634890835
1.154261 -0.728612 -2.260047 0.000000000000000e+00 1634890835
1.407585 -0.456134 -2.313024 0.000000000000000e+00 1634890835
1.344912 -0.528162 -2.309977 0.000000000000000e+00 1634890835
1.219244 -0.665530 -2.308968 0.000000000000000e+00 1634890835
1.150219 -0.727656 -2.299559 0.000000000000000e+00 1634890835
1.366290 -0.441495 -2.287281 0.000000000000000e+00 1634890835
1.307395 -0.512764 -2.288842 0.000000000000000e+00 1634890835
1.202904 -0.657372 -2.324797 0.000000000000000e+00 1634890835
1.111969 -0.705049 -2.270389 0.000000000000000e+00 1634890835
1.320910 -0.425582 -2.253131 0.000000000000000e+00 1634890835
1.267547 -0.496473 -2.262250 0.000000000000000e+00 1634890835
1.180977 -0.646162 -2.329757 0.000000000000000e+00 1634890835
1.098485 -0.698120 -2.291099 0.000000000000000e+00 1634890835
1.317625 -0.423245 -2.290401 0.000000000000000e+00 1634890835
1.269519 -0.496562 -2.310251 0.000000000000000e+00 1634890835
1.150124 -0.630055 -2.316442 0.000000000000000e+00 1634890835
1.083462 -0.690227 -2.308922 0.000000000000000e+00 1634890835
1.287054 -0.412141 -2.280318 0.000000000000000e+00 1634890835
1.235784 -0.482683 -2.293434 0.000000000000000e+00 1634890835
1.126608 -0.617956 -2.317156 0.000000000000000e+00 1634890835
1.073749 -0.685733 -2.338584 0.000000000000000e+00 1634890835
1.282915 -0.409498 -2.317139 0.000000000000000e+00 1634890835
1.216510 -0.474461 -2.302856 0.000000000000000e+00 1634890835
1.103299 -0.605963 -2.317844 0.000000000000000e+00 1634890835
1.026964 -0.657530 -2.286518 0.000000000000000e+00 1634890835
1.234483 -0.392736 -2.273398 0.000000000000000e+00 1634890835
1.182085 -0.460341 -2.282948 0.000000000000000e+00 1634890835
1.070108 -0.588529 -2.296863 0.000000000000000e+00 1634890835
1.027307 -0.659486 -2.338893 0.000000000000000e+00 1634890835
1.201163 -0.380828 -2.255864 0.000000000000000e+00 1634890835
1.164202 -0.452672 -2.294375 0.000000000000000e+00 1634890835
1.090604 -0.600639 -2.392240 0.000000000000000e+00 1634890835
0.972234 -0.625834 -2.264112 0.000000000000000e+00 1634890835
1.188393 -0.375446 -2.276568 0.000000000000000e+00 1634890835
1.157203 -0.449227 -2.327727 0.000000000000000e+00 1634890835
1.058231 -0.583650 -2.372836 0.000000000000000e+00 1634890835
0.980640 -0.633027 -2.336619 0.000000000000000e+00 1634890835
1.166333 -0.367129 -2.279533 0.000000000000000e+00 1634890835
1.119641 -0.433923 -2.299271 0.000000000000000e+00 1634890835
1.011466 -0.558691 -2.319074 0.000000000000000e+00 1634890835
0.943158 -0.610608 -2.300142 0.000000000000000e+00 1634890835
1.169394 -0.366697 -2.332302 0.000000000000000e+00 1634890835
1.098313 -0.424924 -2.303209 0.000000000000000e+00 1634890835
0.982183 -0.543354 -2.303368 0.000000000000000e+00 1634890835
0.936324 -0.608016 -2.337954 0.000000000000000e+00 1634890835
1.114484 -0.348106 -2.268823 0.000000000000000e+00 1634890835
1.079191 -0.416782 -2.311611 0.000000000000000e+00 1634890835
0.964951 -0.534676 -2.315383 0.000000000000000e+00 1634890835
0.898345 -0.585184 -2.297466 0.000000000000000e+00 1634890835
1.097083 -0.341275 -2.280222 0.000000000000000e+00 1634890835
1.062347 -0.409519 -2.324935 0.000000000000000e+00 1634890835
0.946289 -0.525205 -2.323992 0.000000000000000e+00 1634890835
0.872043 -0.569897 -2.285094 0.000000000000000e+00 1634890835
1.107635 -0.343101 -2.351029 0.000000000000000e+00 1634890835
1.057396 -0.406828 -2.365015 0.000000000000000e+00 1634890835
0.917126 -0.509897 -2.306146 0.000000000000000e+00 1634890835
0.868387 -0.569424 -2.332453 0.000000000000000e+00 1634890835
1.059780 -0.326835 -2.297838 0.000000000000000e+00 1634890835
1.012770 -0.388884 -2.315740 0.000000000000000e+00 1634890835
0.907166 -0.505260 -2.336431 0.000000000000000e+00 1634890835
0.819145 -0.539021 -2.256194 0.000000000000000e+00 1634890835
1.030160 -0.316249 -2.282311 0.000000000000000e+00 1634890835
1.001097 -0.383606 -2.340857 0.000000000000000e+00 1634890835
0.862513 -0.481283 -2.276203 0.000000000000000e+00 1634890835
0.441682 -0.291700 -1.248055 0.000000000000000e+00 1936876886
1.012504 -0.309350 -2.292788 0.000000000000000e+00 1634890835
0.982448 -0.375651 -2.350025 0.000000000000000e+00 1634890835
0.862592 -0.482259 -2.333513 0.000000000000000e+00 1634890835
0.433883 -0.287639 -1.258369 0.000000000000000e+00 1936876886
0.999878 -0.303979 -2.314986 0.000000000000000e+00 1634890835
0.958253 -0.365580 -2.345626 0.000000000000000e+00 1634890835
0.833406 -0.466879 -2.312114 0.000000000000000e+00 1634890835
0.428984 -0.285517 -1.277621 0.000000000000000e+00 1936876886
0.999398 -0.302263 -2.366563 0.000000000000000e+00 1634890835
0.934334 -0.355622 -2.341292 0.000000000000000e+00 1634890835
0.440591 -0.247340 -1.254114 0.000000000000000e+00 1936876886
0.345445 -0.230866 -1.057044 0.000000000000000e+00 1953264973
0.940703 -0.282976 -2.279089 0.000000000000000e+00 1634890835
0.909769 -0.345429 -2.334679 0.000000000000000e+00 1634890835
0.443435 -0.249482 -1.295657 0.000000000000000e+00 1936876886
0.304414 -0.204322 -0.957570 0.000000000000000e+00 1953264973
0.490040 -0.146579 -1.215146 0.000000000000000e+00 1936876886
0.880315 -0.333397 -2.314478 0.000000000000000e+00 1634890835
0.371788 -0.209651 -1.115673 0.000000000000000e+00 1953264973
0.288680 -0.194636 -0.934049 0.000000000000000e+00 1953264973
0.486601 -0.144690 -1.235448 0.000000000000000e+00 1936876886
0.876604 -0.331108 -2.362235 0.000000000000000e+00 1634890835
0.335990 -0.189918 -1.036058 0.000000000000000e+00 1953264973
0.259053 -0.175486 -0.862694 0.000000000000000e+00 1953264973
0.483515 -0.142884 -1.257455 0.000000000000000e+00 1936876886
0.823819 -0.310305 -2.276417 0.000000000000000e+00 1634890835
0.313072 -0.177407 -0.992587 0.000000000000000e+00 1953264973
0.238214 -0.162168 -0.817027 0.000000000000000e+00 1953264973
