# .PCD v0.7 - Point Cloud Data file format
VERSION 0.7
FIELDS x y z rgb label
SIZE 4 4 4 4 4
TYPE F F F F U
COUNT 1 1 1 1 1
WIDTH 542
HEIGHT 1
VIEWPOINT 0 0 0 1 0 0 0
POINTS 542
DATA ascii
43.736958 -18.496361 10.165233 0.000000000000000e+00 1954047316
40.848885 -22.809938 9.837251 0.000000000000000e+00 1954047316
35.652512 -13.265092 -1.941509 0.000000000000000e+00 1851878480
33.816547 -14.150254 -1.745219 0.000000000000000e+00 1851878480
30.738691 -15.857668 -1.355713 0.000000000000000e+00 1851878480
30.029692 -17.039753 -1.181463 0.000000000000000e+00 1851878480
31.315552 -11.642635 -1.989609 0.000000000000000e+00 1851878480
30.463026 -12.742533 -1.857095 0.000000000000000e+00 1851878480
28.763414 -14.843226 -1.555392 0.000000000000000e+00 1851878480
28.047842 -15.924579 -1.392843 0.000000000000000e+00 1851878480
28.942020 -10.752032 -2.101736 0.000000000000000e+00 1851878480
28.305779 -11.836041 -1.990576 0.000000000000000e+00 1851878480
27.392063 -14.139932 -1.754641 0.000000000000000e+00 1851878480
26.460812 -15.032383 -1.587316 0.000000000000000e+00 1851878480
26.881674 -9.979020 -2.196546 0.000000000000000e+00 1851878480
26.526833 -11.088275 -2.114052 0.000000000000000e+00 1851878480
25.824183 -13.334712 -1.912267 0.000000000000000e+00 1851878480
24.770098 -14.080184 -1.742053 0.000000000000000e+00 1851878480
24.493134 -9.085437 -2.224325 0.000000000000000e+00 1851878480
24.646599 -10.298714 -2.195432 0.000000000000000e+00 1851878480
23.908213 -12.349191 -2.009623 0.000000000000000e+00 1851878480
23.358465 -13.285625 -1.884689 0.000000000000000e+00 1851878480
22.304159 -8.267160 -2.228798 0.000000000000000e+00 1851878480
22.520382 -9.406963 -2.217581 0.000000000000000e+00 1851878480
22.039507 -11.387503 -2.073407 0.000000000000000e+00 1851878480
21.578199 -12.280321 -1.964877 0.000000000000000e+00 1851878480
20.450373 -7.574267 -2.230168 0.000000000000000e+00 1851878480
20.563635 -8.586581 -2.218336 0.000000000000000e+00 1851878480
20.393183 -10.540134 -2.123219 0.000000000000000e+00 1851878480
19.995621 -11.386418 -2.028548 0.000000000000000e+00 1851878480
18.927559 -7.004902 -2.237080 0.000000000000000e+00 1851878480
18.934111 -7.903367 -2.220939 0.000000000000000e+00 1851878480
19.072620 -9.860683 -2.177515 0.000000000000000e+00 1851878480
18.652475 -10.627872 -2.086485 0.000000000000000e+00 1851878480
17.577660 -6.500333 -2.238437 0.000000000000000e+00 1851878480
17.634264 -7.358190 -2.234902 0.000000000000000e+00 1851878480
17.696810 -9.152232 -2.198738 0.000000000000000e+00 1851878480
17.700832 -10.091647 -2.164709 0.000000000000000e+00 1851878480
16.396889 -6.059025 -2.238437 0.000000000000000e+00 1851878480
16.435854 -6.855710 -2.238436 0.000000000000000e+00 1851878480
16.460270 -8.515399 -2.211298 0.000000000000000e+00 1851878480
16.499989 -9.412630 -2.190390 0.000000000000000e+00 1851878480
8.917359 -3.292638 -1.299294 1.880790849211783e-38 1684957512
15.366787 -6.407501 -2.238436 0.000000000000000e+00 1851878480
15.412554 -7.975878 -2.226512 0.000000000000000e+00 1851878480
15.401470 -8.791220 -2.205995 0.000000000000000e+00 1851878480
8.917360 -3.290096 -1.381396 1.880790849211783e-38 1684957512
14.426384 -6.013241 -2.238437 0.000000000000000e+00 1851878480
14.478442 -7.494837 -2.238437 0.000000000000000e+00 1851878480
14.420208 -8.236043 -2.216984 0.000000000000000e+00 1851878480
8.917360 -3.287556 -1.463681 1.880790849211783e-38 1684957512
13.592599 -5.663685 -2.238437 0.000000000000000e+00 1851878480
13.584805 -7.034460 -2.238437 0.000000000000000e+00 1851878480
13.584717 -7.763517 -2.231684 0.000000000000000e+00 1851878480
8.917361 -3.285010 -1.546162 1.880790849211783e-38 1684957512
12.848183 -5.351588 -2.238437 0.000000000000000e+00 1851878480
12.793021 -6.626551 -2.238437 0.000000000000000e+00 1851878480
12.802246 -7.320750 -2.238436 0.000000000000000e+00 1851878480
8.917360 -3.282455 -1.628854 1.880790849211783e-38 1684957512
12.179390 -5.071207 -2.238438 0.000000000000000e+00 1851878480
12.086507 -6.262574 -2.238438 0.000000000000000e+00 1851878480
12.070432 -6.906451 -2.238437 0.000000000000000e+00 1851878480
8.917361 -3.279897 -1.711764 1.880790849211783e-38 1684957512
11.575184 -4.817896 -2.238437 0.000000000000000e+00 1851878480
11.452113 -5.935748 -2.238437 0.000000000000000e+00 1851878480
11.415780 -6.535824 -2.238437 0.000000000000000e+00 1851878480
8.917360 -3.277330 -1.794910 1.880790849211783e-38 1684957512
11.026560 -4.587885 -2.238438 0.000000000000000e+00 1851878480
10.879245 -5.640616 -2.238437 0.000000000000000e+00 1851878480
10.826594 -6.202268 -2.238437 0.000000000000000e+00 1851878480
8.917360 -3.274759 -1.878303 1.880790849211783e-38 1684957512
10.526114 -4.378078 -2.238438 0.000000000000000e+00 1851878480
10.359290 -5.372747 -2.238438 0.000000000000000e+00 1851878480
10.293447 -5.900439 -2.238437 0.000000000000000e+00 1851878480
8.917361 -3.272183 -1.961959 1.880790849211783e-38 1684957512
10.067677 -4.185880 -2.238437 0.000000000000000e+00 1851878480
9.885147 -5.128489 -2.238438 0.000000000000000e+00 1851878480
9.808614 -5.625964 -2.238437 0.000000000000000e+00 1851878480
8.917362 -3.269597 -2.045888 1.880790849211783e-38 1684957512
9.646149 -4.009160 -2.238437 0.000000000000000e+00 1851878480
9.450984 -4.904818 -2.238437 0.000000000000000e+00 1851878480
9.365769 -5.375262 -2.238437 0.000000000000000e+00 1851878480
8.917359 -3.267005 -2.130105 1.880790849211783e-38 1684957512
9.257169 -3.846084 -2.238437 0.000000000000000e+00 1851878480
9.051875 -4.699209 -2.238438 0.000000000000000e+00 1851878480
8.959611 -5.145330 -2.238437 0.000000000000000e+00 1851878480
8.917361 -3.264402 -2.214624 1.880790849211783e-38 1684957512
8.897066 -3.695113 -2.238437 0.000000000000000e+00 1851878480
8.683688 -4.509528 -2.238437 0.000000000000000e+00 1851878480
8.585711 -4.933656 -2.238437 0.000000000000000e+00 1851878480
8.680710 -3.175235 -2.238437 0.000000000000000e+00 1851878480
8.562679 -3.554926 -2.238437 0.000000000000000e+00 1851878480
8.342906 -4.333968 -2.238437 0.000000000000000e+00 1851878480
8.240314 -4.738125 -2.238437 0.000000000000000e+00 1851878480
8.370683 -3.059376 -2.238437 0.000000000000000e+00 1851878480
8.251310 -3.424389 -2.238438 0.000000000000000e+00 1851878480
8.026536 -4.170987 -2.238437 0.000000000000000e+00 1851878480
7.920231 -4.556928 -2.238437 0.000000000000000e+00 1851878480
8.080899 -2.951082 -2.238437 0.000000000000000e+00 1851878480
7.960610 -3.302519 -2.238437 0.000000000000000e+00 1851878480
7.731996 -4.019245 -2.238437 0.000000000000000e+00 1851878480
7.622728 -4.388509 -2.238437 0.000000000000000e+00 1851878480
7.809416 -2.849624 -2.238437 0.000000000000000e+00 1851878480
7.688564 -3.188468 -2.238437 0.000000000000000e+00 1851878480
7.457070 -3.877615 -2.238437 0.000000000000000e+00 1851878480
7.345468 -4.231552 -2.238437 0.000000000000000e+00 1851878480
7.554508 -2.754368 -2.238436 0.000000000000000e+00 1851878480
7.433391 -3.081489 -2.238437 0.000000000000000e+00 1851878480
7.199818 -3.745088 -2.238437 0.000000000000000e+00 1851878480
7.086402 -4.084901 -2.238436 0.000000000000000e+00 1851878480
7.314675 -2.664743 -2.238437 0.000000000000000e+00 1851878480
7.193527 -2.980932 -2.238437 0.000000000000000e+00 1851878480
6.958557 -3.620797 -2.238437 0.000000000000000e+00 1851878480
6.843769 -3.947545 -2.238437 0.000000000000000e+00 1851878480
7.088568 -2.580254 -2.238436 0.000000000000000e+00 1851878480
6.967601 -2.886217 -2.238437 0.000000000000000e+00 1851878480
6.731793 -3.503978 -2.238437 0.000000000000000e+00 1851878480
6.616003 -3.818611 -2.238437 0.000000000000000e+00 1851878480
6.875039 -2.500459 -2.238437 0.000000000000000e+00 1851878480
6.754412 -2.796839 -2.238437 0.000000000000000e+00 1851878480
6.518242 -3.393963 -2.238437 0.000000000000000e+00 1851878480
6.401758 -3.697333 -2.238437 0.000000000000000e+00 1851878480
6.673018 -2.424968 -2.238437 0.000000000000000e+00 1851878480
6.552875 -2.712350 -2.238437 0.000000000000000e+00 1851878480
6.316743 -3.290163 -2.238437 0.000000000000000e+00 1851878480
6.199830 -3.583025 -2.238437 0.000000000000000e+00 1851878480
6.481576 -2.353431 -2.238437 0.000000000000000e+00 1851878480
6.362035 -2.632344 -2.238437 0.000000000000000e+00 1851878480
6.126276 -3.192041 -2.238437 0.000000000000000e+00 1851878480
6.009155 -3.475093 -2.238437 0.000000000000000e+00 1851878480
6.299880 -2.285538 -2.238437 0.000000000000000e+00 1851878480
6.181035 -2.556464 -2.238437 0.000000000000000e+00 1851878480
5.945932 -3.099136 -2.238437 0.000000000000000e+00 1851878480
5.828792 -3.372996 -2.238437 0.000000000000000e+00 1851878480
6.127175 -2.221004 -2.238437 0.000000000000000e+00 1851878480
6.009105 -2.484384 -2.238437 0.000000000000000e+00 1851878480
5.774896 -3.011024 -2.238437 0.000000000000000e+00 1851878480
5.657896 -3.276259 -2.238437 0.000000000000000e+00 1851878480
5.962792 -2.159580 -2.238437 0.000000000000000e+00 1851878480
5.845564 -2.415825 -2.238437 0.000000000000000e+00 1851878480
5.612447 -2.927338 -2.238437 0.000000000000000e+00 1851878480
5.495725 -3.184459 -2.238437 0.000000000000000e+00 1851878480
5.806118 -2.101040 -2.238437 0.000000000000000e+00 1851878480
5.689784 -2.350519 -2.238437 0.000000000000000e+00 1851878480
5.457927 -2.847736 -2.238437 0.000000000000000e+00 1851878480
5.341593 -3.097215 -2.238437 0.000000000000000e+00 1851878480
5.656603 -2.045173 -2.238437 0.000000000000000e+00 1851878480
5.541205 -2.288231 -2.238437 0.000000000000000e+00 1851878480
5.310748 -2.771917 -2.238437 0.000000000000000e+00 1851878480
5.194901 -3.014180 -2.238437 0.000000000000000e+00 1851878480
5.513748 -1.991796 -2.238437 0.000000000000000e+00 1851878480
5.399322 -2.228749 -2.238437 0.000000000000000e+00 1851878480
5.170378 -2.699605 -2.238437 0.000000000000000e+00 1851878480
5.055098 -2.935049 -2.238437 0.000000000000000e+00 1851878480
5.377091 -1.940737 -2.238437 0.000000000000000e+00 1851878480
5.263662 -2.171881 -2.238437 0.000000000000000e+00 1851878480
5.036329 -2.630550 -2.238437 0.000000000000000e+00 1851878480
4.921686 -2.859534 -2.238437 0.000000000000000e+00 1851878480
5.246227 -1.891842 -2.238437 0.000000000000000e+00 1851878480
5.133816 -2.117446 -2.238437 0.000000000000000e+00 1851878480
4.908173 -2.564530 -2.238437 0.000000000000000e+00 1851878480
4.794223 -2.787388 -2.238437 0.000000000000000e+00 1851878480
5.120776 -1.844970 -2.238437 0.000000000000000e+00 1851878480
5.009398 -2.065289 -2.238437 0.000000000000000e+00 1851878480
4.785506 -2.501340 -2.238437 0.000000000000000e+00 1851878480
4.672301 -2.718375 -2.238437 0.000000000000000e+00 1851878480
5.000387 -1.799991 -2.238437 0.000000000000000e+00 1851878480
4.890054 -2.015257 -2.238437 0.000000000000000e+00 1851878480
4.667967 -2.440787 -2.238437 0.000000000000000e+00 1851878480
4.555542 -2.652291 -2.238437 0.000000000000000e+00 1851878480
4.884748 -1.756788 -2.238437 0.000000000000000e+00 1851878480
4.775465 -1.967222 -2.238437 0.000000000000000e+00 1851878480
4.555221 -2.382708 -2.238436 0.000000000000000e+00 1851878480
4.443614 -2.588939 -2.238437 0.000000000000000e+00 1851878480
4.773562 -1.715246 -2.238436 0.000000000000000e+00 1851878480
4.665333 -1.921053 -2.238437 0.000000000000000e+00 1851878480
4.446965 -2.326941 -2.238437 0.000000000000000e+00 1851878480
4.336199 -2.528142 -2.238437 0.000000000000000e+00 1851878480
4.666568 -1.675274 -2.238436 0.000000000000000e+00 1851878480
4.559395 -1.876642 -2.238437 0.000000000000000e+00 1851878480
4.342923 -2.273345 -2.238437 0.000000000000000e+00 1851878480
4.233022 -2.469744 -2.238437 0.000000000000000e+00 1851878480
4.563516 -1.636773 -2.238436 0.000000000000000e+00 1851878480
4.457394 -1.833883 -2.238437 0.000000000000000e+00 1851878480
4.242836 -2.221786 -2.238437 0.000000000000000e+00 1851878480
4.133817 -2.413597 -2.238437 0.000000000000000e+00 1851878480
4.464175 -1.599664 -2.238437 0.000000000000000e+00 1851878480
4.359102 -1.792678 -2.238436 0.000000000000000e+00 1851878480
4.146469 -2.172143 -2.238437 0.000000000000000e+00 1851878480
4.038343 -2.359562 -2.238437 0.000000000000000e+00 1851878480
4.368335 -1.563858 -2.238437 0.000000000000000e+00 1851878480
4.264306 -1.752938 -2.238437 0.000000000000000e+00 1851878480
4.053600 -2.124303 -2.238437 0.000000000000000e+00 1851878480
3.946380 -2.307512 -2.238437 0.000000000000000e+00 1851878480
4.275803 -1.529292 -2.238436 0.000000000000000e+00 1851878480
4.172811 -1.714583 -2.238436 0.000000000000000e+00 1851878480
3.964034 -2.078165 -2.238436 0.000000000000000e+00 1851878480
3.857724 -2.257338 -2.238437 0.000000000000000e+00 1851878480
4.186399 -1.495892 -2.238437 0.000000000000000e+00 1851878480
4.084435 -1.677535 -2.238437 0.000000000000000e+00 1851878480
3.877584 -2.033632 -2.238437 0.000000000000000e+00 1851878480
3.772189 -2.208928 -2.238437 0.000000000000000e+00 1851878480
4.099951 -1.463600 -2.238436 0.000000000000000e+00 1851878480
3.999007 -1.641724 -2.238436 0.000000000000000e+00 1851878480
3.794074 -1.990615 -2.238437 0.000000000000000e+00 1851878480
3.689597 -2.162188 -2.238437 0.000000000000000e+00 1851878480
4.016307 -1.432354 -2.238437 0.000000000000000e+00 1851878480
3.916368 -1.607083 -2.238436 0.000000000000000e+00 1851878480
3.713346 -1.949030 -2.238437 0.000000000000000e+00 1851878480
3.609788 -2.117021 -2.238437 0.000000000000000e+00 1851878480
4.006149 -1.427337 -2.278727 0.000000000000000e+00 1634890835
3.836378 -1.573550 -2.238437 0.000000000000000e+00 1851878480
3.635252 -1.908802 -2.238436 0.000000000000000e+00 1851878480
3.532611 -2.073344 -2.238437 0.000000000000000e+00 1851878480
3.926263 -1.397496 -2.278726 0.000000000000000e+00 1634890835
3.758892 -1.541069 -2.238437 0.000000000000000e+00 1851878480
3.559653 -1.869856 -2.238437 0.000000000000000e+00 1851878480
3.457924 -2.031077 -2.238437 0.000000000000000e+00 1851878480
3.848817 -1.368568 -2.278727 0.000000000000000e+00 1634890835
3.683789 -1.509587 -2.238436 0.000000000000000e+00 1851878480
3.486420 -1.832134 -2.238437 0.000000000000000e+00 1851878480
3.385601 -1.990149 -2.238437 0.000000000000000e+00 1851878480
3.773686 -1.340506 -2.278727 0.000000000000000e+00 1634890835
3.610948 -1.479054 -2.238436 0.000000000000000e+00 1851878480
3.415431 -1.795568 -2.238437 0.000000000000000e+00 1851878480
3.315518 -1.950489 -2.238437 0.000000000000000e+00 1851878480
3.700757 -1.313266 -2.278727 0.000000000000000e+00 1634890835
3.540259 -1.449423 -2.238436 0.000000000000000e+00 1851878480
3.346577 -1.760100 -2.238437 0.000000000000000e+00 1851878480
3.247561 -1.912035 -2.238436 0.000000000000000e+00 1851878480
3.629923 -1.286810 -2.278727 0.000000000000000e+00 1634890835
3.471617 -1.420646 -2.238436 0.000000000000000e+00 1851878480
3.279751 -1.725676 -2.238437 0.000000000000000e+00 1851878480
3.181628 -1.874722 -2.238437 0.000000000000000e+00 1851878480
3.561090 -1.261100 -2.278727 0.000000000000000e+00 1634890835
3.466211 -1.417759 -2.278727 0.000000000000000e+00 1634890835
3.214856 -1.692248 -2.238437 0.000000000000000e+00 1851878480
3.117617 -1.838500 -2.238437 0.000000000000000e+00 1851878480
3.494162 -1.236102 -2.278727 0.000000000000000e+00 1634890835
3.400212 -1.390092 -2.278727 0.000000000000000e+00 1634890835
3.151799 -1.659766 -2.238436 0.000000000000000e+00 1851878480
3.055438 -1.803315 -2.238437 0.000000000000000e+00 1851878480
3.429050 -1.211785 -2.278727 0.000000000000000e+00 1634890835
3.336016 -1.363182 -2.278727 0.000000000000000e+00 1634890835
3.090494 -1.628187 -2.238436 0.000000000000000e+00 1851878480
2.995002 -1.769117 -2.238437 0.000000000000000e+00 1851878480
3.365674 -1.188117 -2.278727 0.000000000000000e+00 1634890835
3.273543 -1.336996 -2.278727 0.000000000000000e+00 1634890835
3.030860 -1.597470 -2.238437 0.000000000000000e+00 1851878480
2.936227 -1.735859 -2.238437 0.000000000000000e+00 1851878480
3.303956 -1.165064 -2.278727 0.000000000000000e+00 1634890835
3.212713 -1.311497 -2.278727 0.000000000000000e+00 1634890835
2.972818 -1.567572 -2.238437 0.000000000000000e+00 1851878480
2.879037 -1.703498 -2.238437 0.000000000000000e+00 1851878480
3.243822 -1.142608 -2.278727 0.000000000000000e+00 1634890835
3.153456 -1.286658 -2.278727 0.000000000000000e+00 1634890835
2.916300 -1.538459 -2.238437 0.000000000000000e+00 1851878480
2.823360 -1.671994 -2.238436 0.000000000000000e+00 1851878480
3.185205 -1.120717 -2.278727 0.000000000000000e+00 1634890835
3.095702 -1.262449 -2.278727 0.000000000000000e+00 1634890835
2.861237 -1.510096 -2.238436 0.000000000000000e+00 1851878480
2.769128 -1.641310 -2.238436 0.000000000000000e+00 1851878480
3.128042 -1.099369 -2.278727 0.000000000000000e+00 1634890835
3.039388 -1.238845 -2.278727 0.000000000000000e+00 1634890835
2.807565 -1.482451 -2.238437 0.000000000000000e+00 1851878480
2.716281 -1.611407 -2.238437 0.000000000000000e+00 1851878480
3.072265 -1.078540 -2.278727 0.000000000000000e+00 1634890835
2.984451 -1.215816 -2.278727 0.000000000000000e+00 1634890835
2.755225 -1.455490 -2.238436 0.000000000000000e+00 1851878480
0.840391 -0.499000 -0.705942 0.000000000000000e+00 1886740808
3.017822 -1.058209 -2.278727 0.000000000000000e+00 1634890835
2.930831 -1.193341 -2.278727 0.000000000000000e+00 1634890835
2.704158 -1.429186 -2.238436 0.000000000000000e+00 1851878480
0.824539 -0.490030 -0.705942 0.000000000000000e+00 1886740808
2.964656 -1.038357 -2.278727 0.000000000000000e+00 1634890835
2.878477 -1.171397 -2.278726 0.000000000000000e+00 1634890835
0.837098 -0.442629 -0.705942 0.000000000000000e+00 1886740808
0.809069 -0.481278 -0.705942 0.000000000000000e+00 1886740808
2.912715 -1.018961 -2.278726 0.000000000000000e+00 1634890835
2.827339 -1.149959 -2.278727 0.000000000000000e+00 1634890835
0.821748 -0.434722 -0.705942 0.000000000000000e+00 1886740808
0.793966 -0.472733 -0.705942 0.000000000000000e+00 1886740808
2.861951 -1.000005 -2.278726 0.000000000000000e+00 1634890835
2.777363 -1.129012 -2.278726 0.000000000000000e+00 1634890835
0.806751 -0.426998 -0.705942 0.000000000000000e+00 1886740808
0.779213 -0.464386 -0.705942 0.000000000000000e+00 1886740808
2.812316 -0.981473 -2.278726 0.000000000000000e+00 1634890835
2.728504 -1.108533 -2.278726 0.000000000000000e+00 1634890835
0.792093 -0.419448 -0.705942 0.000000000000000e+00 1886740808
0.764796 -0.456230 -0.705942 0.000000000000000e+00 1886740808
2.763765 -0.963343 -2.278726 0.000000000000000e+00 1634890835
0.830478 -0.337215 -0.705942 0.000000000000000e+00 1886740808
0.777761 -0.412066 -0.705942 0.000000000000000e+00 1886740808
0.750702 -0.448256 -0.705942 0.000000000000000e+00 1886740808
0.841489 -0.292945 -0.705942 0.000000000000000e+00 1886740808
0.815994 -0.331144 -0.705942 0.000000000000000e+00 1886740808
0.763743 -0.404845 -0.705942 0.000000000000000e+00 1886740808
0.744295 -0.444867 -0.713009 0.000000000000000e+00 1886740808
0.827082 -0.287567 -0.705942 0.000000000000000e+00 1886740808
0.801817 -0.325201 -0.705942 0.000000000000000e+00 1886740808
0.750025 -0.397779 -0.705942 0.000000000000000e+00 1886740808
0.744295 -0.445311 -0.726301 0.000000000000000e+00 1886740808
0.812974 -0.282299 -0.705942 0.000000000000000e+00 1886740808
0.787936 -0.319383 -0.705942 0.000000000000000e+00 1886740808
0.744295 -0.394947 -0.713321 0.000000000000000e+00 1886740808
0.744295 -0.445762 -0.739800 0.000000000000000e+00 1886740808
0.799154 -0.277139 -0.705942 0.000000000000000e+00 1886740808
0.774338 -0.313684 -0.705942 0.000000000000000e+00 1886740808
0.744295 -0.395158 -0.726288 0.000000000000000e+00 1886740808
0.744295 -0.446220 -0.753513 0.000000000000000e+00 1886740808
0.785611 -0.272084 -0.705942 0.000000000000000e+00 1886740808
0.761015 -0.308099 -0.705942 0.000000000000000e+00 1886740808
0.744295 -0.395372 -0.739456 0.000000000000000e+00 1886740808
0.744295 -0.446685 -0.767447 0.000000000000000e+00 1886740808
0.772335 -0.267127 -0.705942 0.000000000000000e+00 1886740808
0.747955 -0.302625 -0.705942 0.000000000000000e+00 1886740808
0.744295 -0.395589 -0.752833 0.000000000000000e+00 1886740808
0.744295 -0.447158 -0.781610 0.000000000000000e+00 1886740808
0.759316 -0.262267 -0.705942 0.000000000000000e+00 1886740808
0.744295 -0.300956 -0.714725 0.000000000000000e+00 1886740808
0.744295 -0.395810 -0.766426 0.000000000000000e+00 1886740808
0.744295 -0.447639 -0.796009 0.000000000000000e+00 1886740808
0.746545 -0.257499 -0.705942 0.000000000000000e+00 1886740808
0.744295 -0.300765 -0.727149 0.000000000000000e+00 1886740808
0.744295 -0.396035 -0.780241 0.000000000000000e+00 1886740808
2.092192 -1.259678 -2.278727 0.000000000000000e+00 1634890835
0.744295 -0.256362 -0.715831 0.000000000000000e+00 1886740808
0.744295 -0.300570 -0.739767 0.000000000000000e+00 1886740808
0.744295 -0.396263 -0.794287 0.000000000000000e+00 1886740808
2.054433 -1.238319 -2.278726 0.000000000000000e+00 1634890835
0.744295 -0.255996 -0.728032 0.000000000000000e+00 1886740808
0.744295 -0.300373 -0.752586 0.000000000000000e+00 1886740808
2.097578 -1.117404 -2.278726 0.000000000000000e+00 1634890835
2.017381 -1.217360 -2.278727 0.000000000000000e+00 1634890835
0.744295 -0.255624 -0.740424 0.000000000000000e+00 1886740808
0.744295 -0.300172 -0.765611 0.000000000000000e+00 1886740808
2.060544 -1.098330 -2.278727 0.000000000000000e+00 1634890835
0.796275 -0.481053 -0.915943 0.000000000000000e+00 1886740808
0.744295 -0.255246 -0.753013 0.000000000000000e+00 1886740808
0.744295 -0.299969 -0.778850 0.000000000000000e+00 1886740808
2.024177 -1.079599 -2.278727 0.000000000000000e+00 1634890835
0.784636 -0.474577 -0.919123 0.000000000000000e+00 1886740808
0.744295 -0.254862 -0.765806 0.000000000000000e+00 1886740808
0.744295 -0.299762 -0.792311 0.000000000000000e+00 1886740808
1.988453 -1.061198 -2.278727 0.000000000000000e+00 1634890835
0.775673 -0.469713 -0.925309 0.000000000000000e+00 1886740808
0.744295 -0.254473 -0.778810 0.000000000000000e+00 1886740808
2.104271 -0.846891 -2.278726 0.000000000000000e+00 1634890835
0.797389 -0.425818 -0.930214 0.000000000000000e+00 1886740808
0.768823 -0.466130 -0.933989 0.000000000000000e+00 1886740808
0.744295 -0.254077 -0.792032 0.000000000000000e+00 1886740808
2.068530 -0.831912 -2.278726 0.000000000000000e+00 1634890835
0.785519 -0.419747 -0.932845 0.000000000000000e+00 1886740808
0.764549 -0.464111 -0.945878 0.000000000000000e+00 1886740808
0.744295 -0.253673 -0.805478 0.000000000000000e+00 1886740808
2.033383 -0.817181 -2.278726 0.000000000000000e+00 1634890835
0.776431 -0.415161 -0.938648 0.000000000000000e+00 1886740808
1.808581 -1.099259 -2.278726 0.000000000000000e+00 1634890835
2.070472 -0.704526 -2.278726 0.000000000000000e+00 1634890835
1.998814 -0.802691 -2.278727 0.000000000000000e+00 1634890835
0.769417 -0.411684 -0.946931 0.000000000000000e+00 1886740808
1.775830 -1.080735 -2.278726 0.000000000000000e+00 1634890835
2.035871 -0.691612 -2.278726 0.000000000000000e+00 1634890835
1.964800 -0.788435 -2.278726 0.000000000000000e+00 1634890835
0.764805 -0.409492 -0.958243 0.000000000000000e+00 1886740808
0.749057 -0.456456 -0.978943 0.000000000000000e+00 1886740808
2.001818 -0.678901 -2.278726 0.000000000000000e+00 1634890835
1.931323 -0.774405 -2.278727 0.000000000000000e+00 1634890835
0.767166 -0.411038 -0.978582 0.000000000000000e+00 1886740808
1.711907 -1.044581 -2.278726 0.000000000000000e+00 1634890835
1.968293 -0.666389 -2.278727 0.000000000000000e+00 1634890835
0.797682 -0.319597 -0.957507 0.000000000000000e+00 1886740808
1.754622 -0.940768 -2.278727 0.000000000000000e+00 1634890835
1.680700 -1.026932 -2.278727 0.000000000000000e+00 1634890835
1.935280 -0.654068 -2.278726 0.000000000000000e+00 1634890835
0.785811 -0.314588 -0.959661 0.000000000000000e+00 1886740808
0.751063 -0.402982 -0.993126 0.000000000000000e+00 1886740808
1.649975 -1.009555 -2.278726 0.000000000000000e+00 1634890835
1.902762 -0.641932 -2.278726 0.000000000000000e+00 1634890835
0.776731 -0.310699 -0.965105 0.000000000000000e+00 1886740808
1.692477 -0.908759 -2.278726 0.000000000000000e+00 1634890835
1.619716 -0.992442 -2.278726 0.000000000000000e+00 1634890835
0.796758 -0.268312 -0.970531 0.000000000000000e+00 1886740808
0.769655 -0.307611 -0.973021 0.000000000000000e+00 1886740808
1.662097 -0.893113 -2.278726 0.000000000000000e+00 1634890835
1.589906 -0.975583 -2.278726 0.000000000000000e+00 1634890835
0.785168 -0.263918 -0.972832 0.000000000000000e+00 1886740808
0.764880 -0.305443 -0.983925 0.000000000000000e+00 1886740808
1.632161 -0.877695 -2.278726 0.000000000000000e+00 1634890835
1.560533 -0.958973 -2.278727 0.000000000000000e+00 1634890835
0.776222 -0.260416 -0.978303 0.000000000000000e+00 1886740808
0.765616 -0.305471 -1.002179 0.000000000000000e+00 1886740808
1.602653 -0.862498 -2.278727 0.000000000000000e+00 1634890835
1.531581 -0.942599 -2.278727 0.000000000000000e+00 1634890835
0.769282 -0.257587 -0.986297 0.000000000000000e+00 1886740808
1.710672 -0.681929 -2.278726 0.000000000000000e+00 1634890835
1.573560 -0.847513 -2.278727 0.000000000000000e+00 1634890835
1.503037 -0.926458 -2.278727 0.000000000000000e+00 1634890835
0.764661 -0.255532 -0.997355 0.000000000000000e+00 1886740808
1.680925 -0.669462 -2.278726 0.000000000000000e+00 1634890835
1.544869 -0.832737 -2.278726 0.000000000000000e+00 1634890835
1.474889 -0.910540 -2.278727 0.000000000000000e+00 1634890835
0.766223 -0.255534 -1.016768 0.000000000000000e+00 1886740808
0.744043 -0.296055 -1.026575 0.000000000000000e+00 1886740808
1.516567 -0.818161 -2.278727 0.000000000000000e+00 1634890835
1.447124 -0.894838 -2.278726 0.000000000000000e+00 1634890835
1.687758 -0.561695 -2.278726 0.000000000000000e+00 1634890835
1.622623 -0.645028 -2.278726 0.000000000000000e+00 1634890835
1.488642 -0.803779 -2.278726 0.000000000000000e+00 1634890835
1.419728 -0.879347 -2.278726 0.000000000000000e+00 1634890835
0.752072 -0.249762 -1.033210 0.000000000000000e+00 1886740808
1.594047 -0.633052 -2.278726 0.000000000000000e+00 1634890835
1.461082 -0.789587 -2.278726 0.000000000000000e+00 1634890835
1.392692 -0.864060 -2.278727 0.000000000000000e+00 1634890835
1.629982 -0.540137 -2.278727 0.000000000000000e+00 1634890835
1.565837 -0.621229 -2.278726 0.000000000000000e+00 1634890835
1.433877 -0.775575 -2.278726 0.000000000000000e+00 1634890835
1.366004 -0.848968 -2.278726 0.000000000000000e+00 1634890835
1.601641 -0.529563 -2.278727 0.000000000000000e+00 1634890835
1.537981 -0.609555 -2.278726 0.000000000000000e+00 1634890835
1.407014 -0.761740 -2.278727 0.000000000000000e+00 1634890835
1.339653 -0.834067 -2.278726 0.000000000000000e+00 1634890835
1.573652 -0.519120 -2.278726 0.000000000000000e+00 1634890835
1.510471 -0.598026 -2.278726 0.000000000000000e+00 1634890835
1.380484 -0.748077 -2.278726 0.000000000000000e+00 1634890835
1.313628 -0.819351 -2.278726 0.000000000000000e+00 1634890835
1.546004 -0.508802 -2.278726 0.000000000000000e+00 1634890835
1.483295 -0.586636 -2.278726 0.000000000000000e+00 1634890835
1.354277 -0.734580 -2.278727 0.000000000000000e+00 1634890835
1.287920 -0.804815 -2.278727 0.000000000000000e+00 1634890835
1.518685 -0.498610 -2.278726 0.000000000000000e+00 1634890835
1.456443 -0.575382 -2.278726 0.000000000000000e+00 1634890835
1.328382 -0.721244 -2.278727 0.000000000000000e+00 1634890835
1.262519 -0.790452 -2.278727 0.000000000000000e+00 1634890835
1.491688 -0.488535 -2.278726 0.000000000000000e+00 1634890835
1.429906 -0.564261 -2.278727 0.000000000000000e+00 1634890835
1.302791 -0.708064 -2.278726 0.000000000000000e+00 1634890835
1.237416 -0.776258 -2.278727 0.000000000000000e+00 1634890835
1.465000 -0.478578 -2.278727 0.000000000000000e+00 1634890835
1.403673 -0.553268 -2.278726 0.000000000000000e+00 1634890835
1.277493 -0.695036 -2.278726 0.000000000000000e+00 1634890835
1.212600 -0.762228 -2.278726 0.000000000000000e+00 1634890835
1.438615 -0.468734 -2.278727 0.000000000000000e+00 1634890835
1.377737 -0.542399 -2.278726 0.000000000000000e+00 1634890835
1.252480 -0.682154 -2.278726 0.000000000000000e+00 1634890835
1.188066 -0.748353 -2.278726 0.000000000000000e+00 1634890835
1.412522 -0.458998 -2.278726 0.000000000000000e+00 1634890835
1.352087 -0.531649 -2.278726 0.000000000000000e+00 1634890835
1.227743 -0.669413 -2.278726 0.000000000000000e+00 1634890835
1.163801 -0.734634 -2.278726 0.000000000000000e+00 1634890835
1.386713 -0.449370 -2.278727 0.000000000000000e+00 1634890835
1.326717 -0.521017 -2.278726 0.000000000000000e+00 1634890835
1.203274 -0.656813 -2.278727 0.000000000000000e+00 1634890835
1.139799 -0.721064 -2.278726 0.000000000000000e+00 1634890835
1.361180 -0.439844 -2.278726 0.000000000000000e+00 1634890835
1.301617 -0.510498 -2.278727 0.000000000000000e+00 1634890835
1.179066 -0.644345 -2.278727 0.000000000000000e+00 1634890835
1.116052 -0.707638 -2.278727 0.000000000000000e+00 1634890835
1.335915 -0.430417 -2.278726 0.000000000000000e+00 1634890835
1.276778 -0.500089 -2.278726 0.000000000000000e+00 1634890835
1.155109 -0.632009 -2.278727 0.000000000000000e+00 1634890835
1.092553 -0.694350 -2.278726 0.000000000000000e+00 1634890835
1.310909 -0.421088 -2.278726 0.000000000000000e+00 1634890835
1.252195 -0.489786 -2.278727 0.000000000000000e+00 1634890835
1.131398 -0.619796 -2.278727 0.000000000000000e+00 1634890835
1.069293 -0.681200 -2.278727 0.000000000000000e+00 1634890835
1.286156 -0.411854 -2.278727 0.000000000000000e+00 1634890835
1.227859 -0.479588 -2.278727 0.000000000000000e+00 1634890835
1.107924 -0.607707 -2.278726 0.000000000000000e+00 1634890835
1.046265 -0.668181 -2.278727 0.000000000000000e+00 1634890835
1.261648 -0.402710 -2.278727 0.000000000000000e+00 1634890835
1.203763 -0.469490 -2.278727 0.000000000000000e+00 1634890835
1.084680 -0.595737 -2.278727 0.000000000000000e+00 1634890835
1.023464 -0.655289 -2.278727 0.000000000000000e+00 1634890835
1.237376 -0.393656 -2.278726 0.000000000000000e+00 1634890835
1.179899 -0.459490 -2.278726 0.000000000000000e+00 1634890835
1.061658 -0.583882 -2.278726 0.000000000000000e+00 1634890835
1.000880 -0.642521 -2.278727 0.000000000000000e+00 1634890835
1.213336 -0.384688 -2.278726 0.000000000000000e+00 1634890835
1.156262 -0.449584 -2.278726 0.000000000000000e+00 1634890835
1.038854 -0.572138 -2.278727 0.000000000000000e+00 1634890835
0.978510 -0.629874 -2.278727 0.000000000000000e+00 1634890835
1.189520 -0.375802 -2.278726 0.000000000000000e+00 1634890835
1.132843 -0.439770 -2.278726 0.000000000000000e+00 1634890835
1.016260 -0.560501 -2.278727 0.000000000000000e+00 1634890835
0.956343 -0.617343 -2.278726 0.000000000000000e+00 1634890835
1.165920 -0.366999 -2.278726 0.000000000000000e+00 1634890835
1.109637 -0.430046 -2.278726 0.000000000000000e+00 1634890835
0.993869 -0.548970 -2.278726 0.000000000000000e+00 1634890835
0.934377 -0.604923 -2.278726 0.000000000000000e+00 1634890835
1.142533 -0.358274 -2.278727 0.000000000000000e+00 1634890835
1.086638 -0.420407 -2.278727 0.000000000000000e+00 1634890835
0.971676 -0.537541 -2.278726 0.000000000000000e+00 1634890835
0.912604 -0.592614 -2.278727 0.000000000000000e+00 1634890835
1.119349 -0.349625 -2.278726 0.000000000000000e+00 1634890835
1.063839 -0.410853 -2.278726 0.000000000000000e+00 1634890835
0.949674 -0.526211 -2.278726 0.000000000000000e+00 1634890835
0.891018 -0.580410 -2.278726 0.000000000000000e+00 1634890835
1.096363 -0.341051 -2.278726 0.000000000000000e+00 1634890835
1.041233 -0.401379 -2.278726 0.000000000000000e+00 1634890835
0.927858 -0.514976 -2.278727 0.000000000000000e+00 1634890835
0.869613 -0.568309 -2.278726 0.000000000000000e+00 1634890835
1.073571 -0.332549 -2.278727 0.000000000000000e+00 1634890835
1.018817 -0.391985 -2.278726 0.000000000000000e+00 1634890835
0.906222 -0.503834 -2.278727 0.000000000000000e+00 1634890835
0.848384 -0.556308 -2.278727 0.000000000000000e+00 1634890835
1.050966 -0.324117 -2.278727 0.000000000000000e+00 1634890835
0.996582 -0.382668 -2.278726 0.000000000000000e+00 1634890835
0.884761 -0.492782 -2.278727 0.000000000000000e+00 1634890835
0.827326 -0.544404 -2.278726 0.000000000000000e+00 1634890835
1.028542 -0.315752 -2.278727 0.000000000000000e+00 1634890835
0.974526 -0.373425 -2.278726 0.000000000000000e+00 1634890835
0.863469 -0.481816 -2.278726 0.000000000000000e+00 1634890835
0.451011 -0.297861 -1.274414 0.000000000000000e+00 1936876886
1.006294 -0.307453 -2.278726 0.000000000000000e+00 1634890835
0.952641 -0.364254 -2.278726 0.000000000000000e+00 1634890835
0.842340 -0.470936 -2.278726 0.000000000000000e+00 1634890835
0.433313 -0.287261 -1.256716 0.000000000000000e+00 1936876886
0.984217 -0.299218 -2.278726 0.000000000000000e+00 1634890835
0.930923 -0.355153 -2.278726 0.000000000000000e+00 1634890835
0.821371 -0.460137 -2.278727 0.000000000000000e+00 1634890835
0.421233 -0.280358 -1.254538 0.000000000000000e+00 1936876886
0.962305 -0.291044 -2.278726 0.000000000000000e+00 1634890835
0.909366 -0.346118 -2.278726 0.000000000000000e+00 1634890835
0.445942 -0.250344 -1.269345 0.000000000000000e+00 1936876886
0.335128 -0.223972 -1.025475 0.000000000000000e+00 1953264973
0.940553 -0.282931 -2.278726 0.000000000000000e+00 1634890835
0.887966 -0.337151 -2.278726 0.000000000000000e+00 1634890835
0.428906 -0.241307 -1.253205 0.000000000000000e+00 1936876886
0.306473 -0.205705 -0.964048 0.000000000000000e+00 1953264973
0.495093 -0.148090 -1.227676 0.000000000000000e+00 1936876886
0.866717 -0.328247 -2.278727 0.000000000000000e+00 1634890835
0.358556 -0.202189 -1.075966 0.000000000000000e+00 1953264973
0.281224 -0.189609 -0.909922 0.000000000000000e+00 1953264973
0.483540 -0.143780 -1.227676 0.000000000000000e+00 1936876886
0.845615 -0.319403 -2.278726 0.000000000000000e+00 1634890835
0.326696 -0.184664 -1.007398 0.000000000000000e+00 1953264973
0.258802 -0.175316 -0.861860 0.000000000000000e+00 1953264973
0.472064 -0.139500 -1.227676 0.000000000000000e+00 1936876886
0.824655 -0.310620 -2.278727 0.000000000000000e+00 1634890835
0.299055 -0.169464 -0.948146 0.000000000000000e+00 1953264973
0.238756 -0.162537 -0.818888 0.000000000000000e+00 1953264973
