# .PCD v0.7 - Point Cloud Data file format
VERSION 0.7
FIELDS x y z rgb label
SIZE 4 4 4 4 4
TYPE F F F F U
COUNT 1 1 1 1 1
WIDTH 532
HEIGHT 1
VIEWPOINT 0 0 0 1 0 0 0
POINTS 532
DATA ascii
29.997541 -11.144162 -2.178386 0.000000000000000e+00 1851878480
29.877804 -12.493382 -2.101126 0.000000000000000e+00 1851878480
28.148031 -14.530166 -1.803066 0.000000000000000e+00 1851878480
27.031502 -15.356592 -1.621552 0.000000000000000e+00 1851878480
26.770138 -9.937616 -2.187431 0.000000000000000e+00 1851878480
26.279945 -10.985075 -2.094376 0.000000000000000e+00 1851878480
25.237864 -13.031958 -1.868850 0.000000000000000e+00 1851878480
24.389902 -13.864066 -1.715315 0.000000000000000e+00 1851878480
24.117199 -8.945989 -2.190184 0.000000000000000e+00 1851878480
24.255045 -10.135101 -2.160554 0.000000000000000e+00 1851878480
23.204521 -11.985718 -1.950475 0.000000000000000e+00 1851878480
22.732624 -12.929664 -1.834193 0.000000000000000e+00 1851878480
22.073168 -8.181543 -2.205715 0.000000000000000e+00 1851878480
22.129114 -9.243526 -2.179052 0.000000000000000e+00 1851878480
21.694946 -11.209472 -2.040992 0.000000000000000e+00 1851878480
21.278433 -12.109722 -1.937582 0.000000000000000e+00 1851878480
20.383440 -7.549478 -2.222868 0.000000000000000e+00 1851878480
20.442556 -8.536022 -2.205275 0.000000000000000e+00 1851878480
20.481209 -10.585631 -2.132385 0.000000000000000e+00 1851878480
20.185812 -11.494722 -2.047843 0.000000000000000e+00 1851878480
18.919353 -7.001866 -2.236110 0.000000000000000e+00 1851878480
18.936510 -7.904369 -2.221221 0.000000000000000e+00 1851878480
19.238777 -9.946588 -2.196484 0.000000000000000e+00 1851878480
19.067213 -10.864184 -2.132878 0.000000000000000e+00 1851878480
17.577673 -6.500339 -2.238439 0.000000000000000e+00 1851878480
17.637276 -7.359447 -2.235284 0.000000000000000e+00 1851878480
17.892799 -9.253593 -2.223089 0.000000000000000e+00 1851878480
18.002445 -10.263604 -2.201594 0.000000000000000e+00 1851878480
16.396898 -6.059029 -2.238439 0.000000000000000e+00 1851878480
16.435308 -6.855483 -2.238362 0.000000000000000e+00 1851878480
16.580944 -8.577827 -2.227510 0.000000000000000e+00 1851878480
16.731483 -9.544690 -2.221121 0.000000000000000e+00 1851878480
15.362931 -5.672595 -2.238439 0.000000000000000e+00 1851878480
15.366799 -6.407506 -2.238438 0.000000000000000e+00 1851878480
15.441321 -7.990766 -2.230668 0.000000000000000e+00 1851878480
15.532417 -8.865965 -2.224750 0.000000000000000e+00 1851878480
14.449855 -5.331332 -2.238439 0.000000000000000e+00 1851878480
14.426392 -6.013244 -2.238438 0.000000000000000e+00 1851878480
14.450506 -7.480376 -2.234117 0.000000000000000e+00 1851878480
14.492399 -8.277274 -2.228083 0.000000000000000e+00 1851878480
13.637510 -5.027730 -2.238439 0.000000000000000e+00 1851878480
13.592610 -5.663691 -2.238439 0.000000000000000e+00 1851878480
13.571661 -7.027654 -2.236271 0.000000000000000e+00 1851878480
13.561432 -7.750209 -2.227858 0.000000000000000e+00 1851878480
12.910007 -4.755836 -2.238439 0.000000000000000e+00 1851878480
12.848189 -5.351591 -2.238438 0.000000000000000e+00 1851878480
12.793031 -6.626556 -2.238438 0.000000000000000e+00 1851878480
12.773002 -7.304027 -2.233324 0.000000000000000e+00 1851878480
12.254611 -4.510888 -2.238439 0.000000000000000e+00 1851878480
12.179392 -5.071208 -2.238438 0.000000000000000e+00 1851878480
12.086509 -6.262575 -2.238438 0.000000000000000e+00 1851878480
12.069170 -6.905729 -2.238203 0.000000000000000e+00 1851878480
11.661046 -4.289053 -2.238438 0.000000000000000e+00 1851878480
11.575190 -4.817898 -2.238438 0.000000000000000e+00 1851878480
11.452121 -5.935752 -2.238438 0.000000000000000e+00 1851878480
11.415787 -6.535828 -2.238438 0.000000000000000e+00 1851878480
11.120875 -4.087172 -2.238439 0.000000000000000e+00 1851878480
11.026567 -4.587888 -2.238439 0.000000000000000e+00 1851878480
10.879253 -5.640621 -2.238439 0.000000000000000e+00 1851878480
10.826600 -6.202271 -2.238438 0.000000000000000e+00 1851878480
10.627130 -3.902644 -2.238438 0.000000000000000e+00 1851878480
10.526117 -4.378078 -2.238439 0.000000000000000e+00 1851878480
10.359296 -5.372750 -2.238439 0.000000000000000e+00 1851878480
10.293451 -5.900441 -2.238438 0.000000000000000e+00 1851878480
10.173993 -3.733299 -2.238438 0.000000000000000e+00 1851878480
10.067683 -4.185883 -2.238438 0.000000000000000e+00 1851878480
9.885150 -5.128490 -2.238438 0.000000000000000e+00 1851878480
9.808616 -5.625966 -2.238438 0.000000000000000e+00 1851878480
9.756624 -3.577317 -2.238438 0.000000000000000e+00 1851878480
9.646152 -4.009161 -2.238438 0.000000000000000e+00 1851878480
9.450988 -4.904820 -2.238438 0.000000000000000e+00 1851878480
9.365773 -5.375264 -2.238438 0.000000000000000e+00 1851878480
9.370882 -3.433159 -2.238439 0.000000000000000e+00 1851878480
9.257173 -3.846086 -2.238438 0.000000000000000e+00 1851878480
9.051878 -4.699211 -2.238438 0.000000000000000e+00 1851878480
8.959617 -5.145333 -2.238439 0.000000000000000e+00 1851878480
9.013251 -3.299505 -2.238438 0.000000000000000e+00 1851878480
8.897069 -3.695114 -2.238439 0.000000000000000e+00 1851878480
8.683693 -4.509530 -2.238439 0.000000000000000e+00 1851878480
8.585716 -4.933659 -2.238438 0.000000000000000e+00 1851878480
8.680716 -3.175237 -2.238439 0.000000000000000e+00 1851878480
8.562682 -3.554928 -2.238438 0.000000000000000e+00 1851878480
8.342911 -4.333971 -2.238438 0.000000000000000e+00 1851878480
8.240316 -4.738127 -2.238438 0.000000000000000e+00 1851878480
8.370686 -3.059378 -2.238439 0.000000000000000e+00 1851878480
8.251314 -3.424390 -2.238439 0.000000000000000e+00 1851878480
8.026540 -4.170989 -2.238438 0.000000000000000e+00 1851878480
7.920236 -4.556931 -2.238438 0.000000000000000e+00 1851878480
8.080903 -2.951083 -2.238439 0.000000000000000e+00 1851878480
7.960613 -3.302520 -2.238438 0.000000000000000e+00 1851878480
7.732001 -4.019248 -2.238438 0.000000000000000e+00 1851878480
7.622735 -4.388513 -2.238439 0.000000000000000e+00 1851878480
7.809420 -2.849625 -2.238438 0.000000000000000e+00 1851878480
7.688569 -3.188470 -2.238438 0.000000000000000e+00 1851878480
7.457075 -3.877618 -2.238439 0.000000000000000e+00 1851878480
7.345472 -4.231555 -2.238438 0.000000000000000e+00 1851878480
7.554514 -2.754370 -2.238438 0.000000000000000e+00 1851878480
7.433394 -3.081491 -2.238439 0.000000000000000e+00 1851878480
7.199823 -3.745091 -2.238438 0.000000000000000e+00 1851878480
7.086408 -4.084904 -2.238438 0.000000000000000e+00 1851878480
7.314680 -2.664745 -2.238439 0.000000000000000e+00 1851878480
7.193533 -2.980934 -2.238439 0.000000000000000e+00 1851878480
6.958560 -3.620799 -2.238438 0.000000000000000e+00 1851878480
6.843773 -3.947547 -2.238438 0.000000000000000e+00 1851878480
7.088575 -2.580256 -2.238438 0.000000000000000e+00 1851878480
6.967606 -2.886218 -2.238439 0.000000000000000e+00 1851878480
6.731796 -3.503979 -2.238438 0.000000000000000e+00 1851878480
6.616007 -3.818614 -2.238438 0.000000000000000e+00 1851878480
6.875041 -2.500460 -2.238438 0.000000000000000e+00 1851878480
6.754416 -2.796841 -2.238438 0.000000000000000e+00 1851878480
6.518247 -3.393965 -2.238438 0.000000000000000e+00 1851878480
6.401762 -3.697335 -2.238438 0.000000000000000e+00 1851878480
6.673020 -2.424968 -2.238438 0.000000000000000e+00 1851878480
6.552878 -2.712351 -2.238438 0.000000000000000e+00 1851878480
6.316745 -3.290164 -2.238438 0.000000000000000e+00 1851878480
6.199835 -3.583028 -2.238438 0.000000000000000e+00 1851878480
6.481579 -2.353432 -2.238438 0.000000000000000e+00 1851878480
6.362038 -2.632345 -2.238438 0.000000000000000e+00 1851878480
6.126279 -3.192042 -2.238438 0.000000000000000e+00 1851878480
6.009159 -3.475095 -2.238438 0.000000000000000e+00 1851878480
6.299883 -2.285539 -2.238438 0.000000000000000e+00 1851878480
6.181038 -2.556466 -2.238438 0.000000000000000e+00 1851878480
5.945935 -3.099137 -2.238438 0.000000000000000e+00 1851878480
5.828794 -3.372998 -2.238438 0.000000000000000e+00 1851878480
6.127177 -2.221004 -2.238438 0.000000000000000e+00 1851878480
6.009109 -2.484385 -2.238438 0.000000000000000e+00 1851878480
5.774899 -3.011025 -2.238438 0.000000000000000e+00 1851878480
3.232117 -1.871589 -1.278725 1.880790849211783e-38 1684957512
5.962793 -2.159581 -2.238438 0.000000000000000e+00 1851878480
5.845567 -2.415826 -2.238438 0.000000000000000e+00 1851878480
3.206154 -1.672265 -1.278724 1.880790849211783e-38 1684957512
3.139475 -1.819147 -1.278725 1.880790849211783e-38 1684957512
5.806120 -2.101041 -2.238438 0.000000000000000e+00 1851878480
5.689785 -2.350520 -2.238438 0.000000000000000e+00 1851878480
3.117883 -1.626791 -1.278724 1.880790849211783e-38 1684957512
3.051427 -1.769308 -1.278724 1.880790849211783e-38 1684957512
5.656606 -2.045174 -2.238438 0.000000000000000e+00 1851878480
5.541208 -2.288233 -2.238438 0.000000000000000e+00 1851878480
3.033806 -1.583479 -1.278725 1.880790849211783e-38 1684957512
2.967628 -1.721874 -1.278725 1.880790849211783e-38 1684957512
5.513750 -1.991797 -2.238438 0.000000000000000e+00 1851878480
5.399323 -2.228750 -2.238438 0.000000000000000e+00 1851878480
2.953618 -1.542170 -1.278725 1.880790849211783e-38 1684957512
2.887764 -1.676670 -1.278725 1.880790849211783e-38 1684957512
5.377092 -1.940738 -2.238438 0.000000000000000e+00 1851878480
5.263663 -2.171881 -2.238438 0.000000000000000e+00 1851878480
2.877042 -1.502722 -1.278725 1.880790849211783e-38 1684957512
2.811551 -1.633531 -1.278724 1.880790849211783e-38 1684957512
5.246228 -1.891842 -2.238437 0.000000000000000e+00 1851878480
5.133818 -2.117447 -2.238438 0.000000000000000e+00 1851878480
2.803832 -1.465008 -1.278725 1.880790849211783e-38 1684957512
2.738737 -1.592317 -1.278725 1.880790849211783e-38 1684957512
5.120776 -1.844970 -2.238437 0.000000000000000e+00 1851878480
5.009399 -2.065289 -2.238438 0.000000000000000e+00 1851878480
2.757966 -1.441563 -1.290048 1.880790849211783e-38 1684957512
2.669088 -1.552893 -1.278724 1.880790849211783e-38 1684957512
5.000389 -1.799992 -2.238438 0.000000000000000e+00 1851878480
4.890056 -2.015258 -2.238438 0.000000000000000e+00 1851878480
2.756968 -1.441563 -1.322053 1.880790849211783e-38 1684957512
2.602389 -1.515142 -1.278725 1.880790849211783e-38 1684957512
4.884749 -1.756789 -2.238437 0.000000000000000e+00 1851878480
4.775466 -1.967222 -2.238438 0.000000000000000e+00 1851878480
2.755957 -1.441563 -1.354278 1.880790849211783e-38 1684957512
2.538449 -1.478951 -1.278725 1.880790849211783e-38 1684957512
4.773565 -1.715247 -2.238438 0.000000000000000e+00 1851878480
4.665335 -1.921054 -2.238438 0.000000000000000e+00 1851878480
2.754941 -1.441564 -1.386735 1.880790849211783e-38 1684957512
2.477088 -1.444221 -1.278724 1.880790849211783e-38 1684957512
4.666571 -1.675275 -2.238438 0.000000000000000e+00 1851878480
4.559396 -1.876642 -2.238438 0.000000000000000e+00 1851878480
2.753915 -1.441564 -1.419428 1.880790849211783e-38 1684957512
2.470770 -1.441563 -1.306552 1.880790849211783e-38 1684957512
4.563519 -1.636774 -2.238438 0.000000000000000e+00 1851878480
4.457395 -1.833883 -2.238438 0.000000000000000e+00 1851878480
2.752882 -1.441563 -1.452367 1.880790849211783e-38 1684957512
2.468996 -1.441564 -1.336947 1.880790849211783e-38 1684957512
4.464177 -1.599664 -2.238438 0.000000000000000e+00 1851878480
4.359105 -1.792679 -2.238438 0.000000000000000e+00 1851878480
2.751844 -1.441564 -1.485560 1.880790849211783e-38 1684957512
2.467208 -1.441564 -1.367563 1.880790849211783e-38 1684957512
4.368337 -1.563859 -2.238437 0.000000000000000e+00 1851878480
4.264309 -1.752939 -2.238438 0.000000000000000e+00 1851878480
2.750795 -1.441563 -1.519015 1.880790849211783e-38 1684957512
2.465408 -1.441564 -1.398411 1.880790849211783e-38 1684957512
4.275806 -1.529293 -2.238438 0.000000000000000e+00 1851878480
4.172814 -1.714584 -2.238438 0.000000000000000e+00 1851878480
2.749736 -1.441564 -1.552739 1.880790849211783e-38 1684957512
2.463590 -1.441563 -1.429493 1.880790849211783e-38 1684957512
4.186402 -1.495893 -2.238438 0.000000000000000e+00 1851878480
4.084437 -1.677535 -2.238438 0.000000000000000e+00 1851878480
2.748670 -1.441563 -1.586742 1.880790849211783e-38 1684957512
2.461760 -1.441563 -1.460821 1.880790849211783e-38 1684957512
4.099954 -1.463601 -2.238438 0.000000000000000e+00 1851878480
3.999008 -1.641725 -2.238438 0.000000000000000e+00 1851878480
2.747593 -1.441564 -1.621031 1.880790849211783e-38 1684957512
2.459911 -1.441564 -1.492400 1.880790849211783e-38 1684957512
4.088596 -1.458135 -2.278727 0.000000000000000e+00 1634890835
3.916371 -1.607084 -2.238438 0.000000000000000e+00 1851878480
2.746507 -1.441563 -1.655618 1.880790849211783e-38 1684957512
2.458049 -1.441564 -1.524241 1.880790849211783e-38 1684957512
4.006147 -1.427337 -2.278726 0.000000000000000e+00 1634890835
3.836380 -1.573551 -2.238438 0.000000000000000e+00 1851878480
2.745411 -1.441563 -1.690509 1.880790849211783e-38 1684957512
2.456169 -1.441563 -1.556350 1.880790849211783e-38 1684957512
3.926263 -1.397496 -2.278726 0.000000000000000e+00 1634890835
3.758893 -1.541070 -2.238438 0.000000000000000e+00 1851878480
2.744310 -1.441564 -1.725720 1.880790849211783e-38 1684957512
2.454273 -1.441564 -1.588738 1.880790849211783e-38 1684957512
3.848817 -1.368568 -2.278726 0.000000000000000e+00 1634890835
3.683792 -1.509588 -2.238438 0.000000000000000e+00 1851878480
2.743193 -1.441564 -1.761253 1.880790849211783e-38 1684957512
2.452359 -1.441564 -1.621411 1.880790849211783e-38 1684957512
3.773685 -1.340506 -2.278727 0.000000000000000e+00 1634890835
3.610950 -1.479055 -2.238437 0.000000000000000e+00 1851878480
2.742063 -1.441563 -1.797119 1.880790849211783e-38 1684957512
2.450427 -1.441563 -1.654379 1.880790849211783e-38 1684957512
3.700757 -1.313266 -2.278727 0.000000000000000e+00 1634890835
3.540261 -1.449423 -2.238437 0.000000000000000e+00 1851878480
2.740925 -1.441563 -1.833332 1.880790849211783e-38 1684957512
2.448473 -1.441563 -1.687651 1.880790849211783e-38 1684957512
3.629923 -1.286810 -2.278727 0.000000000000000e+00 1634890835
3.534104 -1.446217 -2.278726 0.000000000000000e+00 1634890835
2.739777 -1.441563 -1.869904 1.880790849211783e-38 1684957512
2.446506 -1.441564 -1.721241 1.880790849211783e-38 1684957512
3.561089 -1.261100 -2.278726 0.000000000000000e+00 1634890835
3.466210 -1.417759 -2.278726 0.000000000000000e+00 1634890835
2.738616 -1.441563 -1.906841 1.880790849211783e-38 1684957512
2.444516 -1.441563 -1.755153 1.880790849211783e-38 1684957512
3.494161 -1.236102 -2.278727 0.000000000000000e+00 1634890835
3.400211 -1.390092 -2.278727 0.000000000000000e+00 1634890835
2.737446 -1.441564 -1.944159 1.880790849211783e-38 1684957512
2.442506 -1.441563 -1.789398 1.880790849211783e-38 1684957512
3.429049 -1.211785 -2.278726 0.000000000000000e+00 1634890835
3.336016 -1.363182 -2.278726 0.000000000000000e+00 1634890835
2.736260 -1.441563 -1.981866 1.880790849211783e-38 1684957512
2.440475 -1.441564 -1.823989 1.880790849211783e-38 1684957512
3.365673 -1.188116 -2.278726 0.000000000000000e+00 1634890835
3.273543 -1.336996 -2.278727 0.000000000000000e+00 1634890835
2.735061 -1.441564 -2.019975 1.880790849211783e-38 1684957512
2.438423 -1.441564 -1.858935 1.880790849211783e-38 1684957512
3.303956 -1.165064 -2.278727 0.000000000000000e+00 1634890835
3.212713 -1.311496 -2.278727 0.000000000000000e+00 1634890835
2.733850 -1.441563 -2.058501 1.880790849211783e-38 1684957512
2.436348 -1.441563 -1.894249 1.880790849211783e-38 1684957512
3.243823 -1.142608 -2.278727 0.000000000000000e+00 1634890835
3.153456 -1.286658 -2.278727 0.000000000000000e+00 1634890835
2.732624 -1.441564 -2.097455 1.880790849211783e-38 1684957512
2.434251 -1.441563 -1.929940 1.880790849211783e-38 1684957512
3.185205 -1.120717 -2.278726 0.000000000000000e+00 1634890835
3.095702 -1.262449 -2.278726 0.000000000000000e+00 1634890835
2.731386 -1.441563 -2.136850 1.880790849211783e-38 1684957512
2.432127 -1.441563 -1.966020 1.880790849211783e-38 1684957512
3.128042 -1.099369 -2.278727 0.000000000000000e+00 1634890835
3.039388 -1.238845 -2.278727 0.000000000000000e+00 1634890835
2.730129 -1.441563 -2.176697 1.880790849211783e-38 1684957512
2.429983 -1.441564 -2.002504 1.880790849211783e-38 1684957512
3.072266 -1.078540 -2.278727 0.000000000000000e+00 1634890835
2.984451 -1.215816 -2.278727 0.000000000000000e+00 1634890835
2.728863 -1.441563 -2.217019 1.880790849211783e-38 1684957512
0.840392 -0.499000 -0.705943 0.000000000000000e+00 1886740808
3.017822 -1.058209 -2.278727 0.000000000000000e+00 1634890835
2.930831 -1.193340 -2.278726 0.000000000000000e+00 1634890835
2.704159 -1.429187 -2.238437 0.000000000000000e+00 1851878480
0.824540 -0.490031 -0.705943 0.000000000000000e+00 1886740808
2.964656 -1.038356 -2.278727 0.000000000000000e+00 1634890835
2.878477 -1.171397 -2.278727 0.000000000000000e+00 1634890835
0.837099 -0.442630 -0.705943 0.000000000000000e+00 1886740808
0.809070 -0.481279 -0.705943 0.000000000000000e+00 1886740808
2.912716 -1.018961 -2.278727 0.000000000000000e+00 1634890835
2.827339 -1.149959 -2.278727 0.000000000000000e+00 1634890835
0.821749 -0.434723 -0.705943 0.000000000000000e+00 1886740808
0.793967 -0.472733 -0.705943 0.000000000000000e+00 1886740808
2.861952 -1.000005 -2.278727 0.000000000000000e+00 1634890835
2.777363 -1.129012 -2.278727 0.000000000000000e+00 1634890835
0.806752 -0.426998 -0.705943 0.000000000000000e+00 1886740808
0.779214 -0.464386 -0.705943 0.000000000000000e+00 1886740808
2.812317 -0.981473 -2.278727 0.000000000000000e+00 1634890835
2.728505 -1.108534 -2.278728 0.000000000000000e+00 1634890835
0.792094 -0.419448 -0.705943 0.000000000000000e+00 1886740808
0.764797 -0.456231 -0.705943 0.000000000000000e+00 1886740808
2.763767 -0.963343 -2.278728 0.000000000000000e+00 1634890835
0.830479 -0.337215 -0.705943 0.000000000000000e+00 1886740808
0.777762 -0.412066 -0.705943 0.000000000000000e+00 1886740808
0.750703 -0.448257 -0.705943 0.000000000000000e+00 1886740808
0.841490 -0.292946 -0.705943 0.000000000000000e+00 1886740808
0.815995 -0.331144 -0.705943 0.000000000000000e+00 1886740808
0.763744 -0.404845 -0.705943 0.000000000000000e+00 1886740808
0.744295 -0.444867 -0.713009 0.000000000000000e+00 1886740808
0.827083 -0.287567 -0.705943 0.000000000000000e+00 1886740808
0.801818 -0.325202 -0.705943 0.000000000000000e+00 1886740808
0.750026 -0.397779 -0.705943 0.000000000000000e+00 1886740808
0.744295 -0.445311 -0.726301 0.000000000000000e+00 1886740808
0.812975 -0.282300 -0.705943 0.000000000000000e+00 1886740808
0.787937 -0.319383 -0.705943 0.000000000000000e+00 1886740808
0.744295 -0.394947 -0.713321 0.000000000000000e+00 1886740808
0.744295 -0.445761 -0.739800 0.000000000000000e+00 1886740808
0.799155 -0.277140 -0.705943 0.000000000000000e+00 1886740808
0.774339 -0.313684 -0.705943 0.000000000000000e+00 1886740808
0.744295 -0.395158 -0.726288 0.000000000000000e+00 1886740808
0.744295 -0.446220 -0.753513 0.000000000000000e+00 1886740808
0.785612 -0.272084 -0.705943 0.000000000000000e+00 1886740808
0.761016 -0.308100 -0.705943 0.000000000000000e+00 1886740808
0.744295 -0.395372 -0.739456 0.000000000000000e+00 1886740808
0.744295 -0.446685 -0.767447 0.000000000000000e+00 1886740808
0.772336 -0.267127 -0.705943 0.000000000000000e+00 1886740808
0.747956 -0.302626 -0.705943 0.000000000000000e+00 1886740808
0.744294 -0.395589 -0.752833 0.000000000000000e+00 1886740808
0.744295 -0.447158 -0.781609 0.000000000000000e+00 1886740808
0.759317 -0.262267 -0.705943 0.000000000000000e+00 1886740808
0.744295 -0.300956 -0.714724 0.000000000000000e+00 1886740808
0.744295 -0.395810 -0.766425 0.000000000000000e+00 1886740808
0.744294 -0.447639 -0.796009 0.000000000000000e+00 1886740808
0.746546 -0.257499 -0.705943 0.000000000000000e+00 1886740808
0.744295 -0.300765 -0.727149 0.000000000000000e+00 1886740808
0.744295 -0.396034 -0.780241 0.000000000000000e+00 1886740808
2.092193 -1.259678 -2.278728 0.000000000000000e+00 1634890835
0.744295 -0.256362 -0.715831 0.000000000000000e+00 1886740808
0.744295 -0.300570 -0.739767 0.000000000000000e+00 1886740808
0.744295 -0.396263 -0.794287 0.000000000000000e+00 1886740808
2.054434 -1.238319 -2.278728 0.000000000000000e+00 1634890835
0.744295 -0.255996 -0.728032 0.000000000000000e+00 1886740808
0.744295 -0.300373 -0.752585 0.000000000000000e+00 1886740808
2.097579 -1.117405 -2.278728 0.000000000000000e+00 1634890835
2.017382 -1.217361 -2.278728 0.000000000000000e+00 1634890835
0.744295 -0.255624 -0.740424 0.000000000000000e+00 1886740808
0.744295 -0.300172 -0.765611 0.000000000000000e+00 1886740808
2.060545 -1.098331 -2.278728 0.000000000000000e+00 1634890835
0.796275 -0.481053 -0.915943 0.000000000000000e+00 1886740808
0.744295 -0.255246 -0.753013 0.000000000000000e+00 1886740808
0.744295 -0.299969 -0.778850 0.000000000000000e+00 1886740808
2.024178 -1.079599 -2.278728 0.000000000000000e+00 1634890835
0.784636 -0.474577 -0.919123 0.000000000000000e+00 1886740808
0.744295 -0.254862 -0.765806 0.000000000000000e+00 1886740808
0.744295 -0.299762 -0.792310 0.000000000000000e+00 1886740808
1.988454 -1.061199 -2.278728 0.000000000000000e+00 1634890835
0.775674 -0.469714 -0.925309 0.000000000000000e+00 1886740808
0.744295 -0.254473 -0.778810 0.000000000000000e+00 1886740808
2.104273 -0.846891 -2.278728 0.000000000000000e+00 1634890835
0.797389 -0.425818 -0.930214 0.000000000000000e+00 1886740808
0.768824 -0.466130 -0.933990 0.000000000000000e+00 1886740808
0.744295 -0.254076 -0.792031 0.000000000000000e+00 1886740808
2.068531 -0.831912 -2.278728 0.000000000000000e+00 1634890835
0.785519 -0.419748 -0.932845 0.000000000000000e+00 1886740808
0.764550 -0.464111 -0.945879 0.000000000000000e+00 1886740808
0.744295 -0.253673 -0.805478 0.000000000000000e+00 1886740808
2.033384 -0.817181 -2.278727 0.000000000000000e+00 1634890835
0.776431 -0.415161 -0.938648 0.000000000000000e+00 1886740808
1.808582 -1.099259 -2.278728 0.000000000000000e+00 1634890835
2.070472 -0.704526 -2.278727 0.000000000000000e+00 1634890835
1.998814 -0.802692 -2.278728 0.000000000000000e+00 1634890835
0.769418 -0.411684 -0.946932 0.000000000000000e+00 1886740808
1.775831 -1.080735 -2.278727 0.000000000000000e+00 1634890835
2.035872 -0.691612 -2.278727 0.000000000000000e+00 1634890835
1.964800 -0.788436 -2.278728 0.000000000000000e+00 1634890835
0.764806 -0.409492 -0.958244 0.000000000000000e+00 1886740808
0.749057 -0.456456 -0.978943 0.000000000000000e+00 1886740808
2.001819 -0.678902 -2.278728 0.000000000000000e+00 1634890835
1.931324 -0.774405 -2.278728 0.000000000000000e+00 1634890835
0.767169 -0.411041 -0.978587 0.000000000000000e+00 1886740808
1.711908 -1.044582 -2.278728 0.000000000000000e+00 1634890835
1.968294 -0.666389 -2.278728 0.000000000000000e+00 1634890835
0.797682 -0.319597 -0.957506 0.000000000000000e+00 1886740808
1.754623 -0.940768 -2.278728 0.000000000000000e+00 1634890835
1.680701 -1.026932 -2.278727 0.000000000000000e+00 1634890835
1.935281 -0.654068 -2.278728 0.000000000000000e+00 1634890835
0.785811 -0.314588 -0.959661 0.000000000000000e+00 1886740808
0.751063 -0.402982 -0.993126 0.000000000000000e+00 1886740808
1.649976 -1.009556 -2.278727 0.000000000000000e+00 1634890835
1.902763 -0.641933 -2.278727 0.000000000000000e+00 1634890835
0.776731 -0.310699 -0.965105 0.000000000000000e+00 1886740808
1.692479 -0.908759 -2.278728 0.000000000000000e+00 1634890835
1.619717 -0.992443 -2.278728 0.000000000000000e+00 1634890835
0.796758 -0.268312 -0.970531 0.000000000000000e+00 1886740808
0.769656 -0.307612 -0.973022 0.000000000000000e+00 1886740808
1.662098 -0.893114 -2.278728 0.000000000000000e+00 1634890835
1.589907 -0.975584 -2.278728 0.000000000000000e+00 1634890835
0.785169 -0.263918 -0.972832 0.000000000000000e+00 1886740808
0.764880 -0.305443 -0.983926 0.000000000000000e+00 1886740808
1.632162 -0.877695 -2.278728 0.000000000000000e+00 1634890835
1.560533 -0.958973 -2.278728 0.000000000000000e+00 1634890835
0.776222 -0.260416 -0.978303 0.000000000000000e+00 1886740808
0.765618 -0.305472 -1.002182 0.000000000000000e+00 1886740808
1.602653 -0.862498 -2.278728 0.000000000000000e+00 1634890835
1.531582 -0.942600 -2.278728 0.000000000000000e+00 1634890835
0.769283 -0.257587 -0.986298 0.000000000000000e+00 1886740808
1.710672 -0.681929 -2.278727 0.000000000000000e+00 1634890835
1.573560 -0.847514 -2.278728 0.000000000000000e+00 1634890835
1.503038 -0.926458 -2.278728 0.000000000000000e+00 1634890835
0.764662 -0.255532 -0.997357 0.000000000000000e+00 1886740808
1.680925 -0.669462 -2.278728 0.000000000000000e+00 1634890835
1.544870 -0.832737 -2.278728 0.000000000000000e+00 1634890835
1.474890 -0.910541 -2.278728 0.000000000000000e+00 1634890835
0.766226 -0.255535 -1.016772 0.000000000000000e+00 1886740808
0.744045 -0.296056 -1.026578 0.000000000000000e+00 1886740808
1.516568 -0.818161 -2.278728 0.000000000000000e+00 1634890835
1.447124 -0.894839 -2.278728 0.000000000000000e+00 1634890835
1.687759 -0.561696 -2.278728 0.000000000000000e+00 1634890835
1.622624 -0.645029 -2.278728 0.000000000000000e+00 1634890835
1.488642 -0.803779 -2.278727 0.000000000000000e+00 1634890835
1.419729 -0.879347 -2.278728 0.000000000000000e+00 1634890835
0.752069 -0.249761 -1.033205 0.000000000000000e+00 1886740808
1.594047 -0.633052 -2.278727 0.000000000000000e+00 1634890835
1.461082 -0.789587 -2.278728 0.000000000000000e+00 1634890835
1.392692 -0.864060 -2.278728 0.000000000000000e+00 1634890835
1.629983 -0.540137 -2.278728 0.000000000000000e+00 1634890835
1.565838 -0.621229 -2.278728 0.000000000000000e+00 1634890835
1.433878 -0.775576 -2.278728 0.000000000000000e+00 1634890835
1.366005 -0.848968 -2.278728 0.000000000000000e+00 1634890835
1.601642 -0.529563 -2.278728 0.000000000000000e+00 1634890835
1.537982 -0.609556 -2.278727 0.000000000000000e+00 1634890835
1.407015 -0.761741 -2.278728 0.000000000000000e+00 1634890835
1.339654 -0.834067 -2.278728 0.000000000000000e+00 1634890835
1.573653 -0.519120 -2.278728 0.000000000000000e+00 1634890835
1.510471 -0.598026 -2.278728 0.000000000000000e+00 1634890835
1.380485 -0.748077 -2.278727 0.000000000000000e+00 1634890835
1.313628 -0.819352 -2.278728 0.000000000000000e+00 1634890835
1.546005 -0.508803 -2.278728 0.000000000000000e+00 1634890835
1.483296 -0.586636 -2.278728 0.000000000000000e+00 1634890835
1.354278 -0.734580 -2.278728 0.000000000000000e+00 1634890835
1.287921 -0.804815 -2.278728 0.000000000000000e+00 1634890835
1.518686 -0.498610 -2.278728 0.000000000000000e+00 1634890835
1.456444 -0.575383 -2.278728 0.000000000000000e+00 1634890835
1.328383 -0.721244 -2.278728 0.000000000000000e+00 1634890835
1.262520 -0.790452 -2.278728 0.000000000000000e+00 1634890835
1.491689 -0.488535 -2.278728 0.000000000000000e+00 1634890835
1.429907 -0.564262 -2.278728 0.000000000000000e+00 1634890835
1.302791 -0.708064 -2.278727 0.000000000000000e+00 1634890835
1.237417 -0.776259 -2.278728 0.000000000000000e+00 1634890835
1.465001 -0.478579 -2.278728 0.000000000000000e+00 1634890835
1.403674 -0.553269 -2.278727 0.000000000000000e+00 1634890835
1.277493 -0.695036 -2.278728 0.000000000000000e+00 1634890835
1.212601 -0.762228 -2.278728 0.000000000000000e+00 1634890835
1.438616 -0.468734 -2.278728 0.000000000000000e+00 1634890835
1.377737 -0.542399 -2.278727 0.000000000000000e+00 1634890835
1.252481 -0.682154 -2.278728 0.000000000000000e+00 1634890835
1.188066 -0.748354 -2.278728 0.000000000000000e+00 1634890835
1.412523 -0.458999 -2.278728 0.000000000000000e+00 1634890835
1.352088 -0.531649 -2.278728 0.000000000000000e+00 1634890835
1.227744 -0.669414 -2.278728 0.000000000000000e+00 1634890835
1.163802 -0.734634 -2.278728 0.000000000000000e+00 1634890835
1.386714 -0.449370 -2.278728 0.000000000000000e+00 1634890835
1.326717 -0.521017 -2.278727 0.000000000000000e+00 1634890835
1.203275 -0.656814 -2.278728 0.000000000000000e+00 1634890835
1.139799 -0.721065 -2.278728 0.000000000000000e+00 1634890835
1.361181 -0.439844 -2.278727 0.000000000000000e+00 1634890835
1.301618 -0.510498 -2.278728 0.000000000000000e+00 1634890835
1.179067 -0.644346 -2.278728 0.000000000000000e+00 1634890835
1.116053 -0.707638 -2.278728 0.000000000000000e+00 1634890835
1.335915 -0.430417 -2.278728 0.000000000000000e+00 1634890835
1.276779 -0.500089 -2.278728 0.000000000000000e+00 1634890835
1.155110 -0.632009 -2.278728 0.000000000000000e+00 1634890835
1.092553 -0.694350 -2.278728 0.000000000000000e+00 1634890835
1.310910 -0.421088 -2.278728 0.000000000000000e+00 1634890835
1.252196 -0.489786 -2.278728 0.000000000000000e+00 1634890835
1.131398 -0.619797 -2.278727 0.000000000000000e+00 1634890835
1.069293 -0.681201 -2.278728 0.000000000000000e+00 1634890835
1.286156 -0.411854 -2.278727 0.000000000000000e+00 1634890835
1.227860 -0.479588 -2.278727 0.000000000000000e+00 1634890835
1.107924 -0.607708 -2.278728 0.000000000000000e+00 1634890835
1.046266 -0.668181 -2.278728 0.000000000000000e+00 1634890835
1.261648 -0.402710 -2.278728 0.000000000000000e+00 1634890835
1.203764 -0.469490 -2.278727 0.000000000000000e+00 1634890835
1.084680 -0.595737 -2.278728 0.000000000000000e+00 1634890835
1.023465 -0.655289 -2.278728 0.000000000000000e+00 1634890835
1.237377 -0.393657 -2.278728 0.000000000000000e+00 1634890835
1.179900 -0.459490 -2.278728 0.000000000000000e+00 1634890835
1.061659 -0.583882 -2.278728 0.000000000000000e+00 1634890835
1.000881 -0.642522 -2.278728 0.000000000000000e+00 1634890835
1.213337 -0.384688 -2.278728 0.000000000000000e+00 1634890835
1.156263 -0.449584 -2.278728 0.000000000000000e+00 1634890835
1.038855 -0.572138 -2.278728 0.000000000000000e+00 1634890835
0.978510 -0.629874 -2.278728 0.000000000000000e+00 1634890835
1.189521 -0.375803 -2.278728 0.000000000000000e+00 1634890835
1.132844 -0.439770 -2.278728 0.000000000000000e+00 1634890835
1.016261 -0.560501 -2.278728 0.000000000000000e+00 1634890835
0.956344 -0.617343 -2.278728 0.000000000000000e+00 1634890835
1.165921 -0.366999 -2.278728 0.000000000000000e+00 1634890835
1.109637 -0.430046 -2.278728 0.000000000000000e+00 1634890835
0.993869 -0.548971 -2.278728 0.000000000000000e+00 1634890835
0.934377 -0.604923 -2.278728 0.000000000000000e+00 1634890835
1.142533 -0.358274 -2.278728 0.000000000000000e+00 1634890835
1.086638 -0.420407 -2.278728 0.000000000000000e+00 1634890835
0.971676 -0.537541 -2.278728 0.000000000000000e+00 1634890835
0.912604 -0.592614 -2.278728 0.000000000000000e+00 1634890835
1.119349 -0.349626 -2.278728 0.000000000000000e+00 1634890835
1.063839 -0.410853 -2.278728 0.000000000000000e+00 1634890835
0.949675 -0.526211 -2.278728 0.000000000000000e+00 1634890835
0.891018 -0.580411 -2.278728 0.000000000000000e+00 1634890835
1.096364 -0.341051 -2.278728 0.000000000000000e+00 1634890835
1.041234 -0.401380 -2.278728 0.000000000000000e+00 1634890835
0.927858 -0.514976 -2.278728 0.000000000000000e+00 1634890835
0.869613 -0.568309 -2.278728 0.000000000000000e+00 1634890835
1.073572 -0.332549 -2.278728 0.000000000000000e+00 1634890835
1.018817 -0.391985 -2.278728 0.000000000000000e+00 1634890835
0.906222 -0.503834 -2.278728 0.000000000000000e+00 1634890835
0.848384 -0.556308 -2.278728 0.000000000000000e+00 1634890835
1.050966 -0.324117 -2.278728 0.000000000000000e+00 1634890835
0.996583 -0.382669 -2.278728 0.000000000000000e+00 1634890835
0.884761 -0.492782 -2.278728 0.000000000000000e+00 1634890835
0.827327 -0.544404 -2.278728 0.000000000000000e+00 1634890835
1.028543 -0.315752 -2.278728 0.000000000000000e+00 1634890835
0.974527 -0.373425 -2.278728 0.000000000000000e+00 1634890835
0.863469 -0.481816 -2.278728 0.000000000000000e+00 1634890835
0.451009 -0.297859 -1.274409 0.000000000000000e+00 1936876886
1.006295 -0.307453 -2.278728 0.000000000000000e+00 1634890835
0.952642 -0.364254 -2.278728 0.000000000000000e+00 1634890835
0.842340 -0.470937 -2.278728 0.000000000000000e+00 1634890835
0.433312 -0.287260 -1.256711 0.000000000000000e+00 1936876886
0.984217 -0.299218 -2.278728 0.000000000000000e+00 1634890835
0.930923 -0.355153 -2.278728 0.000000000000000e+00 1634890835
0.821371 -0.460138 -2.278728 0.000000000000000e+00 1634890835
0.421236 -0.280360 -1.254547 0.000000000000000e+00 1936876886
0.962305 -0.291044 -2.278728 0.000000000000000e+00 1634890835
0.909366 -0.346119 -2.278727 0.000000000000000e+00 1634890835
0.445940 -0.250343 -1.269340 0.000000000000000e+00 1936876886
0.335123 -0.223968 -1.025459 0.000000000000000e+00 1953264973
0.940553 -0.282931 -2.278728 0.000000000000000e+00 1634890835
0.887966 -0.337151 -2.278728 0.000000000000000e+00 1634890835
0.428905 -0.241307 -1.253204 0.000000000000000e+00 1936876886
0.306468 -0.205701 -0.964032 0.000000000000000e+00 1953264973
0.495092 -0.148090 -1.227674 0.000000000000000e+00 1936876886
0.866717 -0.328247 -2.278728 0.000000000000000e+00 1634890835
0.358549 -0.202186 -1.075946 0.000000000000000e+00 1953264973
0.281219 -0.189606 -0.909907 0.000000000000000e+00 1953264973
0.483539 -0.143780 -1.227674 0.000000000000000e+00 1936876886
0.845615 -0.319403 -2.278727 0.000000000000000e+00 1634890835
0.326690 -0.184661 -1.007382 0.000000000000000e+00 1953264973
0.258798 -0.175313 -0.861845 0.000000000000000e+00 1953264973
0.472063 -0.139500 -1.227674 0.000000000000000e+00 1936876886
0.824655 -0.310620 -2.278728 0.000000000000000e+00 1634890835
0.299050 -0.169461 -0.948131 0.000000000000000e+00 1953264973
0.238752 -0.162535 -0.818874 0.000000000000000e+00 1953264973
