# .PCD v0.7 - Point Cloud Data file format
VERSION 0.7
FIELDS x y z rgb label
SIZE 4 4 4 4 4
TYPE F F F F U
COUNT 1 1 1 1 1
WIDTH 527
HEIGHT 1
VIEWPOINT 0 0 0 1 0 0 0
POINTS 527
DATA ascii
30.883051 -11.473131 -2.242692 0.000000000000000e+00 1851878480
27.116274 -10.066109 -2.215715 0.000000000000000e+00 1851878480
27.344561 -11.430086 -2.179220 0.000000000000000e+00 1851878480
30.218121 -15.603590 -2.237635 0.000000000000000e+00 1851878480
24.318180 -9.020539 -2.208436 0.000000000000000e+00 1851878480
24.430328 -10.208345 -2.176167 0.000000000000000e+00 1851878480
23.843399 -12.315713 -2.004176 0.000000000000000e+00 1851878480
23.487310 -13.358909 -1.895085 0.000000000000000e+00 1851878480
22.170031 -8.217445 -2.215394 0.000000000000000e+00 1851878480
22.275381 -9.304625 -2.193455 0.000000000000000e+00 1851878480
21.908867 -11.320003 -2.061117 0.000000000000000e+00 1851878480
21.408419 -12.183699 -1.949418 0.000000000000000e+00 1851878480
20.380020 -7.548212 -2.222495 0.000000000000000e+00 1851878480
20.395271 -8.516278 -2.200174 0.000000000000000e+00 1851878480
20.344280 -10.514860 -2.118128 0.000000000000000e+00 1851878480
19.940754 -11.355175 -2.022982 0.000000000000000e+00 1851878480
18.914932 -7.000230 -2.235587 0.000000000000000e+00 1851878480
18.871971 -7.877429 -2.213651 0.000000000000000e+00 1851878480
18.968859 -9.807038 -2.165668 0.000000000000000e+00 1851878480
18.765915 -10.692510 -2.099175 0.000000000000000e+00 1851878480
17.577663 -6.500334 -2.238437 0.000000000000000e+00 1851878480
17.572075 -7.332241 -2.227020 0.000000000000000e+00 1851878480
17.606501 -9.105529 -2.187518 0.000000000000000e+00 1851878480
17.733574 -10.110313 -2.168713 0.000000000000000e+00 1851878480
16.396885 -6.059024 -2.238437 0.000000000000000e+00 1851878480
16.435862 -6.855713 -2.238437 0.000000000000000e+00 1851878480
16.460716 -8.515629 -2.211358 0.000000000000000e+00 1851878480
16.542177 -9.436698 -2.195991 0.000000000000000e+00 1851878480
15.362917 -5.672589 -2.238437 0.000000000000000e+00 1851878480
15.366792 -6.407503 -2.238437 0.000000000000000e+00 1851878480
15.370068 -7.953892 -2.220374 0.000000000000000e+00 1851878480
15.429245 -8.807074 -2.209973 0.000000000000000e+00 1851878480
14.449842 -5.331327 -2.238437 0.000000000000000e+00 1851878480
14.426387 -6.013242 -2.238438 0.000000000000000e+00 1851878480
14.453210 -7.481775 -2.234535 0.000000000000000e+00 1851878480
14.496536 -8.279637 -2.228719 0.000000000000000e+00 1851878480
13.637500 -5.027727 -2.238437 0.000000000000000e+00 1851878480
13.592601 -5.663686 -2.238437 0.000000000000000e+00 1851878480
13.577859 -7.030863 -2.237292 0.000000000000000e+00 1851878480
13.591313 -7.767286 -2.232767 0.000000000000000e+00 1851878480
12.909998 -4.755832 -2.238437 0.000000000000000e+00 1851878480
12.848183 -5.351588 -2.238437 0.000000000000000e+00 1851878480
12.793026 -6.626553 -2.238437 0.000000000000000e+00 1851878480
12.785770 -7.311328 -2.235556 0.000000000000000e+00 1851878480
12.254602 -4.510885 -2.238437 0.000000000000000e+00 1851878480
12.179387 -5.071207 -2.238437 0.000000000000000e+00 1851878480
12.086507 -6.262574 -2.238438 0.000000000000000e+00 1851878480
12.068105 -6.905119 -2.238005 0.000000000000000e+00 1851878480
11.661043 -4.289052 -2.238438 0.000000000000000e+00 1851878480
11.575186 -4.817897 -2.238438 0.000000000000000e+00 1851878480
11.452114 -5.935749 -2.238437 0.000000000000000e+00 1851878480
11.415781 -6.535824 -2.238437 0.000000000000000e+00 1851878480
11.120870 -4.087170 -2.238438 0.000000000000000e+00 1851878480
11.026561 -4.587886 -2.238438 0.000000000000000e+00 1851878480
10.879246 -5.640616 -2.238437 0.000000000000000e+00 1851878480
10.826596 -6.202269 -2.238437 0.000000000000000e+00 1851878480
10.627121 -3.902641 -2.238437 0.000000000000000e+00 1851878480
10.526112 -4.378077 -2.238438 0.000000000000000e+00 1851878480
10.359290 -5.372747 -2.238438 0.000000000000000e+00 1851878480
10.293447 -5.900439 -2.238437 0.000000000000000e+00 1851878480
10.173990 -3.733297 -2.238437 0.000000000000000e+00 1851878480
10.067677 -4.185879 -2.238437 0.000000000000000e+00 1851878480
9.885146 -5.128489 -2.238437 0.000000000000000e+00 1851878480
9.808612 -5.625963 -2.238437 0.000000000000000e+00 1851878480
9.756622 -3.577317 -2.238437 0.000000000000000e+00 1851878480
9.646152 -4.009161 -2.238438 0.000000000000000e+00 1851878480
9.450987 -4.904819 -2.238438 0.000000000000000e+00 1851878480
9.365768 -5.375261 -2.238437 0.000000000000000e+00 1851878480
9.370878 -3.433158 -2.238438 0.000000000000000e+00 1851878480
9.257173 -3.846086 -2.238438 0.000000000000000e+00 1851878480
9.051874 -4.699209 -2.238437 0.000000000000000e+00 1851878480
8.959610 -5.145329 -2.238437 0.000000000000000e+00 1851878480
9.013247 -3.299503 -2.238437 0.000000000000000e+00 1851878480
8.897068 -3.695114 -2.238438 0.000000000000000e+00 1851878480
8.683689 -4.509529 -2.238438 0.000000000000000e+00 1851878480
8.585713 -4.933658 -2.238437 0.000000000000000e+00 1851878480
8.680714 -3.175236 -2.238438 0.000000000000000e+00 1851878480
8.562680 -3.554927 -2.238437 0.000000000000000e+00 1851878480
8.342908 -4.333969 -2.238437 0.000000000000000e+00 1851878480
8.240314 -4.738126 -2.238438 0.000000000000000e+00 1851878480
8.370684 -3.059377 -2.238438 0.000000000000000e+00 1851878480
8.251313 -3.424390 -2.238438 0.000000000000000e+00 1851878480
8.026539 -4.170989 -2.238438 0.000000000000000e+00 1851878480
7.920236 -4.556931 -2.238438 0.000000000000000e+00 1851878480
8.080900 -2.951082 -2.238438 0.000000000000000e+00 1851878480
7.960611 -3.302519 -2.238437 0.000000000000000e+00 1851878480
7.732001 -4.019248 -2.238438 0.000000000000000e+00 1851878480
7.622732 -4.388512 -2.238438 0.000000000000000e+00 1851878480
7.809420 -2.849625 -2.238438 0.000000000000000e+00 1851878480
7.688567 -3.188469 -2.238438 0.000000000000000e+00 1851878480
7.457072 -3.877616 -2.238438 0.000000000000000e+00 1851878480
7.345471 -4.231554 -2.238438 0.000000000000000e+00 1851878480
7.554513 -2.754369 -2.238438 0.000000000000000e+00 1851878480
7.433392 -3.081490 -2.238438 0.000000000000000e+00 1851878480
7.199821 -3.745090 -2.238438 0.000000000000000e+00 1851878480
7.086408 -4.084904 -2.238438 0.000000000000000e+00 1851878480
7.314677 -2.664744 -2.238438 0.000000000000000e+00 1851878480
7.193531 -2.980934 -2.238438 0.000000000000000e+00 1851878480
6.958559 -3.620798 -2.238438 0.000000000000000e+00 1851878480
6.843771 -3.947546 -2.238437 0.000000000000000e+00 1851878480
7.088574 -2.580256 -2.238438 0.000000000000000e+00 1851878480
6.967603 -2.886217 -2.238438 0.000000000000000e+00 1851878480
6.731795 -3.503978 -2.238437 0.000000000000000e+00 1851878480
6.616004 -3.818612 -2.238437 0.000000000000000e+00 1851878480
6.875040 -2.500460 -2.238438 0.000000000000000e+00 1851878480
6.754413 -2.796840 -2.238438 0.000000000000000e+00 1851878480
6.518243 -3.393963 -2.238437 0.000000000000000e+00 1851878480
6.401759 -3.697334 -2.238437 0.000000000000000e+00 1851878480
6.673020 -2.424968 -2.238438 0.000000000000000e+00 1851878480
6.552876 -2.712350 -2.238437 0.000000000000000e+00 1851878480
6.316743 -3.290163 -2.238437 0.000000000000000e+00 1851878480
6.199833 -3.583027 -2.238438 0.000000000000000e+00 1851878480
6.481579 -2.353432 -2.238438 0.000000000000000e+00 1851878480
6.362036 -2.632344 -2.238437 0.000000000000000e+00 1851878480
6.126277 -3.192041 -2.238437 0.000000000000000e+00 1851878480
6.009157 -3.475095 -2.238437 0.000000000000000e+00 1851878480
6.299881 -2.285538 -2.238437 0.000000000000000e+00 1851878480
6.181036 -2.556465 -2.238438 0.000000000000000e+00 1851878480
5.945934 -3.099137 -2.238438 0.000000000000000e+00 1851878480
5.828794 -3.372997 -2.238437 0.000000000000000e+00 1851878480
6.127175 -2.221004 -2.238437 0.000000000000000e+00 1851878480
6.009107 -2.484385 -2.238438 0.000000000000000e+00 1851878480
5.774897 -3.011024 -2.238437 0.000000000000000e+00 1851878480
5.657897 -3.276260 -2.238437 0.000000000000000e+00 1851878480
5.962793 -2.159581 -2.238438 0.000000000000000e+00 1851878480
5.845566 -2.415826 -2.238438 0.000000000000000e+00 1851878480
5.612448 -2.927338 -2.238437 0.000000000000000e+00 1851878480
5.495726 -3.184460 -2.238438 0.000000000000000e+00 1851878480
5.806119 -2.101040 -2.238438 0.000000000000000e+00 1851878480
5.689784 -2.350519 -2.238437 0.000000000000000e+00 1851878480
5.457927 -2.847736 -2.238437 0.000000000000000e+00 1851878480
5.341594 -3.097216 -2.238437 0.000000000000000e+00 1851878480
5.656604 -2.045173 -2.238437 0.000000000000000e+00 1851878480
5.541207 -2.288232 -2.238437 0.000000000000000e+00 1851878480
5.310747 -2.771916 -2.238437 0.000000000000000e+00 1851878480
5.194902 -3.014180 -2.238437 0.000000000000000e+00 1851878480
5.513747 -1.991796 -2.238437 0.000000000000000e+00 1851878480
5.399322 -2.228749 -2.238437 0.000000000000000e+00 1851878480
5.170379 -2.699605 -2.238437 0.000000000000000e+00 1851878480
5.055098 -2.935049 -2.238437 0.000000000000000e+00 1851878480
5.377091 -1.940737 -2.238437 0.000000000000000e+00 1851878480
5.263662 -2.171881 -2.238437 0.000000000000000e+00 1851878480
5.036330 -2.630551 -2.238437 0.000000000000000e+00 1851878480
4.921687 -2.859535 -2.238437 0.000000000000000e+00 1851878480
5.246228 -1.891842 -2.238437 0.000000000000000e+00 1851878480
5.133816 -2.117446 -2.238437 0.000000000000000e+00 1851878480
4.908173 -2.564531 -2.238437 0.000000000000000e+00 1851878480
4.794224 -2.787388 -2.238437 0.000000000000000e+00 1851878480
5.120776 -1.844970 -2.238437 0.000000000000000e+00 1851878480
5.009398 -2.065289 -2.238438 0.000000000000000e+00 1851878480
4.785507 -2.501340 -2.238437 0.000000000000000e+00 1851878480
4.672302 -2.718376 -2.238437 0.000000000000000e+00 1851878480
5.000388 -1.799991 -2.238437 0.000000000000000e+00 1851878480
4.890055 -2.015258 -2.238437 0.000000000000000e+00 1851878480
4.667967 -2.440787 -2.238437 0.000000000000000e+00 1851878480
4.555544 -2.652292 -2.238438 0.000000000000000e+00 1851878480
4.884749 -1.756789 -2.238437 0.000000000000000e+00 1851878480
4.775465 -1.967222 -2.238437 0.000000000000000e+00 1851878480
4.555223 -2.382709 -2.238437 0.000000000000000e+00 1851878480
4.443616 -2.588939 -2.238438 0.000000000000000e+00 1851878480
4.773564 -1.715247 -2.238437 0.000000000000000e+00 1851878480
4.665334 -1.921053 -2.238437 0.000000000000000e+00 1851878480
4.446966 -2.326941 -2.238437 0.000000000000000e+00 1851878480
4.336201 -2.528143 -2.238438 0.000000000000000e+00 1851878480
4.666571 -1.675275 -2.238438 0.000000000000000e+00 1851878480
4.559395 -1.876642 -2.238437 0.000000000000000e+00 1851878480
4.342924 -2.273346 -2.238438 0.000000000000000e+00 1851878480
4.233024 -2.469745 -2.238438 0.000000000000000e+00 1851878480
4.563518 -1.636774 -2.238438 0.000000000000000e+00 1851878480
4.457394 -1.833883 -2.238437 0.000000000000000e+00 1851878480
4.242836 -2.221787 -2.238437 0.000000000000000e+00 1851878480
4.133819 -2.413598 -2.238438 0.000000000000000e+00 1851878480
4.464176 -1.599664 -2.238437 0.000000000000000e+00 1851878480
4.359104 -1.792678 -2.238438 0.000000000000000e+00 1851878480
4.146470 -2.172143 -2.238438 0.000000000000000e+00 1851878480
4.038344 -2.359562 -2.238438 0.000000000000000e+00 1851878480
4.368337 -1.563859 -2.238437 0.000000000000000e+00 1851878480
4.264307 -1.752938 -2.238437 0.000000000000000e+00 1851878480
4.053602 -2.124304 -2.238438 0.000000000000000e+00 1851878480
3.946381 -2.307513 -2.238438 0.000000000000000e+00 1851878480
4.275805 -1.529293 -2.238437 0.000000000000000e+00 1851878480
4.172813 -1.714584 -2.238438 0.000000000000000e+00 1851878480
3.964036 -2.078166 -2.238438 0.000000000000000e+00 1851878480
3.857726 -2.257339 -2.238438 0.000000000000000e+00 1851878480
4.186401 -1.495893 -2.238438 0.000000000000000e+00 1851878480
4.084436 -1.677535 -2.238437 0.000000000000000e+00 1851878480
3.877585 -2.033633 -2.238438 0.000000000000000e+00 1851878480
3.772191 -2.208929 -2.238438 0.000000000000000e+00 1851878480
4.099953 -1.463600 -2.238437 0.000000000000000e+00 1851878480
3.999008 -1.641725 -2.238437 0.000000000000000e+00 1851878480
3.794076 -1.990616 -2.238438 0.000000000000000e+00 1851878480
3.689599 -2.162189 -2.238438 0.000000000000000e+00 1851878480
4.088589 -1.458132 -2.278722 0.000000000000000e+00 1634890835
3.916371 -1.607084 -2.238438 0.000000000000000e+00 1851878480
3.713349 -1.949031 -2.238438 0.000000000000000e+00 1851878480
3.609790 -2.117022 -2.238438 0.000000000000000e+00 1851878480
4.006140 -1.427334 -2.278722 0.000000000000000e+00 1634890835
3.836380 -1.573551 -2.238438 0.000000000000000e+00 1851878480
3.635254 -1.908803 -2.238438 0.000000000000000e+00 1851878480
3.532612 -2.073344 -2.238438 0.000000000000000e+00 1851878480
3.926255 -1.397493 -2.278722 0.000000000000000e+00 1634890835
3.758893 -1.541070 -2.238438 0.000000000000000e+00 1851878480
3.559653 -1.869857 -2.238437 0.000000000000000e+00 1851878480
3.457925 -2.031078 -2.238438 0.000000000000000e+00 1851878480
3.848810 -1.368565 -2.278722 0.000000000000000e+00 1634890835
3.683791 -1.509587 -2.238437 0.000000000000000e+00 1851878480
3.486421 -1.832134 -2.238438 0.000000000000000e+00 1851878480
3.385602 -1.990149 -2.238438 0.000000000000000e+00 1851878480
3.773677 -1.340503 -2.278722 0.000000000000000e+00 1634890835
3.610950 -1.479055 -2.238437 0.000000000000000e+00 1851878480
3.415432 -1.795568 -2.238437 0.000000000000000e+00 1851878480
3.315519 -1.950489 -2.238437 0.000000000000000e+00 1851878480
3.700749 -1.313263 -2.278722 0.000000000000000e+00 1634890835
3.346578 -1.760101 -2.238437 0.000000000000000e+00 1851878480
3.247563 -1.912036 -2.238438 0.000000000000000e+00 1851878480
3.629916 -1.286807 -2.278722 0.000000000000000e+00 1634890835
3.534096 -1.446214 -2.278722 0.000000000000000e+00 1634890835
3.279752 -1.725677 -2.238438 0.000000000000000e+00 1851878480
3.181630 -1.874723 -2.238438 0.000000000000000e+00 1851878480
3.561082 -1.261097 -2.278722 0.000000000000000e+00 1634890835
3.466204 -1.417756 -2.278722 0.000000000000000e+00 1634890835
3.214857 -1.692249 -2.238438 0.000000000000000e+00 1851878480
3.117619 -1.838501 -2.238438 0.000000000000000e+00 1851878480
3.494154 -1.236099 -2.278722 0.000000000000000e+00 1634890835
3.400205 -1.390089 -2.278722 0.000000000000000e+00 1634890835
3.151800 -1.659767 -2.238437 0.000000000000000e+00 1851878480
3.055439 -1.803316 -2.238438 0.000000000000000e+00 1851878480
3.429042 -1.211783 -2.278722 0.000000000000000e+00 1634890835
3.336010 -1.363179 -2.278722 0.000000000000000e+00 1634890835
3.090495 -1.628188 -2.238437 0.000000000000000e+00 1851878480
2.995002 -1.769117 -2.238437 0.000000000000000e+00 1851878480
3.365667 -1.188114 -2.278722 0.000000000000000e+00 1634890835
3.273535 -1.336993 -2.278722 0.000000000000000e+00 1634890835
3.030861 -1.597471 -2.238438 0.000000000000000e+00 1851878480
2.936229 -1.735860 -2.238438 0.000000000000000e+00 1851878480
3.303948 -1.165062 -2.278722 0.000000000000000e+00 1634890835
3.212706 -1.311494 -2.278722 0.000000000000000e+00 1634890835
2.972819 -1.567572 -2.238438 0.000000000000000e+00 1851878480
2.879038 -1.703499 -2.238438 0.000000000000000e+00 1851878480
3.243815 -1.142605 -2.278722 0.000000000000000e+00 1634890835
3.153449 -1.286655 -2.278722 0.000000000000000e+00 1634890835
2.916301 -1.538460 -2.238437 0.000000000000000e+00 1851878480
2.823361 -1.671995 -2.238437 0.000000000000000e+00 1851878480
3.185198 -1.120715 -2.278722 0.000000000000000e+00 1634890835
3.095696 -1.262446 -2.278722 0.000000000000000e+00 1634890835
2.861239 -1.510097 -2.238438 0.000000000000000e+00 1851878480
2.769129 -1.641310 -2.238437 0.000000000000000e+00 1851878480
3.128035 -1.099366 -2.278722 0.000000000000000e+00 1634890835
3.039383 -1.238843 -2.278723 0.000000000000000e+00 1634890835
2.807567 -1.482452 -2.238437 0.000000000000000e+00 1851878480
2.716282 -1.611408 -2.238438 0.000000000000000e+00 1851878480
3.072261 -1.078538 -2.278723 0.000000000000000e+00 1634890835
2.984446 -1.215814 -2.278723 0.000000000000000e+00 1634890835
2.755226 -1.455490 -2.238437 0.000000000000000e+00 1851878480
0.840392 -0.499001 -0.705944 0.000000000000000e+00 1886740808
3.017817 -1.058207 -2.278723 0.000000000000000e+00 1634890835
2.930826 -1.193339 -2.278723 0.000000000000000e+00 1634890835
2.752825 -1.454908 -2.278723 0.000000000000000e+00 1634890835
0.824541 -0.490031 -0.705944 0.000000000000000e+00 1886740808
2.964651 -1.038355 -2.278723 0.000000000000000e+00 1634890835
2.878472 -1.171395 -2.278723 0.000000000000000e+00 1634890835
0.837100 -0.442630 -0.705944 0.000000000000000e+00 1886740808
0.809071 -0.481279 -0.705944 0.000000000000000e+00 1886740808
2.912711 -1.018960 -2.278723 0.000000000000000e+00 1634890835
2.827334 -1.149957 -2.278723 0.000000000000000e+00 1634890835
0.821749 -0.434723 -0.705944 0.000000000000000e+00 1886740808
0.793967 -0.472734 -0.705944 0.000000000000000e+00 1886740808
2.861947 -1.000004 -2.278723 0.000000000000000e+00 1634890835
2.777358 -1.129010 -2.278722 0.000000000000000e+00 1634890835
0.806752 -0.426999 -0.705944 0.000000000000000e+00 1886740808
0.779214 -0.464387 -0.705944 0.000000000000000e+00 1886740808
2.812313 -0.981471 -2.278723 0.000000000000000e+00 1634890835
2.728499 -1.108531 -2.278723 0.000000000000000e+00 1634890835
0.792095 -0.419449 -0.705944 0.000000000000000e+00 1886740808
0.764797 -0.456231 -0.705944 0.000000000000000e+00 1886740808
2.763762 -0.963341 -2.278723 0.000000000000000e+00 1634890835
0.830480 -0.337216 -0.705944 0.000000000000000e+00 1886740808
0.777763 -0.412067 -0.705944 0.000000000000000e+00 1886740808
0.750703 -0.448257 -0.705944 0.000000000000000e+00 1886740808
0.841490 -0.292946 -0.705944 0.000000000000000e+00 1886740808
0.815995 -0.331144 -0.705944 0.000000000000000e+00 1886740808
0.763744 -0.404846 -0.705944 0.000000000000000e+00 1886740808
0.744295 -0.444867 -0.713009 0.000000000000000e+00 1886740808
0.827083 -0.287567 -0.705944 0.000000000000000e+00 1886740808
0.801818 -0.325202 -0.705944 0.000000000000000e+00 1886740808
0.750026 -0.397780 -0.705944 0.000000000000000e+00 1886740808
0.744295 -0.445311 -0.726301 0.000000000000000e+00 1886740808
0.812975 -0.282300 -0.705944 0.000000000000000e+00 1886740808
0.787937 -0.319383 -0.705944 0.000000000000000e+00 1886740808
0.744294 -0.394947 -0.713320 0.000000000000000e+00 1886740808
0.744295 -0.445761 -0.739800 0.000000000000000e+00 1886740808
0.799155 -0.277140 -0.705944 0.000000000000000e+00 1886740808
0.774339 -0.313685 -0.705944 0.000000000000000e+00 1886740808
0.744295 -0.395158 -0.726288 0.000000000000000e+00 1886740808
0.744295 -0.446219 -0.753513 0.000000000000000e+00 1886740808
0.785612 -0.272084 -0.705944 0.000000000000000e+00 1886740808
0.761016 -0.308100 -0.705944 0.000000000000000e+00 1886740808
0.744294 -0.395372 -0.739456 0.000000000000000e+00 1886740808
0.744295 -0.446685 -0.767447 0.000000000000000e+00 1886740808
0.772336 -0.267127 -0.705944 0.000000000000000e+00 1886740808
0.747956 -0.302626 -0.705944 0.000000000000000e+00 1886740808
0.744294 -0.395589 -0.752833 0.000000000000000e+00 1886740808
0.744295 -0.447158 -0.781609 0.000000000000000e+00 1886740808
0.759317 -0.262267 -0.705944 0.000000000000000e+00 1886740808
0.744295 -0.300956 -0.714724 0.000000000000000e+00 1886740808
0.744295 -0.395810 -0.766425 0.000000000000000e+00 1886740808
0.744294 -0.447639 -0.796009 0.000000000000000e+00 1886740808
0.746546 -0.257499 -0.705944 0.000000000000000e+00 1886740808
0.744294 -0.300765 -0.727149 0.000000000000000e+00 1886740808
0.744294 -0.396034 -0.780241 0.000000000000000e+00 1886740808
2.092189 -1.259676 -2.278723 0.000000000000000e+00 1634890835
0.744294 -0.256362 -0.715831 0.000000000000000e+00 1886740808
0.744294 -0.300570 -0.739767 0.000000000000000e+00 1886740808
0.744294 -0.396263 -0.794287 0.000000000000000e+00 1886740808
2.054430 -1.238317 -2.278723 0.000000000000000e+00 1634890835
0.744295 -0.255996 -0.728032 0.000000000000000e+00 1886740808
0.744294 -0.300373 -0.752585 0.000000000000000e+00 1886740808
2.097575 -1.117402 -2.278723 0.000000000000000e+00 1634890835
2.017378 -1.217358 -2.278723 0.000000000000000e+00 1634890835
0.744295 -0.255624 -0.740424 0.000000000000000e+00 1886740808
0.744294 -0.300172 -0.765610 0.000000000000000e+00 1886740808
2.060541 -1.098329 -2.278723 0.000000000000000e+00 1634890835
0.796275 -0.481053 -0.915942 0.000000000000000e+00 1886740808
0.744294 -0.255246 -0.753013 0.000000000000000e+00 1886740808
0.744295 -0.299969 -0.778850 0.000000000000000e+00 1886740808
2.024174 -1.079597 -2.278723 0.000000000000000e+00 1634890835
0.784636 -0.474577 -0.919124 0.000000000000000e+00 1886740808
0.744294 -0.254862 -0.765805 0.000000000000000e+00 1886740808
0.744295 -0.299762 -0.792310 0.000000000000000e+00 1886740808
1.988450 -1.061197 -2.278723 0.000000000000000e+00 1634890835
0.775674 -0.469714 -0.925310 0.000000000000000e+00 1886740808
0.744295 -0.254473 -0.778810 0.000000000000000e+00 1886740808
2.104268 -0.846889 -2.278723 0.000000000000000e+00 1634890835
0.797388 -0.425818 -0.930214 0.000000000000000e+00 1886740808
0.768824 -0.466131 -0.933991 0.000000000000000e+00 1886740808
0.744295 -0.254076 -0.792031 0.000000000000000e+00 1886740808
2.068527 -0.831910 -2.278723 0.000000000000000e+00 1634890835
0.785519 -0.419748 -0.932845 0.000000000000000e+00 1886740808
0.764551 -0.464112 -0.945881 0.000000000000000e+00 1886740808
0.744295 -0.253673 -0.805478 0.000000000000000e+00 1886740808
2.033381 -0.817180 -2.278723 0.000000000000000e+00 1634890835
0.776432 -0.415161 -0.938649 0.000000000000000e+00 1886740808
1.808578 -1.099257 -2.278723 0.000000000000000e+00 1634890835
2.070469 -0.704525 -2.278723 0.000000000000000e+00 1634890835
1.998811 -0.802690 -2.278723 0.000000000000000e+00 1634890835
0.769418 -0.411685 -0.946932 0.000000000000000e+00 1886740808
1.775827 -1.080733 -2.278723 0.000000000000000e+00 1634890835
2.035868 -0.691611 -2.278723 0.000000000000000e+00 1634890835
1.964797 -0.788434 -2.278723 0.000000000000000e+00 1634890835
0.764806 -0.409493 -0.958245 0.000000000000000e+00 1886740808
0.749057 -0.456456 -0.978943 0.000000000000000e+00 1886740808
2.001815 -0.678900 -2.278723 0.000000000000000e+00 1634890835
1.931320 -0.774404 -2.278723 0.000000000000000e+00 1634890835
0.767174 -0.411043 -0.978593 0.000000000000000e+00 1886740808
1.711904 -1.044580 -2.278723 0.000000000000000e+00 1634890835
1.968290 -0.666388 -2.278723 0.000000000000000e+00 1634890835
0.797682 -0.319597 -0.957506 0.000000000000000e+00 1886740808
1.754620 -0.940766 -2.278723 0.000000000000000e+00 1634890835
1.680698 -1.026930 -2.278723 0.000000000000000e+00 1634890835
1.935277 -0.654067 -2.278723 0.000000000000000e+00 1634890835
0.785811 -0.314588 -0.959661 0.000000000000000e+00 1886740808
0.751062 -0.402982 -0.993125 0.000000000000000e+00 1886740808
1.649973 -1.009554 -2.278723 0.000000000000000e+00 1634890835
1.902759 -0.641931 -2.278723 0.000000000000000e+00 1634890835
0.776732 -0.310699 -0.965106 0.000000000000000e+00 1886740808
1.692475 -0.908758 -2.278723 0.000000000000000e+00 1634890835
1.619714 -0.992441 -2.278723 0.000000000000000e+00 1634890835
0.796758 -0.268312 -0.970530 0.000000000000000e+00 1886740808
0.769656 -0.307612 -0.973023 0.000000000000000e+00 1886740808
1.662095 -0.893112 -2.278723 0.000000000000000e+00 1634890835
1.589904 -0.975582 -2.278723 0.000000000000000e+00 1634890835
0.785169 -0.263918 -0.972832 0.000000000000000e+00 1886740808
0.764880 -0.305443 -0.983926 0.000000000000000e+00 1886740808
1.632159 -0.877693 -2.278723 0.000000000000000e+00 1634890835
1.560530 -0.958971 -2.278723 0.000000000000000e+00 1634890835
0.776223 -0.260416 -0.978304 0.000000000000000e+00 1886740808
0.765620 -0.305472 -1.002185 0.000000000000000e+00 1886740808
1.602651 -0.862497 -2.278723 0.000000000000000e+00 1634890835
1.531579 -0.942598 -2.278723 0.000000000000000e+00 1634890835
0.769283 -0.257587 -0.986298 0.000000000000000e+00 1886740808
1.710669 -0.681928 -2.278723 0.000000000000000e+00 1634890835
1.573557 -0.847512 -2.278723 0.000000000000000e+00 1634890835
1.503035 -0.926457 -2.278723 0.000000000000000e+00 1634890835
0.764663 -0.255533 -0.997358 0.000000000000000e+00 1886740808
1.680922 -0.669461 -2.278723 0.000000000000000e+00 1634890835
1.544867 -0.832736 -2.278723 0.000000000000000e+00 1634890835
1.474887 -0.910539 -2.278723 0.000000000000000e+00 1634890835
0.766230 -0.255536 -1.016778 0.000000000000000e+00 1886740808
0.744047 -0.296057 -1.026581 0.000000000000000e+00 1886740808
1.516565 -0.818160 -2.278723 0.000000000000000e+00 1634890835
1.447122 -0.894837 -2.278723 0.000000000000000e+00 1634890835
1.687755 -0.561695 -2.278723 0.000000000000000e+00 1634890835
1.622621 -0.645027 -2.278723 0.000000000000000e+00 1634890835
1.488640 -0.803777 -2.278723 0.000000000000000e+00 1634890835
1.419726 -0.879346 -2.278723 0.000000000000000e+00 1634890835
0.752066 -0.249760 -1.033201 0.000000000000000e+00 1886740808
1.594044 -0.633051 -2.278723 0.000000000000000e+00 1634890835
1.461080 -0.789586 -2.278723 0.000000000000000e+00 1634890835
1.392689 -0.864058 -2.278723 0.000000000000000e+00 1634890835
1.629980 -0.540136 -2.278723 0.000000000000000e+00 1634890835
1.565835 -0.621228 -2.278723 0.000000000000000e+00 1634890835
1.433875 -0.775574 -2.278723 0.000000000000000e+00 1634890835
1.366002 -0.848967 -2.278723 0.000000000000000e+00 1634890835
1.601639 -0.529562 -2.278723 0.000000000000000e+00 1634890835
1.537979 -0.609554 -2.278723 0.000000000000000e+00 1634890835
1.407012 -0.761739 -2.278723 0.000000000000000e+00 1634890835
1.339651 -0.834066 -2.278723 0.000000000000000e+00 1634890835
1.573650 -0.519119 -2.278723 0.000000000000000e+00 1634890835
1.510468 -0.598025 -2.278723 0.000000000000000e+00 1634890835
1.380482 -0.748075 -2.278723 0.000000000000000e+00 1634890835
1.313626 -0.819350 -2.278723 0.000000000000000e+00 1634890835
1.546002 -0.508802 -2.278723 0.000000000000000e+00 1634890835
1.483293 -0.586635 -2.278723 0.000000000000000e+00 1634890835
1.354275 -0.734579 -2.278723 0.000000000000000e+00 1634890835
1.287918 -0.804814 -2.278723 0.000000000000000e+00 1634890835
1.518683 -0.498609 -2.278723 0.000000000000000e+00 1634890835
1.456441 -0.575382 -2.278723 0.000000000000000e+00 1634890835
1.328380 -0.721243 -2.278724 0.000000000000000e+00 1634890835
1.262517 -0.790451 -2.278723 0.000000000000000e+00 1634890835
1.491686 -0.488534 -2.278723 0.000000000000000e+00 1634890835
1.429904 -0.564261 -2.278723 0.000000000000000e+00 1634890835
1.302789 -0.708063 -2.278723 0.000000000000000e+00 1634890835
1.237414 -0.776257 -2.278724 0.000000000000000e+00 1634890835
1.464998 -0.478578 -2.278723 0.000000000000000e+00 1634890835
1.403671 -0.553268 -2.278723 0.000000000000000e+00 1634890835
1.277490 -0.695034 -2.278723 0.000000000000000e+00 1634890835
1.212599 -0.762226 -2.278723 0.000000000000000e+00 1634890835
1.438614 -0.468733 -2.278723 0.000000000000000e+00 1634890835
1.377735 -0.542398 -2.278723 0.000000000000000e+00 1634890835
1.252478 -0.682153 -2.278723 0.000000000000000e+00 1634890835
1.188064 -0.748352 -2.278723 0.000000000000000e+00 1634890835
1.412520 -0.458998 -2.278724 0.000000000000000e+00 1634890835
1.352086 -0.531649 -2.278723 0.000000000000000e+00 1634890835
1.227741 -0.669412 -2.278723 0.000000000000000e+00 1634890835
1.163799 -0.734633 -2.278723 0.000000000000000e+00 1634890835
1.386711 -0.449370 -2.278723 0.000000000000000e+00 1634890835
1.326715 -0.521016 -2.278723 0.000000000000000e+00 1634890835
1.203273 -0.656812 -2.278723 0.000000000000000e+00 1634890835
1.139797 -0.721063 -2.278723 0.000000000000000e+00 1634890835
1.361178 -0.439844 -2.278723 0.000000000000000e+00 1634890835
1.301615 -0.510497 -2.278723 0.000000000000000e+00 1634890835
1.179064 -0.644344 -2.278723 0.000000000000000e+00 1634890835
1.116050 -0.707637 -2.278723 0.000000000000000e+00 1634890835
1.335913 -0.430416 -2.278723 0.000000000000000e+00 1634890835
1.276777 -0.500088 -2.278723 0.000000000000000e+00 1634890835
1.155108 -0.632008 -2.278723 0.000000000000000e+00 1634890835
1.092551 -0.694349 -2.278723 0.000000000000000e+00 1634890835
1.310907 -0.421087 -2.278723 0.000000000000000e+00 1634890835
1.252194 -0.489785 -2.278723 0.000000000000000e+00 1634890835
1.131396 -0.619795 -2.278723 0.000000000000000e+00 1634890835
1.069291 -0.681199 -2.278723 0.000000000000000e+00 1634890835
1.286154 -0.411853 -2.278723 0.000000000000000e+00 1634890835
1.227858 -0.479587 -2.278723 0.000000000000000e+00 1634890835
1.107922 -0.607706 -2.278723 0.000000000000000e+00 1634890835
1.046264 -0.668180 -2.278723 0.000000000000000e+00 1634890835
1.261646 -0.402709 -2.278723 0.000000000000000e+00 1634890835
1.203762 -0.469489 -2.278723 0.000000000000000e+00 1634890835
1.084678 -0.595736 -2.278723 0.000000000000000e+00 1634890835
1.023463 -0.655288 -2.278723 0.000000000000000e+00 1634890835
1.237374 -0.393656 -2.278723 0.000000000000000e+00 1634890835
1.179898 -0.459489 -2.278723 0.000000000000000e+00 1634890835
1.061657 -0.583881 -2.278723 0.000000000000000e+00 1634890835
1.000879 -0.642521 -2.278723 0.000000000000000e+00 1634890835
1.213335 -0.384687 -2.278723 0.000000000000000e+00 1634890835
1.156260 -0.449584 -2.278723 0.000000000000000e+00 1634890835
1.038853 -0.572137 -2.278723 0.000000000000000e+00 1634890835
0.978508 -0.629873 -2.278723 0.000000000000000e+00 1634890835
1.189518 -0.375802 -2.278723 0.000000000000000e+00 1634890835
1.132842 -0.439770 -2.278723 0.000000000000000e+00 1634890835
1.016259 -0.560500 -2.278723 0.000000000000000e+00 1634890835
0.956342 -0.617342 -2.278723 0.000000000000000e+00 1634890835
1.165919 -0.366998 -2.278723 0.000000000000000e+00 1634890835
1.109635 -0.430045 -2.278723 0.000000000000000e+00 1634890835
0.993867 -0.548970 -2.278723 0.000000000000000e+00 1634890835
0.934375 -0.604922 -2.278723 0.000000000000000e+00 1634890835
1.142531 -0.358273 -2.278723 0.000000000000000e+00 1634890835
1.086636 -0.420406 -2.278723 0.000000000000000e+00 1634890835
0.971674 -0.537540 -2.278723 0.000000000000000e+00 1634890835
0.912603 -0.592613 -2.278723 0.000000000000000e+00 1634890835
1.119347 -0.349625 -2.278723 0.000000000000000e+00 1634890835
1.063837 -0.410852 -2.278723 0.000000000000000e+00 1634890835
0.949673 -0.526210 -2.278723 0.000000000000000e+00 1634890835
0.891016 -0.580410 -2.278723 0.000000000000000e+00 1634890835
1.096362 -0.341050 -2.278723 0.000000000000000e+00 1634890835
1.041232 -0.401379 -2.278723 0.000000000000000e+00 1634890835
0.927857 -0.514975 -2.278723 0.000000000000000e+00 1634890835
0.869611 -0.568308 -2.278723 0.000000000000000e+00 1634890835
1.073570 -0.332549 -2.278724 0.000000000000000e+00 1634890835
1.018815 -0.391985 -2.278723 0.000000000000000e+00 1634890835
0.906220 -0.503833 -2.278723 0.000000000000000e+00 1634890835
0.848383 -0.556307 -2.278723 0.000000000000000e+00 1634890835
1.050964 -0.324116 -2.278723 0.000000000000000e+00 1634890835
0.996581 -0.382668 -2.278723 0.000000000000000e+00 1634890835
0.884760 -0.492781 -2.278723 0.000000000000000e+00 1634890835
0.827325 -0.544403 -2.278723 0.000000000000000e+00 1634890835
1.028541 -0.315752 -2.278723 0.000000000000000e+00 1634890835
0.974525 -0.373424 -2.278723 0.000000000000000e+00 1634890835
0.863468 -0.481816 -2.278723 0.000000000000000e+00 1634890835
0.451010 -0.297860 -1.274411 0.000000000000000e+00 1936876886
1.006293 -0.307452 -2.278723 0.000000000000000e+00 1634890835
0.952640 -0.364254 -2.278723 0.000000000000000e+00 1634890835
0.842339 -0.470936 -2.278723 0.000000000000000e+00 1634890835
0.433312 -0.287260 -1.256713 0.000000000000000e+00 1936876886
0.984216 -0.299218 -2.278723 0.000000000000000e+00 1634890835
0.930921 -0.355153 -2.278723 0.000000000000000e+00 1634890835
0.821370 -0.460137 -2.278723 0.000000000000000e+00 1634890835
0.421228 -0.280355 -1.254523 0.000000000000000e+00 1936876886
0.962303 -0.291044 -2.278723 0.000000000000000e+00 1634890835
0.909365 -0.346118 -2.278723 0.000000000000000e+00 1634890835
0.445941 -0.250343 -1.269342 0.000000000000000e+00 1936876886
0.335126 -0.223970 -1.025467 0.000000000000000e+00 1953264973
0.940552 -0.282930 -2.278723 0.000000000000000e+00 1634890835
0.887964 -0.337150 -2.278723 0.000000000000000e+00 1634890835
0.428905 -0.241307 -1.253204 0.000000000000000e+00 1936876886
0.306471 -0.205703 -0.964041 0.000000000000000e+00 1953264973
0.495093 -0.148090 -1.227674 0.000000000000000e+00 1936876886
0.866716 -0.328246 -2.278723 0.000000000000000e+00 1634890835
0.358553 -0.202188 -1.075956 0.000000000000000e+00 1953264973
0.281221 -0.189607 -0.909916 0.000000000000000e+00 1953264973
0.483539 -0.143780 -1.227674 0.000000000000000e+00 1936876886
0.845614 -0.319402 -2.278723 0.000000000000000e+00 1634890835
0.326693 -0.184663 -1.007390 0.000000000000000e+00 1953264973
0.258801 -0.175315 -0.861853 0.000000000000000e+00 1953264973
0.472063 -0.139500 -1.227674 0.000000000000000e+00 1936876886
0.824654 -0.310619 -2.278723 0.000000000000000e+00 1634890835
0.299053 -0.169463 -0.948139 0.000000000000000e+00 1953264973
0.238755 -0.162536 -0.818882 0.000000000000000e+00 1953264973
