# .PCD v0.7 - Point Cloud Data file format
VERSION 0.7
FIELDS x y z rgb label
SIZE 4 4 4 4 4
TYPE F F F F U
COUNT 1 1 1 1 1
WIDTH 535
HEIGHT 1
VIEWPOINT 0 0 0 1 0 0 0
POINTS 535
DATA ascii
36.858784 -18.825092 10.283666 0.000000000000000e+00 1954047316
36.020752 -20.076815 9.830971 0.000000000000000e+00 1954047316
35.401737 -13.161814 -2.249221 0.000000000000000e+00 1851878480
29.353739 -10.904987 -2.131634 0.000000000000000e+00 1851878480
29.077524 -12.158746 -2.044847 0.000000000000000e+00 1851878480
27.396709 -14.142330 -1.754938 0.000000000000000e+00 1851878480
26.428848 -15.014225 -1.585400 0.000000000000000e+00 1851878480
26.672190 -9.901256 -2.179429 0.000000000000000e+00 1851878480
26.243076 -10.969664 -2.091438 0.000000000000000e+00 1851878480
24.948614 -12.882599 -1.847431 0.000000000000000e+00 1851878480
24.302197 -13.814213 -1.709146 0.000000000000000e+00 1851878480
24.105906 -8.941799 -2.189158 0.000000000000000e+00 1851878480
24.246487 -10.131525 -2.159791 0.000000000000000e+00 1851878480
23.158182 -11.961782 -1.946579 0.000000000000000e+00 1851878480
22.722046 -12.923647 -1.833339 0.000000000000000e+00 1851878480
22.073036 -8.181493 -2.205702 0.000000000000000e+00 1851878480
22.171896 -9.261398 -2.183265 0.000000000000000e+00 1851878480
21.772467 -11.249526 -2.048286 0.000000000000000e+00 1851878480
21.510885 -12.242013 -1.958749 0.000000000000000e+00 1851878480
20.420975 -7.563380 -2.226962 0.000000000000000e+00 1851878480
20.491808 -8.556588 -2.210588 0.000000000000000e+00 1851878480
20.615345 -10.654960 -2.146350 0.000000000000000e+00 1851878480
20.331854 -11.577884 -2.062659 0.000000000000000e+00 1851878480
18.929333 -7.005559 -2.237289 0.000000000000000e+00 1851878480
19.010145 -7.935105 -2.229858 0.000000000000000e+00 1851878480
19.361284 -10.009925 -2.210471 0.000000000000000e+00 1851878480
19.132887 -10.901604 -2.140224 0.000000000000000e+00 1851878480
17.577671 -6.500337 -2.238439 0.000000000000000e+00 1851878480
17.637159 -7.359398 -2.235269 0.000000000000000e+00 1851878480
17.894041 -9.254235 -2.223243 0.000000000000000e+00 1851878480
17.984455 -10.253348 -2.199394 0.000000000000000e+00 1851878480
16.396894 -6.059028 -2.238438 0.000000000000000e+00 1851878480
16.435163 -6.855422 -2.238343 0.000000000000000e+00 1851878480
16.575062 -8.574784 -2.226719 0.000000000000000e+00 1851878480
16.724472 -9.540690 -2.220190 0.000000000000000e+00 1851878480
15.362927 -5.672594 -2.238439 0.000000000000000e+00 1851878480
15.366798 -6.407506 -2.238438 0.000000000000000e+00 1851878480
15.441323 -7.990767 -2.230668 0.000000000000000e+00 1851878480
15.510114 -8.853234 -2.221556 0.000000000000000e+00 1851878480
14.449850 -5.331330 -2.238438 0.000000000000000e+00 1851878480
14.426395 -6.013245 -2.238439 0.000000000000000e+00 1851878480
14.431395 -7.470483 -2.231163 0.000000000000000e+00 1851878480
14.452959 -8.254748 -2.222019 0.000000000000000e+00 1851878480
13.637511 -5.027731 -2.238439 0.000000000000000e+00 1851878480
13.592609 -5.663690 -2.238438 0.000000000000000e+00 1851878480
13.573659 -7.028688 -2.236600 0.000000000000000e+00 1851878480
13.563424 -7.751348 -2.228185 0.000000000000000e+00 1851878480
12.910007 -4.755836 -2.238439 0.000000000000000e+00 1851878480
12.848188 -5.351591 -2.238438 0.000000000000000e+00 1851878480
12.793028 -6.626554 -2.238437 0.000000000000000e+00 1851878480
12.774879 -7.305100 -2.233652 0.000000000000000e+00 1851878480
12.254610 -4.510887 -2.238438 0.000000000000000e+00 1851878480
12.179392 -5.071208 -2.238438 0.000000000000000e+00 1851878480
12.086508 -6.262575 -2.238438 0.000000000000000e+00 1851878480
12.070437 -6.906455 -2.238438 0.000000000000000e+00 1851878480
11.661045 -4.289052 -2.238438 0.000000000000000e+00 1851878480
11.575189 -4.817897 -2.238438 0.000000000000000e+00 1851878480
11.452118 -5.935751 -2.238438 0.000000000000000e+00 1851878480
11.415785 -6.535826 -2.238438 0.000000000000000e+00 1851878480
11.120872 -4.087171 -2.238438 0.000000000000000e+00 1851878480
11.026561 -4.587885 -2.238438 0.000000000000000e+00 1851878480
10.879250 -5.640619 -2.238438 0.000000000000000e+00 1851878480
10.826600 -6.202271 -2.238438 0.000000000000000e+00 1851878480
10.627131 -3.902645 -2.238439 0.000000000000000e+00 1851878480
10.526112 -4.378077 -2.238438 0.000000000000000e+00 1851878480
10.359295 -5.372750 -2.238438 0.000000000000000e+00 1851878480
10.293451 -5.900441 -2.238438 0.000000000000000e+00 1851878480
10.173995 -3.733299 -2.238438 0.000000000000000e+00 1851878480
10.067683 -4.185883 -2.238438 0.000000000000000e+00 1851878480
9.885152 -5.128492 -2.238439 0.000000000000000e+00 1851878480
9.808618 -5.625967 -2.238438 0.000000000000000e+00 1851878480
9.756625 -3.577318 -2.238438 0.000000000000000e+00 1851878480
9.646153 -4.009161 -2.238438 0.000000000000000e+00 1851878480
9.450990 -4.904821 -2.238439 0.000000000000000e+00 1851878480
9.365773 -5.375264 -2.238438 0.000000000000000e+00 1851878480
9.370881 -3.433159 -2.238438 0.000000000000000e+00 1851878480
9.257174 -3.846085 -2.238438 0.000000000000000e+00 1851878480
9.051878 -4.699211 -2.238439 0.000000000000000e+00 1851878480
8.959618 -5.145333 -2.238439 0.000000000000000e+00 1851878480
9.013250 -3.299504 -2.238438 0.000000000000000e+00 1851878480
8.897068 -3.695114 -2.238438 0.000000000000000e+00 1851878480
8.683692 -4.509530 -2.238438 0.000000000000000e+00 1851878480
8.585715 -4.933659 -2.238438 0.000000000000000e+00 1851878480
8.680714 -3.175236 -2.238438 0.000000000000000e+00 1851878480
8.562681 -3.554927 -2.238438 0.000000000000000e+00 1851878480
8.342911 -4.333970 -2.238438 0.000000000000000e+00 1851878480
8.240316 -4.738127 -2.238438 0.000000000000000e+00 1851878480
8.370685 -3.059377 -2.238438 0.000000000000000e+00 1851878480
8.251312 -3.424389 -2.238438 0.000000000000000e+00 1851878480
8.026536 -4.170987 -2.238437 0.000000000000000e+00 1851878480
7.920232 -4.556929 -2.238437 0.000000000000000e+00 1851878480
8.080902 -2.951083 -2.238438 0.000000000000000e+00 1851878480
7.960611 -3.302519 -2.238437 0.000000000000000e+00 1851878480
7.731999 -4.019247 -2.238438 0.000000000000000e+00 1851878480
7.622732 -4.388512 -2.238438 0.000000000000000e+00 1851878480
7.809416 -2.849624 -2.238437 0.000000000000000e+00 1851878480
7.688567 -3.188469 -2.238438 0.000000000000000e+00 1851878480
7.457072 -3.877616 -2.238438 0.000000000000000e+00 1851878480
4.196154 -2.417306 -1.278724 1.880790849211783e-38 1684957512
7.554511 -2.754369 -2.238437 0.000000000000000e+00 1851878480
4.246380 -1.760324 -1.278724 1.880790849211783e-38 1684957512
4.112951 -2.139410 -1.278724 1.880790849211783e-38 1684957512
4.048162 -2.333531 -1.278724 1.880790849211783e-38 1684957512
4.178563 -1.522254 -1.278724 1.880790849211783e-38 1684957512
4.109356 -1.702880 -1.278724 1.880790849211783e-38 1684957512
3.975128 -2.068408 -1.278724 1.880790849211783e-38 1684957512
3.909554 -2.255065 -1.278724 1.880790849211783e-38 1684957512
4.049399 -1.473990 -1.278724 1.880790849211783e-38 1684957512
3.980294 -1.648773 -1.278724 1.880790849211783e-38 1684957512
3.845588 -2.001674 -1.278724 1.880790849211783e-38 1684957512
3.779442 -2.181411 -1.278724 1.880790849211783e-38 1684957512
3.963593 -1.441563 -1.290503 1.880790849211783e-38 1684957512
3.858508 -1.597715 -1.278724 1.880790849211783e-38 1684957512
3.723595 -1.938827 -1.278724 1.880790849211783e-38 1684957512
3.657053 -2.112130 -1.278724 1.880790849211783e-38 1684957512
3.966890 -1.441563 -1.330677 1.880790849211783e-38 1684957512
3.743379 -1.549450 -1.278724 1.880790849211783e-38 1684957512
3.608487 -1.879530 -1.278724 1.880790849211783e-38 1684957512
3.541700 -2.046831 -1.278724 1.880790849211783e-38 1684957512
3.970205 -1.441563 -1.371125 1.880790849211783e-38 1684957512
3.634360 -1.503746 -1.278724 1.880790849211783e-38 1684957512
3.499682 -1.823477 -1.278724 1.880790849211783e-38 1684957512
3.432776 -1.985174 -1.278724 1.880790849211783e-38 1684957512
3.973540 -1.441563 -1.411855 1.880790849211783e-38 1684957512
3.530962 -1.460400 -1.278724 1.880790849211783e-38 1684957512
3.396659 -1.770405 -1.278724 1.880790849211783e-38 1684957512
3.329742 -1.926850 -1.278724 1.880790849211783e-38 1684957512
3.976901 -1.441563 -1.452879 1.880790849211783e-38 1684957512
3.486783 -1.441563 -1.298853 1.880790849211783e-38 1684957512
3.298953 -1.720070 -1.278724 1.880790849211783e-38 1684957512
3.232116 -1.871588 -1.278724 1.880790849211783e-38 1684957512
3.980283 -1.441563 -1.494202 1.880790849211783e-38 1684957512
3.488145 -1.441563 -1.335713 1.880790849211783e-38 1684957512
3.206153 -1.672264 -1.278724 1.880790849211783e-38 1684957512
3.139474 -1.819146 -1.278724 1.880790849211783e-38 1684957512
3.983687 -1.441563 -1.535834 1.880790849211783e-38 1684957512
3.489520 -1.441563 -1.372824 1.880790849211783e-38 1684957512
3.117882 -1.626791 -1.278724 1.880790849211783e-38 1684957512
3.051425 -1.769307 -1.278724 1.880790849211783e-38 1684957512
3.987121 -1.441563 -1.577788 1.880790849211783e-38 1684957512
3.490905 -1.441563 -1.410193 1.880790849211783e-38 1684957512
3.033804 -1.583478 -1.278724 1.880790849211783e-38 1684957512
2.967626 -1.721873 -1.278724 1.880790849211783e-38 1684957512
3.990577 -1.441564 -1.620070 1.880790849211783e-38 1684957512
3.492302 -1.441563 -1.447830 1.880790849211783e-38 1684957512
2.953617 -1.542169 -1.278724 1.880790849211783e-38 1684957512
2.887763 -1.676669 -1.278724 1.880790849211783e-38 1684957512
3.994058 -1.441563 -1.662692 1.880790849211783e-38 1684957512
3.493701 -1.441563 -1.485739 1.880790849211783e-38 1684957512
2.877041 -1.502722 -1.278724 1.880790849211783e-38 1684957512
2.811550 -1.633530 -1.278724 1.880790849211783e-38 1684957512
3.997570 -1.441563 -1.705665 1.880790849211783e-38 1684957512
3.495117 -1.441563 -1.523934 1.880790849211783e-38 1684957512
2.803831 -1.465007 -1.278724 1.880790849211783e-38 1684957512
2.738736 -1.592316 -1.278724 1.880790849211783e-38 1684957512
4.001108 -1.441563 -1.748999 1.880790849211783e-38 1684957512
3.496540 -1.441563 -1.562420 1.880790849211783e-38 1684957512
2.757966 -1.441563 -1.290048 1.880790849211783e-38 1684957512
2.669086 -1.552892 -1.278724 1.880790849211783e-38 1684957512
4.004673 -1.441563 -1.792703 1.880790849211783e-38 1684957512
3.497976 -1.441563 -1.601209 1.880790849211783e-38 1684957512
2.756967 -1.441563 -1.322052 1.880790849211783e-38 1684957512
2.602388 -1.515141 -1.278724 1.880790849211783e-38 1684957512
4.008264 -1.441563 -1.836788 1.880790849211783e-38 1684957512
3.499421 -1.441563 -1.640308 1.880790849211783e-38 1684957512
2.755957 -1.441563 -1.354278 1.880790849211783e-38 1684957512
2.538448 -1.478951 -1.278724 1.880790849211783e-38 1684957512
4.011898 -1.441563 -1.881274 1.880790849211783e-38 1684957512
3.500878 -1.441563 -1.679729 1.880790849211783e-38 1684957512
2.754940 -1.441563 -1.386735 1.880790849211783e-38 1684957512
2.477087 -1.444220 -1.278724 1.880790849211783e-38 1684957512
4.015554 -1.441563 -1.926162 1.880790849211783e-38 1684957512
3.502351 -1.441563 -1.719481 1.880790849211783e-38 1684957512
2.753914 -1.441563 -1.419427 1.880790849211783e-38 1684957512
2.470769 -1.441563 -1.306552 1.880790849211783e-38 1684957512
4.019248 -1.441563 -1.971469 1.880790849211783e-38 1684957512
3.503831 -1.441563 -1.759572 1.880790849211783e-38 1684957512
2.752882 -1.441563 -1.452366 1.880790849211783e-38 1684957512
2.468996 -1.441563 -1.336946 1.880790849211783e-38 1684957512
4.022965 -1.441563 -2.017205 1.880790849211783e-38 1684957512
3.505327 -1.441563 -1.800016 1.880790849211783e-38 1684957512
2.751844 -1.441563 -1.485560 1.880790849211783e-38 1684957512
2.467207 -1.441563 -1.367563 1.880790849211783e-38 1684957512
4.026729 -1.441563 -2.063390 1.880790849211783e-38 1684957512
3.506838 -1.441563 -1.840823 1.880790849211783e-38 1684957512
2.750795 -1.441563 -1.519015 1.880790849211783e-38 1684957512
2.465407 -1.441563 -1.398410 1.880790849211783e-38 1684957512
4.030518 -1.441563 -2.110026 1.880790849211783e-38 1684957512
3.508359 -1.441563 -1.882002 1.880790849211783e-38 1684957512
2.749736 -1.441563 -1.552739 1.880790849211783e-38 1684957512
2.463589 -1.441563 -1.429493 1.880790849211783e-38 1684957512
4.034356 -1.441563 -2.157140 1.880790849211783e-38 1684957512
3.509895 -1.441563 -1.923566 1.880790849211783e-38 1684957512
2.748669 -1.441563 -1.586742 1.880790849211783e-38 1684957512
2.461759 -1.441563 -1.460821 1.880790849211783e-38 1684957512
4.038221 -1.441563 -2.204734 1.880790849211783e-38 1684957512
3.511443 -1.441563 -1.965524 1.880790849211783e-38 1684957512
2.747592 -1.441563 -1.621031 1.880790849211783e-38 1684957512
2.459911 -1.441564 -1.492400 1.880790849211783e-38 1684957512
4.016309 -1.432354 -2.238438 0.000000000000000e+00 1851878480
3.513007 -1.441563 -2.007891 1.880790849211783e-38 1684957512
2.746507 -1.441563 -1.655618 1.880790849211783e-38 1684957512
2.458049 -1.441564 -1.524241 1.880790849211783e-38 1684957512
4.006142 -1.427335 -2.278723 0.000000000000000e+00 1634890835
3.514589 -1.441563 -2.050680 1.880790849211783e-38 1684957512
2.745411 -1.441563 -1.690509 1.880790849211783e-38 1684957512
2.456169 -1.441563 -1.556350 1.880790849211783e-38 1684957512
3.926258 -1.397494 -2.278723 0.000000000000000e+00 1634890835
3.516183 -1.441563 -2.093903 1.880790849211783e-38 1684957512
2.744310 -1.441563 -1.725720 1.880790849211783e-38 1684957512
2.454273 -1.441564 -1.588738 1.880790849211783e-38 1684957512
3.848811 -1.368566 -2.278723 0.000000000000000e+00 1634890835
3.517794 -1.441563 -2.137570 1.880790849211783e-38 1684957512
2.743193 -1.441563 -1.761252 1.880790849211783e-38 1684957512
2.452359 -1.441564 -1.621411 1.880790849211783e-38 1684957512
3.773680 -1.340504 -2.278723 0.000000000000000e+00 1634890835
3.519418 -1.441563 -2.181697 1.880790849211783e-38 1684957512
2.742063 -1.441563 -1.797119 1.880790849211783e-38 1684957512
2.450427 -1.441564 -1.654380 1.880790849211783e-38 1684957512
3.700752 -1.313264 -2.278724 0.000000000000000e+00 1634890835
3.521062 -1.441563 -2.226299 1.880790849211783e-38 1684957512
2.740926 -1.441564 -1.833332 1.880790849211783e-38 1684957512
2.448473 -1.441564 -1.687651 1.880790849211783e-38 1684957512
3.629920 -1.286808 -2.278724 0.000000000000000e+00 1634890835
3.471620 -1.420648 -2.238438 0.000000000000000e+00 1851878480
2.739778 -1.441563 -1.869904 1.880790849211783e-38 1684957512
2.446506 -1.441564 -1.721241 1.880790849211783e-38 1684957512
3.561085 -1.261099 -2.278724 0.000000000000000e+00 1634890835
3.466208 -1.417757 -2.278724 0.000000000000000e+00 1634890835
2.738617 -1.441564 -1.906842 1.880790849211783e-38 1684957512
2.444516 -1.441563 -1.755153 1.880790849211783e-38 1684957512
3.494158 -1.236100 -2.278725 0.000000000000000e+00 1634890835
3.400208 -1.390090 -2.278724 0.000000000000000e+00 1634890835
2.737446 -1.441564 -1.944159 1.880790849211783e-38 1684957512
2.442506 -1.441564 -1.789398 1.880790849211783e-38 1684957512
3.429046 -1.211784 -2.278724 0.000000000000000e+00 1634890835
3.336013 -1.363181 -2.278724 0.000000000000000e+00 1634890835
2.736260 -1.441563 -1.981866 1.880790849211783e-38 1684957512
2.440475 -1.441564 -1.823989 1.880790849211783e-38 1684957512
3.365670 -1.188115 -2.278724 0.000000000000000e+00 1634890835
3.273539 -1.336995 -2.278724 0.000000000000000e+00 1634890835
2.735061 -1.441564 -2.019975 1.880790849211783e-38 1684957512
2.438423 -1.441564 -1.858935 1.880790849211783e-38 1684957512
3.303952 -1.165063 -2.278724 0.000000000000000e+00 1634890835
3.212709 -1.311495 -2.278724 0.000000000000000e+00 1634890835
2.733850 -1.441564 -2.058501 1.880790849211783e-38 1684957512
2.436348 -1.441564 -1.894249 1.880790849211783e-38 1684957512
3.243819 -1.142606 -2.278724 0.000000000000000e+00 1634890835
3.153453 -1.286657 -2.278724 0.000000000000000e+00 1634890835
2.732624 -1.441564 -2.097455 1.880790849211783e-38 1684957512
2.434251 -1.441564 -1.929940 1.880790849211783e-38 1684957512
3.185201 -1.120716 -2.278724 0.000000000000000e+00 1634890835
3.095699 -1.262448 -2.278724 0.000000000000000e+00 1634890835
2.731386 -1.441564 -2.136850 1.880790849211783e-38 1684957512
2.432127 -1.441564 -1.966020 1.880790849211783e-38 1684957512
3.128038 -1.099367 -2.278724 0.000000000000000e+00 1634890835
3.039385 -1.238844 -2.278724 0.000000000000000e+00 1634890835
2.730129 -1.441564 -2.176698 1.880790849211783e-38 1684957512
2.429983 -1.441564 -2.002504 1.880790849211783e-38 1684957512
3.072262 -1.078539 -2.278724 0.000000000000000e+00 1634890835
2.984448 -1.215814 -2.278724 0.000000000000000e+00 1634890835
2.728864 -1.441564 -2.217019 1.880790849211783e-38 1684957512
0.840392 -0.499000 -0.705943 0.000000000000000e+00 1886740808
3.017818 -1.058208 -2.278724 0.000000000000000e+00 1634890835
2.930828 -1.193339 -2.278724 0.000000000000000e+00 1634890835
2.704159 -1.429187 -2.238438 0.000000000000000e+00 1851878480
0.824540 -0.490031 -0.705943 0.000000000000000e+00 1886740808
2.964653 -1.038355 -2.278725 0.000000000000000e+00 1634890835
2.878474 -1.171396 -2.278724 0.000000000000000e+00 1634890835
0.837099 -0.442630 -0.705943 0.000000000000000e+00 1886740808
0.809070 -0.481279 -0.705943 0.000000000000000e+00 1886740808
2.912713 -1.018960 -2.278724 0.000000000000000e+00 1634890835
2.827336 -1.149958 -2.278725 0.000000000000000e+00 1634890835
0.821749 -0.434723 -0.705943 0.000000000000000e+00 1886740808
0.793967 -0.472733 -0.705943 0.000000000000000e+00 1886740808
2.861949 -1.000005 -2.278724 0.000000000000000e+00 1634890835
2.777360 -1.129011 -2.278724 0.000000000000000e+00 1634890835
0.806752 -0.426998 -0.705943 0.000000000000000e+00 1886740808
0.779214 -0.464386 -0.705943 0.000000000000000e+00 1886740808
2.812314 -0.981472 -2.278724 0.000000000000000e+00 1634890835
2.728501 -1.108532 -2.278724 0.000000000000000e+00 1634890835
0.792094 -0.419448 -0.705943 0.000000000000000e+00 1886740808
0.764797 -0.456231 -0.705943 0.000000000000000e+00 1886740808
2.763764 -0.963342 -2.278724 0.000000000000000e+00 1634890835
0.830479 -0.337215 -0.705943 0.000000000000000e+00 1886740808
0.777762 -0.412066 -0.705943 0.000000000000000e+00 1886740808
0.750703 -0.448257 -0.705943 0.000000000000000e+00 1886740808
0.841490 -0.292946 -0.705943 0.000000000000000e+00 1886740808
0.815995 -0.331144 -0.705943 0.000000000000000e+00 1886740808
0.763744 -0.404845 -0.705943 0.000000000000000e+00 1886740808
0.744295 -0.444867 -0.713009 0.000000000000000e+00 1886740808
0.827083 -0.287567 -0.705943 0.000000000000000e+00 1886740808
0.801818 -0.325202 -0.705943 0.000000000000000e+00 1886740808
0.750025 -0.397779 -0.705943 0.000000000000000e+00 1886740808
0.744295 -0.445311 -0.726301 0.000000000000000e+00 1886740808
0.812975 -0.282300 -0.705943 0.000000000000000e+00 1886740808
0.787937 -0.319383 -0.705943 0.000000000000000e+00 1886740808
0.744295 -0.394947 -0.713321 0.000000000000000e+00 1886740808
0.744295 -0.445761 -0.739800 0.000000000000000e+00 1886740808
0.799155 -0.277140 -0.705943 0.000000000000000e+00 1886740808
0.774339 -0.313684 -0.705943 0.000000000000000e+00 1886740808
0.744295 -0.395158 -0.726288 0.000000000000000e+00 1886740808
0.744295 -0.446220 -0.753513 0.000000000000000e+00 1886740808
0.785611 -0.272084 -0.705943 0.000000000000000e+00 1886740808
0.761016 -0.308100 -0.705943 0.000000000000000e+00 1886740808
0.744295 -0.395372 -0.739456 0.000000000000000e+00 1886740808
0.744295 -0.446685 -0.767447 0.000000000000000e+00 1886740808
0.772336 -0.267127 -0.705943 0.000000000000000e+00 1886740808
0.747956 -0.302626 -0.705943 0.000000000000000e+00 1886740808
0.744295 -0.395589 -0.752833 0.000000000000000e+00 1886740808
0.744295 -0.447158 -0.781609 0.000000000000000e+00 1886740808
0.759317 -0.262267 -0.705943 0.000000000000000e+00 1886740808
0.744295 -0.300956 -0.714725 0.000000000000000e+00 1886740808
0.744295 -0.395810 -0.766426 0.000000000000000e+00 1886740808
0.744295 -0.447639 -0.796009 0.000000000000000e+00 1886740808
0.746546 -0.257499 -0.705943 0.000000000000000e+00 1886740808
0.744295 -0.300765 -0.727149 0.000000000000000e+00 1886740808
0.744295 -0.396034 -0.780241 0.000000000000000e+00 1886740808
2.092191 -1.259677 -2.278725 0.000000000000000e+00 1634890835
0.744295 -0.256362 -0.715831 0.000000000000000e+00 1886740808
0.744295 -0.300570 -0.739767 0.000000000000000e+00 1886740808
0.744295 -0.396263 -0.794287 0.000000000000000e+00 1886740808
2.054432 -1.238318 -2.278725 0.000000000000000e+00 1634890835
0.744295 -0.255996 -0.728032 0.000000000000000e+00 1886740808
0.744295 -0.300373 -0.752585 0.000000000000000e+00 1886740808
2.097576 -1.117403 -2.278725 0.000000000000000e+00 1634890835
2.017380 -1.217359 -2.278725 0.000000000000000e+00 1634890835
0.744295 -0.255624 -0.740424 0.000000000000000e+00 1886740808
0.744295 -0.300172 -0.765611 0.000000000000000e+00 1886740808
2.060542 -1.098330 -2.278725 0.000000000000000e+00 1634890835
0.796275 -0.481053 -0.915942 0.000000000000000e+00 1886740808
0.744295 -0.255246 -0.753013 0.000000000000000e+00 1886740808
0.744295 -0.299969 -0.778850 0.000000000000000e+00 1886740808
2.024175 -1.079598 -2.278725 0.000000000000000e+00 1634890835
0.784636 -0.474577 -0.919124 0.000000000000000e+00 1886740808
0.744295 -0.254862 -0.765806 0.000000000000000e+00 1886740808
0.744295 -0.299762 -0.792310 0.000000000000000e+00 1886740808
1.988451 -1.061198 -2.278725 0.000000000000000e+00 1634890835
0.775674 -0.469714 -0.925310 0.000000000000000e+00 1886740808
0.744295 -0.254473 -0.778810 0.000000000000000e+00 1886740808
2.104270 -0.846890 -2.278724 0.000000000000000e+00 1634890835
0.797388 -0.425818 -0.930214 0.000000000000000e+00 1886740808
0.768824 -0.466130 -0.933991 0.000000000000000e+00 1886740808
0.744295 -0.254076 -0.792031 0.000000000000000e+00 1886740808
2.068528 -0.831911 -2.278724 0.000000000000000e+00 1634890835
0.785519 -0.419748 -0.932845 0.000000000000000e+00 1886740808
0.764551 -0.464112 -0.945881 0.000000000000000e+00 1886740808
0.744295 -0.253673 -0.805478 0.000000000000000e+00 1886740808
2.033382 -0.817180 -2.278725 0.000000000000000e+00 1634890835
0.776432 -0.415161 -0.938649 0.000000000000000e+00 1886740808
1.808580 -1.099258 -2.278725 0.000000000000000e+00 1634890835
2.070470 -0.704525 -2.278724 0.000000000000000e+00 1634890835
1.998812 -0.802691 -2.278725 0.000000000000000e+00 1634890835
0.769418 -0.411685 -0.946932 0.000000000000000e+00 1886740808
1.775829 -1.080734 -2.278724 0.000000000000000e+00 1634890835
2.035870 -0.691611 -2.278724 0.000000000000000e+00 1634890835
1.964798 -0.788435 -2.278724 0.000000000000000e+00 1634890835
0.764807 -0.409493 -0.958245 0.000000000000000e+00 1886740808
0.749057 -0.456456 -0.978943 0.000000000000000e+00 1886740808
2.001816 -0.678901 -2.278724 0.000000000000000e+00 1634890835
1.931322 -0.774404 -2.278725 0.000000000000000e+00 1634890835
0.767174 -0.411043 -0.978593 0.000000000000000e+00 1886740808
1.711906 -1.044580 -2.278725 0.000000000000000e+00 1634890835
1.968291 -0.666388 -2.278724 0.000000000000000e+00 1634890835
0.797682 -0.319597 -0.957506 0.000000000000000e+00 1886740808
1.754621 -0.940767 -2.278725 0.000000000000000e+00 1634890835
1.680699 -1.026931 -2.278725 0.000000000000000e+00 1634890835
1.935278 -0.654067 -2.278724 0.000000000000000e+00 1634890835
0.785811 -0.314588 -0.959662 0.000000000000000e+00 1886740808
0.751062 -0.402982 -0.993125 0.000000000000000e+00 1886740808
1.649974 -1.009555 -2.278724 0.000000000000000e+00 1634890835
1.902760 -0.641932 -2.278724 0.000000000000000e+00 1634890835
0.776732 -0.310699 -0.965106 0.000000000000000e+00 1886740808
1.692476 -0.908758 -2.278725 0.000000000000000e+00 1634890835
1.619715 -0.992441 -2.278724 0.000000000000000e+00 1634890835
0.796758 -0.268312 -0.970530 0.000000000000000e+00 1886740808
0.769656 -0.307612 -0.973023 0.000000000000000e+00 1886740808
1.662096 -0.893113 -2.278725 0.000000000000000e+00 1634890835
1.589905 -0.975583 -2.278725 0.000000000000000e+00 1634890835
0.785169 -0.263918 -0.972832 0.000000000000000e+00 1886740808
0.764881 -0.305443 -0.983927 0.000000000000000e+00 1886740808
1.632160 -0.877694 -2.278725 0.000000000000000e+00 1634890835
1.560532 -0.958972 -2.278725 0.000000000000000e+00 1634890835
0.776223 -0.260416 -0.978304 0.000000000000000e+00 1886740808
0.765621 -0.305472 -1.002185 0.000000000000000e+00 1886740808
1.602652 -0.862497 -2.278725 0.000000000000000e+00 1634890835
1.531580 -0.942599 -2.278725 0.000000000000000e+00 1634890835
0.769283 -0.257587 -0.986298 0.000000000000000e+00 1886740808
1.710670 -0.681928 -2.278724 0.000000000000000e+00 1634890835
1.573559 -0.847513 -2.278725 0.000000000000000e+00 1634890835
1.503036 -0.926457 -2.278725 0.000000000000000e+00 1634890835
0.764663 -0.255533 -0.997358 0.000000000000000e+00 1886740808
1.680923 -0.669461 -2.278724 0.000000000000000e+00 1634890835
1.544868 -0.832736 -2.278724 0.000000000000000e+00 1634890835
1.474888 -0.910539 -2.278725 0.000000000000000e+00 1634890835
0.766230 -0.255536 -1.016778 0.000000000000000e+00 1886740808
0.744047 -0.296057 -1.026581 0.000000000000000e+00 1886740808
1.516566 -0.818160 -2.278725 0.000000000000000e+00 1634890835
1.447122 -0.894838 -2.278725 0.000000000000000e+00 1634890835
1.687757 -0.561695 -2.278725 0.000000000000000e+00 1634890835
1.622622 -0.645028 -2.278725 0.000000000000000e+00 1634890835
1.488641 -0.803778 -2.278724 0.000000000000000e+00 1634890835
1.419727 -0.879346 -2.278724 0.000000000000000e+00 1634890835
0.752066 -0.249760 -1.033201 0.000000000000000e+00 1886740808
1.594045 -0.633051 -2.278724 0.000000000000000e+00 1634890835
1.461080 -0.789586 -2.278724 0.000000000000000e+00 1634890835
1.392690 -0.864059 -2.278724 0.000000000000000e+00 1634890835
1.629981 -0.540137 -2.278725 0.000000000000000e+00 1634890835
1.565836 -0.621228 -2.278724 0.000000000000000e+00 1634890835
1.433876 -0.775574 -2.278724 0.000000000000000e+00 1634890835
1.366003 -0.848967 -2.278724 0.000000000000000e+00 1634890835
1.601640 -0.529563 -2.278725 0.000000000000000e+00 1634890835
1.537980 -0.609555 -2.278725 0.000000000000000e+00 1634890835
1.407013 -0.761740 -2.278725 0.000000000000000e+00 1634890835
1.339652 -0.834066 -2.278724 0.000000000000000e+00 1634890835
1.573650 -0.519119 -2.278724 0.000000000000000e+00 1634890835
1.510469 -0.598025 -2.278724 0.000000000000000e+00 1634890835
1.380483 -0.748076 -2.278725 0.000000000000000e+00 1634890835
1.313627 -0.819351 -2.278725 0.000000000000000e+00 1634890835
1.546003 -0.508802 -2.278724 0.000000000000000e+00 1634890835
1.483294 -0.586635 -2.278724 0.000000000000000e+00 1634890835
1.354276 -0.734580 -2.278725 0.000000000000000e+00 1634890835
1.287919 -0.804814 -2.278724 0.000000000000000e+00 1634890835
1.518684 -0.498609 -2.278724 0.000000000000000e+00 1634890835
1.456442 -0.575382 -2.278724 0.000000000000000e+00 1634890835
1.328381 -0.721243 -2.278725 0.000000000000000e+00 1634890835
1.262519 -0.790451 -2.278725 0.000000000000000e+00 1634890835
1.491687 -0.488534 -2.278724 0.000000000000000e+00 1634890835
1.429905 -0.564261 -2.278725 0.000000000000000e+00 1634890835
1.302790 -0.708063 -2.278724 0.000000000000000e+00 1634890835
1.237415 -0.776258 -2.278725 0.000000000000000e+00 1634890835
1.464999 -0.478578 -2.278725 0.000000000000000e+00 1634890835
1.403672 -0.553268 -2.278724 0.000000000000000e+00 1634890835
1.277492 -0.695035 -2.278725 0.000000000000000e+00 1634890835
1.212599 -0.762227 -2.278724 0.000000000000000e+00 1634890835
1.438614 -0.468734 -2.278725 0.000000000000000e+00 1634890835
1.377736 -0.542399 -2.278725 0.000000000000000e+00 1634890835
1.252479 -0.682153 -2.278724 0.000000000000000e+00 1634890835
1.188065 -0.748353 -2.278724 0.000000000000000e+00 1634890835
1.412521 -0.458998 -2.278725 0.000000000000000e+00 1634890835
1.352086 -0.531649 -2.278724 0.000000000000000e+00 1634890835
1.227742 -0.669413 -2.278725 0.000000000000000e+00 1634890835
1.163800 -0.734633 -2.278725 0.000000000000000e+00 1634890835
1.386712 -0.449370 -2.278725 0.000000000000000e+00 1634890835
1.326716 -0.521016 -2.278724 0.000000000000000e+00 1634890835
1.203273 -0.656813 -2.278725 0.000000000000000e+00 1634890835
1.139798 -0.721064 -2.278725 0.000000000000000e+00 1634890835
1.361179 -0.439844 -2.278724 0.000000000000000e+00 1634890835
1.301616 -0.510497 -2.278725 0.000000000000000e+00 1634890835
1.179065 -0.644345 -2.278725 0.000000000000000e+00 1634890835
1.116051 -0.707637 -2.278725 0.000000000000000e+00 1634890835
1.335914 -0.430416 -2.278725 0.000000000000000e+00 1634890835
1.276777 -0.500088 -2.278724 0.000000000000000e+00 1634890835
1.155109 -0.632008 -2.278725 0.000000000000000e+00 1634890835
1.092552 -0.694350 -2.278725 0.000000000000000e+00 1634890835
1.310908 -0.421088 -2.278725 0.000000000000000e+00 1634890835
1.252194 -0.489786 -2.278725 0.000000000000000e+00 1634890835
1.131397 -0.619796 -2.278725 0.000000000000000e+00 1634890835
1.069292 -0.681200 -2.278725 0.000000000000000e+00 1634890835
1.286155 -0.411853 -2.278725 0.000000000000000e+00 1634890835
1.227858 -0.479587 -2.278725 0.000000000000000e+00 1634890835
1.107923 -0.607707 -2.278725 0.000000000000000e+00 1634890835
1.046265 -0.668180 -2.278725 0.000000000000000e+00 1634890835
1.261647 -0.402710 -2.278725 0.000000000000000e+00 1634890835
1.203763 -0.469489 -2.278725 0.000000000000000e+00 1634890835
1.084679 -0.595736 -2.278725 0.000000000000000e+00 1634890835
1.023463 -0.655289 -2.278725 0.000000000000000e+00 1634890835
1.237375 -0.393656 -2.278724 0.000000000000000e+00 1634890835
1.179898 -0.459489 -2.278725 0.000000000000000e+00 1634890835
1.061657 -0.583881 -2.278724 0.000000000000000e+00 1634890835
1.000880 -0.642521 -2.278725 0.000000000000000e+00 1634890835
1.213335 -0.384687 -2.278725 0.000000000000000e+00 1634890835
1.156261 -0.449584 -2.278724 0.000000000000000e+00 1634890835
1.038853 -0.572137 -2.278725 0.000000000000000e+00 1634890835
0.978509 -0.629873 -2.278725 0.000000000000000e+00 1634890835
1.189519 -0.375802 -2.278725 0.000000000000000e+00 1634890835
1.132843 -0.439770 -2.278724 0.000000000000000e+00 1634890835
1.016259 -0.560501 -2.278724 0.000000000000000e+00 1634890835
0.956343 -0.617343 -2.278725 0.000000000000000e+00 1634890835
1.165919 -0.366998 -2.278725 0.000000000000000e+00 1634890835
1.109636 -0.430045 -2.278724 0.000000000000000e+00 1634890835
0.993868 -0.548970 -2.278724 0.000000000000000e+00 1634890835
0.934376 -0.604923 -2.278725 0.000000000000000e+00 1634890835
1.142532 -0.358273 -2.278725 0.000000000000000e+00 1634890835
1.086637 -0.420406 -2.278725 0.000000000000000e+00 1634890835
0.971675 -0.537541 -2.278725 0.000000000000000e+00 1634890835
0.912603 -0.592613 -2.278725 0.000000000000000e+00 1634890835
1.119348 -0.349625 -2.278724 0.000000000000000e+00 1634890835
1.063838 -0.410852 -2.278725 0.000000000000000e+00 1634890835
0.949674 -0.526210 -2.278725 0.000000000000000e+00 1634890835
0.891017 -0.580410 -2.278725 0.000000000000000e+00 1634890835
1.096363 -0.341051 -2.278725 0.000000000000000e+00 1634890835
1.041232 -0.401379 -2.278725 0.000000000000000e+00 1634890835
0.927857 -0.514976 -2.278725 0.000000000000000e+00 1634890835
0.869612 -0.568309 -2.278725 0.000000000000000e+00 1634890835
1.073570 -0.332549 -2.278725 0.000000000000000e+00 1634890835
1.018816 -0.391985 -2.278725 0.000000000000000e+00 1634890835
0.906221 -0.503834 -2.278725 0.000000000000000e+00 1634890835
0.848383 -0.556308 -2.278725 0.000000000000000e+00 1634890835
1.050965 -0.324117 -2.278725 0.000000000000000e+00 1634890835
0.996581 -0.382668 -2.278724 0.000000000000000e+00 1634890835
0.884760 -0.492781 -2.278725 0.000000000000000e+00 1634890835
0.827325 -0.544403 -2.278725 0.000000000000000e+00 1634890835
1.028541 -0.315752 -2.278725 0.000000000000000e+00 1634890835
0.974526 -0.373425 -2.278725 0.000000000000000e+00 1634890835
0.863468 -0.481816 -2.278724 0.000000000000000e+00 1634890835
0.451011 -0.297861 -1.274413 0.000000000000000e+00 1936876886
1.006293 -0.307452 -2.278725 0.000000000000000e+00 1634890835
0.952640 -0.364254 -2.278724 0.000000000000000e+00 1634890835
0.842339 -0.470936 -2.278724 0.000000000000000e+00 1634890835
0.433313 -0.287261 -1.256716 0.000000000000000e+00 1936876886
0.984216 -0.299218 -2.278725 0.000000000000000e+00 1634890835
0.930922 -0.355153 -2.278724 0.000000000000000e+00 1634890835
0.821370 -0.460137 -2.278725 0.000000000000000e+00 1634890835
0.421227 -0.280354 -1.254518 0.000000000000000e+00 1936876886
0.962304 -0.291044 -2.278725 0.000000000000000e+00 1634890835
0.909365 -0.346118 -2.278724 0.000000000000000e+00 1634890835
0.445942 -0.250344 -1.269345 0.000000000000000e+00 1936876886
0.335127 -0.223971 -1.025472 0.000000000000000e+00 1953264973
0.940552 -0.282930 -2.278725 0.000000000000000e+00 1634890835
0.887965 -0.337150 -2.278724 0.000000000000000e+00 1634890835
0.428906 -0.241307 -1.253204 0.000000000000000e+00 1936876886
0.306472 -0.205704 -0.964045 0.000000000000000e+00 1953264973
0.495093 -0.148090 -1.227675 0.000000000000000e+00 1936876886
0.866716 -0.328246 -2.278725 0.000000000000000e+00 1634890835
0.358554 -0.202188 -1.075961 0.000000000000000e+00 1953264973
0.281223 -0.189608 -0.909920 0.000000000000000e+00 1953264973
0.483539 -0.143780 -1.227675 0.000000000000000e+00 1936876886
0.845614 -0.319403 -2.278724 0.000000000000000e+00 1634890835
0.326694 -0.184663 -1.007395 0.000000000000000e+00 1953264973
0.258802 -0.175315 -0.861857 0.000000000000000e+00 1953264973
0.472063 -0.139500 -1.227674 0.000000000000000e+00 1936876886
0.824654 -0.310620 -2.278724 0.000000000000000e+00 1634890835
0.299054 -0.169464 -0.948144 0.000000000000000e+00 1953264973
0.238756 -0.162537 -0.818886 0.000000000000000e+00 1953264973
