# .PCD v0.7 - Point Cloud Data file format
VERSION 0.7
FIELDS x y z rgb label
SIZE 4 4 4 4 4
TYPE F F F F U
COUNT 1 1 1 1 1
WIDTH 538
HEIGHT 1
VIEWPOINT 0 0 0 1 0 0 0
POINTS 538
DATA ascii
39.635067 -16.773966 9.992138 0.000000000000000e+00 1954047316
37.042442 -20.646273 10.109818 0.000000000000000e+00 1954047316
34.623512 -12.872482 -2.199777 0.000000000000000e+00 1851878480
37.050087 -15.497867 -2.258658 0.000000000000000e+00 1851878480
30.407681 -15.691741 -1.644306 0.000000000000000e+00 1851878480
29.151785 -16.551357 -1.447664 0.000000000000000e+00 1851878480
29.125050 -10.820029 -2.115027 0.000000000000000e+00 1851878480
28.572750 -11.947675 -2.009350 0.000000000000000e+00 1851878480
26.845455 -13.857769 -1.719627 0.000000000000000e+00 1851878480
25.909248 -14.719041 -1.554230 0.000000000000000e+00 1851878480
26.546061 -9.854435 -2.169123 0.000000000000000e+00 1851878480
26.047256 -10.887811 -2.075831 0.000000000000000e+00 1851878480
24.880583 -12.847470 -1.842393 0.000000000000000e+00 1851878480
24.286661 -13.805382 -1.708054 0.000000000000000e+00 1851878480
24.080555 -8.932396 -2.186856 0.000000000000000e+00 1851878480
24.244110 -10.130532 -2.159580 0.000000000000000e+00 1851878480
23.298386 -12.034200 -1.958364 0.000000000000000e+00 1851878480
23.093220 -13.134760 -1.863287 0.000000000000000e+00 1851878480
22.178091 -8.220433 -2.216200 0.000000000000000e+00 1851878480
22.321770 -9.324000 -2.198023 0.000000000000000e+00 1851878480
22.063534 -11.399916 -2.075668 0.000000000000000e+00 1851878480
21.792244 -12.402136 -1.984369 0.000000000000000e+00 1851878480
20.461710 -7.578467 -2.231404 0.000000000000000e+00 1851878480
20.601223 -8.602276 -2.222391 0.000000000000000e+00 1851878480
20.712835 -10.705346 -2.156500 0.000000000000000e+00 1851878480
20.432806 -11.635371 -2.072901 0.000000000000000e+00 1851878480
18.930574 -7.006019 -2.237437 0.000000000000000e+00 1851878480
19.025747 -7.941618 -2.231688 0.000000000000000e+00 1851878480
19.427485 -10.044151 -2.218030 0.000000000000000e+00 1851878480
19.135294 -10.902974 -2.140494 0.000000000000000e+00 1851878480
17.577660 -6.500333 -2.238437 0.000000000000000e+00 1851878480
17.634584 -7.358324 -2.234942 0.000000000000000e+00 1851878480
17.885307 -9.249719 -2.222157 0.000000000000000e+00 1851878480
17.921833 -10.217645 -2.191736 0.000000000000000e+00 1851878480
16.396893 -6.059027 -2.238438 0.000000000000000e+00 1851878480
16.435165 -6.855422 -2.238343 0.000000000000000e+00 1851878480
16.543121 -8.558261 -2.222429 0.000000000000000e+00 1851878480
16.665270 -9.506918 -2.212331 0.000000000000000e+00 1851878480
15.362931 -5.672595 -2.238439 0.000000000000000e+00 1851878480
15.366799 -6.407506 -2.238438 0.000000000000000e+00 1851878480
15.405293 -7.972121 -2.225463 0.000000000000000e+00 1851878480
15.467564 -8.828946 -2.215461 0.000000000000000e+00 1851878480
14.449848 -5.331330 -2.238438 0.000000000000000e+00 1851878480
14.426391 -6.013243 -2.238438 0.000000000000000e+00 1851878480
14.434348 -7.472011 -2.231620 0.000000000000000e+00 1851878480
14.440815 -8.247813 -2.220152 0.000000000000000e+00 1851878480
13.637506 -5.027729 -2.238438 0.000000000000000e+00 1851878480
13.592609 -5.663690 -2.238439 0.000000000000000e+00 1851878480
13.575759 -7.029776 -2.236946 0.000000000000000e+00 1851878480
13.540103 -7.738020 -2.224355 0.000000000000000e+00 1851878480
12.910006 -4.755835 -2.238438 0.000000000000000e+00 1851878480
12.848188 -5.351591 -2.238438 0.000000000000000e+00 1851878480
12.793028 -6.626554 -2.238437 0.000000000000000e+00 1851878480
12.779824 -7.307929 -2.234516 0.000000000000000e+00 1851878480
12.254611 -4.510888 -2.238439 0.000000000000000e+00 1851878480
12.179387 -5.071207 -2.238437 0.000000000000000e+00 1851878480
12.086507 -6.262574 -2.238438 0.000000000000000e+00 1851878480
12.070435 -6.906453 -2.238437 0.000000000000000e+00 1851878480
11.661039 -4.289051 -2.238437 0.000000000000000e+00 1851878480
11.575186 -4.817897 -2.238438 0.000000000000000e+00 1851878480
11.452116 -5.935750 -2.238437 0.000000000000000e+00 1851878480
11.415784 -6.535826 -2.238437 0.000000000000000e+00 1851878480
11.120868 -4.087169 -2.238438 0.000000000000000e+00 1851878480
11.026557 -4.587884 -2.238437 0.000000000000000e+00 1851878480
10.879249 -5.640618 -2.238438 0.000000000000000e+00 1851878480
10.826599 -6.202271 -2.238438 0.000000000000000e+00 1851878480
10.627126 -3.902643 -2.238438 0.000000000000000e+00 1851878480
10.526112 -4.378076 -2.238438 0.000000000000000e+00 1851878480
10.359292 -5.372748 -2.238438 0.000000000000000e+00 1851878480
10.293449 -5.900441 -2.238438 0.000000000000000e+00 1851878480
10.173991 -3.733298 -2.238438 0.000000000000000e+00 1851878480
10.067680 -4.185881 -2.238438 0.000000000000000e+00 1851878480
5.646962 -2.929687 -1.278724 1.880790849211783e-38 1684957512
5.603241 -3.213872 -1.278723 1.880790849211783e-38 1684957512
5.573541 -2.043568 -1.278723 1.880790849211783e-38 1684957512
5.510433 -2.290262 -1.278723 1.880790849211783e-38 1684957512
5.398944 -2.801913 -1.278724 1.880790849211783e-38 1684957512
5.350265 -3.070658 -1.278724 1.880790849211783e-38 1684957512
5.353181 -1.961216 -1.278723 1.880790849211783e-38 1684957512
5.288226 -2.197104 -1.278723 1.880790849211783e-38 1684957512
5.170949 -2.684458 -1.278724 1.880790849211783e-38 1684957512
5.118244 -2.939308 -1.278724 1.880790849211783e-38 1684957512
5.148882 -1.884865 -1.278723 1.880790849211783e-38 1684957512
5.082513 -2.110860 -1.278724 1.880790849211783e-38 1684957512
4.960619 -2.576100 -1.278724 1.880790849211783e-38 1684957512
4.904651 -2.818388 -1.278724 1.880790849211783e-38 1684957512
4.958919 -1.813876 -1.278723 1.880790849211783e-38 1684957512
4.891493 -2.030778 -1.278724 1.880790849211783e-38 1684957512
4.765948 -2.475812 -1.278724 1.880790849211783e-38 1684957512
4.707339 -2.706689 -1.278724 1.880790849211783e-38 1684957512
4.781814 -1.747691 -1.278724 1.880790849211783e-38 1684957512
4.713621 -1.956206 -1.278724 1.880790849211783e-38 1684957512
4.585218 -2.382707 -1.278724 1.880790849211783e-38 1684957512
4.524491 -2.603179 -1.278724 1.880790849211783e-38 1684957512
4.616272 -1.685827 -1.278724 1.880790849211783e-38 1684957512
4.547558 -1.886588 -1.278724 1.880790849211783e-38 1684957512
4.416960 -2.296024 -1.278724 1.880790849211783e-38 1684957512
4.354540 -2.506969 -1.278724 1.880790849211783e-38 1684957512
4.461186 -1.627869 -1.278724 1.880790849211783e-38 1684957512
4.392149 -1.821436 -1.278724 1.880790849211783e-38 1684957512
4.259905 -2.215116 -1.278723 1.880790849211783e-38 1684957512
4.196153 -2.417306 -1.278724 1.880790849211783e-38 1684957512
4.315570 -1.573453 -1.278724 1.880790849211783e-38 1684957512
4.246379 -1.760323 -1.278724 1.880790849211783e-38 1684957512
4.112951 -2.139410 -1.278724 1.880790849211783e-38 1684957512
4.048162 -2.333531 -1.278724 1.880790849211783e-38 1684957512
4.178562 -1.522254 -1.278724 1.880790849211783e-38 1684957512
4.109355 -1.702879 -1.278724 1.880790849211783e-38 1684957512
3.975127 -2.068407 -1.278724 1.880790849211783e-38 1684957512
3.909554 -2.255065 -1.278724 1.880790849211783e-38 1684957512
4.049398 -1.473989 -1.278724 1.880790849211783e-38 1684957512
3.980294 -1.648772 -1.278724 1.880790849211783e-38 1684957512
3.845587 -2.001673 -1.278724 1.880790849211783e-38 1684957512
3.779441 -2.181410 -1.278724 1.880790849211783e-38 1684957512
3.963596 -1.441564 -1.290504 1.880790849211783e-38 1684957512
3.858507 -1.597715 -1.278724 1.880790849211783e-38 1684957512
3.723594 -1.938827 -1.278724 1.880790849211783e-38 1684957512
3.662276 -2.115146 -1.280550 1.880790849211783e-38 1684957512
3.966892 -1.441564 -1.330678 1.880790849211783e-38 1684957512
3.743379 -1.549450 -1.278724 1.880790849211783e-38 1684957512
3.662277 -1.907547 -1.297785 1.880790849211783e-38 1684957512
3.662277 -2.116515 -1.322258 1.880790849211783e-38 1684957512
3.970207 -1.441564 -1.371126 1.880790849211783e-38 1684957512
3.662277 -1.515297 -1.288546 1.880790849211783e-38 1684957512
3.662277 -1.908196 -1.338133 1.880790849211783e-38 1684957512
3.662276 -2.117894 -1.364214 1.880790849211783e-38 1684957512
3.973542 -1.441564 -1.411856 1.880790849211783e-38 1684957512
3.662277 -1.514711 -1.326279 1.880790849211783e-38 1684957512
3.662277 -1.908850 -1.378720 1.880790849211783e-38 1684957512
3.662277 -2.119281 -1.406428 1.880790849211783e-38 1684957512
3.976903 -1.441564 -1.452880 1.880790849211783e-38 1684957512
3.662277 -1.514119 -1.364226 1.880790849211783e-38 1684957512
3.662276 -1.909507 -1.419554 1.880790849211783e-38 1684957512
3.662277 -2.120677 -1.448909 1.880790849211783e-38 1684957512
3.980286 -1.441564 -1.494202 1.880790849211783e-38 1684957512
3.662277 -1.513527 -1.402393 1.880790849211783e-38 1684957512
3.662276 -1.910169 -1.460642 1.880790849211783e-38 1684957512
3.662276 -2.122080 -1.491664 1.880790849211783e-38 1684957512
3.983690 -1.441564 -1.535835 1.880790849211783e-38 1684957512
3.662277 -1.512931 -1.440789 1.880790849211783e-38 1684957512
3.662276 -1.910834 -1.501994 1.880790849211783e-38 1684957512
3.662276 -2.123497 -1.534706 1.880790849211783e-38 1684957512
3.987123 -1.441564 -1.577789 1.880790849211783e-38 1684957512
3.662277 -1.512331 -1.479421 1.880790849211783e-38 1684957512
3.662276 -1.911506 -1.543620 1.880790849211783e-38 1684957512
3.662277 -2.124923 -1.578043 1.880790849211783e-38 1684957512
3.990579 -1.441564 -1.620071 1.880790849211783e-38 1684957512
3.662277 -1.511726 -1.518297 1.880790849211783e-38 1684957512
3.662277 -1.912181 -1.585527 1.880790849211783e-38 1684957512
3.662277 -2.126361 -1.621685 1.880790849211783e-38 1684957512
3.994061 -1.441564 -1.662694 1.880790849211783e-38 1684957512
3.662277 -1.511121 -1.557428 1.880790849211783e-38 1684957512
3.662277 -1.912862 -1.627728 1.880790849211783e-38 1684957512
3.662276 -2.127808 -1.665644 1.880790849211783e-38 1684957512
3.997572 -1.441564 -1.705666 1.880790849211783e-38 1684957512
3.662277 -1.510509 -1.596819 1.880790849211783e-38 1684957512
3.662277 -1.913547 -1.670230 1.880790849211783e-38 1684957512
3.662276 -2.129268 -1.709928 1.880790849211783e-38 1684957512
4.001110 -1.441564 -1.748999 1.880790849211783e-38 1684957512
3.662277 -1.509894 -1.636479 1.880790849211783e-38 1684957512
3.662276 -1.914238 -1.713042 1.880790849211783e-38 1684957512
3.662277 -2.130737 -1.754548 1.880790849211783e-38 1684957512
4.004675 -1.441564 -1.792704 1.880790849211783e-38 1684957512
3.662277 -1.509274 -1.676418 1.880790849211783e-38 1684957512
3.662276 -1.914931 -1.756176 1.880790849211783e-38 1684957512
3.662277 -2.132221 -1.799517 1.880790849211783e-38 1684957512
4.008266 -1.441564 -1.836789 1.880790849211783e-38 1684957512
3.662277 -1.508651 -1.716645 1.880790849211783e-38 1684957512
3.662276 -1.915633 -1.799643 1.880790849211783e-38 1684957512
3.662277 -2.133716 -1.844844 1.880790849211783e-38 1684957512
4.011901 -1.441564 -1.881275 1.880790849211783e-38 1684957512
3.662276 -1.508022 -1.757168 1.880790849211783e-38 1684957512
3.662277 -1.916341 -1.843454 1.880790849211783e-38 1684957512
3.662276 -2.135223 -1.890543 1.880790849211783e-38 1684957512
4.015557 -1.441564 -1.926163 1.880790849211783e-38 1684957512
3.662276 -1.507389 -1.797996 1.880790849211783e-38 1684957512
3.662276 -1.917054 -1.887617 1.880790849211783e-38 1684957512
3.662277 -2.136744 -1.936625 1.880790849211783e-38 1684957512
4.019250 -1.441564 -1.971470 1.880790849211783e-38 1684957512
3.662276 -1.506751 -1.839141 1.880790849211783e-38 1684957512
3.662277 -1.917773 -1.932145 1.880790849211783e-38 1684957512
3.662277 -2.138280 -1.983101 1.880790849211783e-38 1684957512
4.022968 -1.441564 -2.017206 1.880790849211783e-38 1684957512
3.662277 -1.506109 -1.880611 1.880790849211783e-38 1684957512
3.662276 -1.918497 -1.977050 1.880790849211783e-38 1684957512
3.662277 -2.139830 -2.029985 1.880790849211783e-38 1684957512
4.026731 -1.441564 -2.063391 1.880790849211783e-38 1684957512
3.662277 -1.505460 -1.922417 1.880790849211783e-38 1684957512
3.662276 -1.919228 -2.022344 1.880790849211783e-38 1684957512
3.662277 -2.141392 -2.077290 1.880790849211783e-38 1684957512
4.030520 -1.441564 -2.110028 1.880790849211783e-38 1684957512
3.662277 -1.504807 -1.964569 1.880790849211783e-38 1684957512
3.662277 -1.919968 -2.068039 1.880790849211783e-38 1684957512
3.662276 -2.142972 -2.125029 1.880790849211783e-38 1684957512
4.034358 -1.441564 -2.157141 1.880790849211783e-38 1684957512
3.662276 -1.504148 -2.007077 1.880790849211783e-38 1684957512
3.662276 -1.920712 -2.114145 1.880790849211783e-38 1684957512
3.662276 -2.144565 -2.173214 1.880790849211783e-38 1684957512
4.038224 -1.441564 -2.204735 1.880790849211783e-38 1684957512
3.662276 -1.503485 -2.049953 1.880790849211783e-38 1684957512
3.662277 -1.921466 -2.160679 1.880790849211783e-38 1684957512
3.662276 -2.146177 -2.221861 1.880790849211783e-38 1684957512
4.016309 -1.432354 -2.238438 0.000000000000000e+00 1851878480
3.662276 -1.502816 -2.093207 1.880790849211783e-38 1684957512
3.662277 -1.922225 -2.207652 1.880790849211783e-38 1684957512
3.609790 -2.117022 -2.238438 0.000000000000000e+00 1851878480
4.006142 -1.427335 -2.278723 0.000000000000000e+00 1634890835
3.662277 -1.502140 -2.136853 1.880790849211783e-38 1684957512
3.635254 -1.908803 -2.238438 0.000000000000000e+00 1851878480
3.532612 -2.073344 -2.238438 0.000000000000000e+00 1851878480
3.926257 -1.397494 -2.278723 0.000000000000000e+00 1634890835
3.662277 -1.501459 -2.180902 1.880790849211783e-38 1684957512
3.559654 -1.869857 -2.238438 0.000000000000000e+00 1851878480
3.457926 -2.031078 -2.238438 0.000000000000000e+00 1851878480
3.848812 -1.368566 -2.278723 0.000000000000000e+00 1634890835
3.662277 -1.500771 -2.225364 1.880790849211783e-38 1684957512
3.486421 -1.832134 -2.238438 0.000000000000000e+00 1851878480
3.385603 -1.990150 -2.238438 0.000000000000000e+00 1851878480
3.773680 -1.340504 -2.278724 0.000000000000000e+00 1634890835
3.610950 -1.479055 -2.238438 0.000000000000000e+00 1851878480
3.415433 -1.795569 -2.238438 0.000000000000000e+00 1851878480
3.315520 -1.950490 -2.238438 0.000000000000000e+00 1851878480
3.700751 -1.313264 -2.278723 0.000000000000000e+00 1634890835
3.540262 -1.449423 -2.238438 0.000000000000000e+00 1851878480
3.346579 -1.760101 -2.238438 0.000000000000000e+00 1851878480
3.247564 -1.912036 -2.238438 0.000000000000000e+00 1851878480
3.629918 -1.286808 -2.278723 0.000000000000000e+00 1634890835
3.471619 -1.420647 -2.238438 0.000000000000000e+00 1851878480
3.279752 -1.725677 -2.238438 0.000000000000000e+00 1851878480
3.181630 -1.874723 -2.238438 0.000000000000000e+00 1851878480
3.561084 -1.261098 -2.278723 0.000000000000000e+00 1634890835
3.466206 -1.417757 -2.278723 0.000000000000000e+00 1634890835
3.214857 -1.692249 -2.238438 0.000000000000000e+00 1851878480
3.117619 -1.838501 -2.238438 0.000000000000000e+00 1851878480
3.494157 -1.236100 -2.278723 0.000000000000000e+00 1634890835
3.400207 -1.390090 -2.278723 0.000000000000000e+00 1634890835
3.151801 -1.659767 -2.238438 0.000000000000000e+00 1851878480
3.055440 -1.803316 -2.238438 0.000000000000000e+00 1851878480
3.429045 -1.211783 -2.278723 0.000000000000000e+00 1634890835
3.336011 -1.363180 -2.278723 0.000000000000000e+00 1634890835
3.090496 -1.628188 -2.238438 0.000000000000000e+00 1851878480
2.995004 -1.769118 -2.238438 0.000000000000000e+00 1851878480
3.365669 -1.188115 -2.278724 0.000000000000000e+00 1634890835
3.273538 -1.336994 -2.278724 0.000000000000000e+00 1634890835
3.030861 -1.597471 -2.238438 0.000000000000000e+00 1851878480
2.936229 -1.735860 -2.238438 0.000000000000000e+00 1851878480
3.303951 -1.165063 -2.278724 0.000000000000000e+00 1634890835
3.212708 -1.311495 -2.278723 0.000000000000000e+00 1634890835
2.972820 -1.567573 -2.238438 0.000000000000000e+00 1851878480
2.879038 -1.703499 -2.238438 0.000000000000000e+00 1851878480
3.243818 -1.142606 -2.278723 0.000000000000000e+00 1634890835
3.153451 -1.286656 -2.278724 0.000000000000000e+00 1634890835
2.916302 -1.538461 -2.238438 0.000000000000000e+00 1851878480
2.823362 -1.671995 -2.238438 0.000000000000000e+00 1851878480
3.185200 -1.120715 -2.278723 0.000000000000000e+00 1634890835
3.095698 -1.262447 -2.278724 0.000000000000000e+00 1634890835
2.861240 -1.510097 -2.238438 0.000000000000000e+00 1851878480
2.769130 -1.641311 -2.238438 0.000000000000000e+00 1851878480
3.128037 -1.099367 -2.278723 0.000000000000000e+00 1634890835
3.039383 -1.238843 -2.278724 0.000000000000000e+00 1634890835
2.807567 -1.482453 -2.238438 0.000000000000000e+00 1851878480
2.716283 -1.611408 -2.238439 0.000000000000000e+00 1851878480
3.072261 -1.078539 -2.278723 0.000000000000000e+00 1634890835
2.984447 -1.215814 -2.278724 0.000000000000000e+00 1634890835
2.755227 -1.455491 -2.238438 0.000000000000000e+00 1851878480
0.840393 -0.499001 -0.705944 0.000000000000000e+00 1886740808
3.017817 -1.058207 -2.278723 0.000000000000000e+00 1634890835
2.930827 -1.193339 -2.278723 0.000000000000000e+00 1634890835
2.704159 -1.429188 -2.238438 0.000000000000000e+00 1851878480
0.824541 -0.490031 -0.705944 0.000000000000000e+00 1886740808
2.964652 -1.038355 -2.278724 0.000000000000000e+00 1634890835
2.878473 -1.171396 -2.278723 0.000000000000000e+00 1634890835
0.837100 -0.442630 -0.705944 0.000000000000000e+00 1886740808
0.809071 -0.481279 -0.705944 0.000000000000000e+00 1886740808
2.912712 -1.018960 -2.278724 0.000000000000000e+00 1634890835
2.827335 -1.149958 -2.278724 0.000000000000000e+00 1634890835
0.821749 -0.434723 -0.705944 0.000000000000000e+00 1886740808
0.793967 -0.472734 -0.705944 0.000000000000000e+00 1886740808
2.861948 -1.000004 -2.278723 0.000000000000000e+00 1634890835
2.777359 -1.129011 -2.278723 0.000000000000000e+00 1634890835
0.806752 -0.426999 -0.705944 0.000000000000000e+00 1886740808
0.779214 -0.464387 -0.705944 0.000000000000000e+00 1886740808
2.812313 -0.981471 -2.278723 0.000000000000000e+00 1634890835
2.728501 -1.108532 -2.278724 0.000000000000000e+00 1634890835
0.792095 -0.419449 -0.705944 0.000000000000000e+00 1886740808
0.764797 -0.456231 -0.705944 0.000000000000000e+00 1886740808
2.763762 -0.963342 -2.278723 0.000000000000000e+00 1634890835
0.830480 -0.337216 -0.705944 0.000000000000000e+00 1886740808
0.777763 -0.412067 -0.705944 0.000000000000000e+00 1886740808
0.750703 -0.448257 -0.705944 0.000000000000000e+00 1886740808
0.841490 -0.292946 -0.705944 0.000000000000000e+00 1886740808
0.815995 -0.331144 -0.705944 0.000000000000000e+00 1886740808
0.763744 -0.404846 -0.705944 0.000000000000000e+00 1886740808
0.744294 -0.444867 -0.713008 0.000000000000000e+00 1886740808
0.827083 -0.287567 -0.705944 0.000000000000000e+00 1886740808
0.801819 -0.325202 -0.705944 0.000000000000000e+00 1886740808
0.750026 -0.397780 -0.705944 0.000000000000000e+00 1886740808
0.744294 -0.445310 -0.726300 0.000000000000000e+00 1886740808
0.812976 -0.282300 -0.705944 0.000000000000000e+00 1886740808
0.787937 -0.319383 -0.705944 0.000000000000000e+00 1886740808
0.744294 -0.394947 -0.713320 0.000000000000000e+00 1886740808
0.744294 -0.445761 -0.739799 0.000000000000000e+00 1886740808
0.799155 -0.277140 -0.705944 0.000000000000000e+00 1886740808
0.774339 -0.313685 -0.705944 0.000000000000000e+00 1886740808
0.744294 -0.395158 -0.726287 0.000000000000000e+00 1886740808
0.744294 -0.446219 -0.753512 0.000000000000000e+00 1886740808
0.785612 -0.272084 -0.705944 0.000000000000000e+00 1886740808
0.761016 -0.308100 -0.705944 0.000000000000000e+00 1886740808
0.744294 -0.395372 -0.739456 0.000000000000000e+00 1886740808
0.744294 -0.446685 -0.767446 0.000000000000000e+00 1886740808
0.772336 -0.267127 -0.705944 0.000000000000000e+00 1886740808
0.747956 -0.302626 -0.705944 0.000000000000000e+00 1886740808
0.744294 -0.395589 -0.752833 0.000000000000000e+00 1886740808
0.744294 -0.447157 -0.781609 0.000000000000000e+00 1886740808
0.759317 -0.262267 -0.705944 0.000000000000000e+00 1886740808
0.744294 -0.300956 -0.714724 0.000000000000000e+00 1886740808
0.744294 -0.395810 -0.766425 0.000000000000000e+00 1886740808
0.744294 -0.447639 -0.796008 0.000000000000000e+00 1886740808
0.746546 -0.257499 -0.705944 0.000000000000000e+00 1886740808
0.744294 -0.300765 -0.727148 0.000000000000000e+00 1886740808
0.744294 -0.396034 -0.780240 0.000000000000000e+00 1886740808
2.092190 -1.259676 -2.278724 0.000000000000000e+00 1634890835
0.744294 -0.256361 -0.715830 0.000000000000000e+00 1886740808
0.744294 -0.300570 -0.739766 0.000000000000000e+00 1886740808
0.744294 -0.396262 -0.794287 0.000000000000000e+00 1886740808
2.054431 -1.238317 -2.278724 0.000000000000000e+00 1634890835
0.744294 -0.255996 -0.728032 0.000000000000000e+00 1886740808
0.744294 -0.300373 -0.752585 0.000000000000000e+00 1886740808
2.097576 -1.117403 -2.278724 0.000000000000000e+00 1634890835
2.017379 -1.217359 -2.278724 0.000000000000000e+00 1634890835
0.744294 -0.255623 -0.740423 0.000000000000000e+00 1886740808
0.744294 -0.300172 -0.765610 0.000000000000000e+00 1886740808
2.060542 -1.098329 -2.278724 0.000000000000000e+00 1634890835
0.796275 -0.481053 -0.915943 0.000000000000000e+00 1886740808
0.744294 -0.255246 -0.753012 0.000000000000000e+00 1886740808
0.744294 -0.299969 -0.778849 0.000000000000000e+00 1886740808
2.024174 -1.079597 -2.278724 0.000000000000000e+00 1634890835
0.784636 -0.474577 -0.919123 0.000000000000000e+00 1886740808
0.744294 -0.254862 -0.765805 0.000000000000000e+00 1886740808
0.744294 -0.299762 -0.792310 0.000000000000000e+00 1886740808
1.988450 -1.061197 -2.278724 0.000000000000000e+00 1634890835
0.775673 -0.469713 -0.925309 0.000000000000000e+00 1886740808
0.744294 -0.254473 -0.778809 0.000000000000000e+00 1886740808
2.104269 -0.846890 -2.278723 0.000000000000000e+00 1634890835
0.797389 -0.425818 -0.930214 0.000000000000000e+00 1886740808
0.768823 -0.466130 -0.933989 0.000000000000000e+00 1886740808
0.744294 -0.254076 -0.792031 0.000000000000000e+00 1886740808
2.068527 -0.831911 -2.278724 0.000000000000000e+00 1634890835
0.785519 -0.419747 -0.932845 0.000000000000000e+00 1886740808
0.764549 -0.464111 -0.945878 0.000000000000000e+00 1886740808
0.744294 -0.253673 -0.805477 0.000000000000000e+00 1886740808
2.033381 -0.817180 -2.278724 0.000000000000000e+00 1634890835
0.776431 -0.415161 -0.938648 0.000000000000000e+00 1886740808
1.808579 -1.099257 -2.278724 0.000000000000000e+00 1634890835
2.070469 -0.704525 -2.278723 0.000000000000000e+00 1634890835
1.998811 -0.802691 -2.278724 0.000000000000000e+00 1634890835
0.769417 -0.411684 -0.946931 0.000000000000000e+00 1886740808
1.775828 -1.080733 -2.278724 0.000000000000000e+00 1634890835
2.035869 -0.691611 -2.278723 0.000000000000000e+00 1634890835
1.964797 -0.788434 -2.278723 0.000000000000000e+00 1634890835
0.764805 -0.409492 -0.958243 0.000000000000000e+00 1886740808
0.749057 -0.456456 -0.978943 0.000000000000000e+00 1886740808
2.001816 -0.678901 -2.278724 0.000000000000000e+00 1634890835
1.931321 -0.774404 -2.278724 0.000000000000000e+00 1634890835
0.767166 -0.411038 -0.978582 0.000000000000000e+00 1886740808
1.711905 -1.044580 -2.278724 0.000000000000000e+00 1634890835
1.968291 -0.666388 -2.278724 0.000000000000000e+00 1634890835
0.797682 -0.319597 -0.957507 0.000000000000000e+00 1886740808
1.754620 -0.940767 -2.278724 0.000000000000000e+00 1634890835
1.680698 -1.026931 -2.278724 0.000000000000000e+00 1634890835
1.935278 -0.654067 -2.278723 0.000000000000000e+00 1634890835
0.785811 -0.314588 -0.959661 0.000000000000000e+00 1886740808
0.751063 -0.402982 -0.993126 0.000000000000000e+00 1886740808
1.649973 -1.009554 -2.278723 0.000000000000000e+00 1634890835
1.902760 -0.641932 -2.278723 0.000000000000000e+00 1634890835
0.776731 -0.310699 -0.965105 0.000000000000000e+00 1886740808
1.692475 -0.908758 -2.278723 0.000000000000000e+00 1634890835
1.619714 -0.992441 -2.278724 0.000000000000000e+00 1634890835
0.796758 -0.268312 -0.970531 0.000000000000000e+00 1886740808
0.769655 -0.307611 -0.973021 0.000000000000000e+00 1886740808
1.662095 -0.893112 -2.278724 0.000000000000000e+00 1634890835
1.589904 -0.975582 -2.278724 0.000000000000000e+00 1634890835
0.785168 -0.263918 -0.972832 0.000000000000000e+00 1886740808
0.764879 -0.305442 -0.983924 0.000000000000000e+00 1886740808
1.632159 -0.877694 -2.278724 0.000000000000000e+00 1634890835
1.560531 -0.958972 -2.278724 0.000000000000000e+00 1634890835
0.776222 -0.260416 -0.978303 0.000000000000000e+00 1886740808
0.765616 -0.305471 -1.002179 0.000000000000000e+00 1886740808
1.602651 -0.862497 -2.278724 0.000000000000000e+00 1634890835
1.531579 -0.942598 -2.278724 0.000000000000000e+00 1634890835
0.769282 -0.257587 -0.986297 0.000000000000000e+00 1886740808
1.710670 -0.681928 -2.278723 0.000000000000000e+00 1634890835
1.573558 -0.847512 -2.278724 0.000000000000000e+00 1634890835
1.503036 -0.926457 -2.278724 0.000000000000000e+00 1634890835
0.764661 -0.255532 -0.997356 0.000000000000000e+00 1886740808
1.680923 -0.669461 -2.278724 0.000000000000000e+00 1634890835
1.544867 -0.832736 -2.278724 0.000000000000000e+00 1634890835
1.474887 -0.910539 -2.278724 0.000000000000000e+00 1634890835
0.766223 -0.255534 -1.016768 0.000000000000000e+00 1886740808
0.744043 -0.296055 -1.026575 0.000000000000000e+00 1886740808
1.516566 -0.818160 -2.278724 0.000000000000000e+00 1634890835
1.447122 -0.894837 -2.278724 0.000000000000000e+00 1634890835
1.687756 -0.561695 -2.278724 0.000000000000000e+00 1634890835
1.622621 -0.645027 -2.278723 0.000000000000000e+00 1634890835
1.488640 -0.803778 -2.278723 0.000000000000000e+00 1634890835
1.419726 -0.879346 -2.278724 0.000000000000000e+00 1634890835
0.752072 -0.249762 -1.033210 0.000000000000000e+00 1886740808
1.594045 -0.633051 -2.278723 0.000000000000000e+00 1634890835
1.461080 -0.789586 -2.278724 0.000000000000000e+00 1634890835
1.392691 -0.864059 -2.278725 0.000000000000000e+00 1634890835
1.629980 -0.540136 -2.278724 0.000000000000000e+00 1634890835
1.565835 -0.621228 -2.278724 0.000000000000000e+00 1634890835
1.433875 -0.775574 -2.278724 0.000000000000000e+00 1634890835
1.366003 -0.848967 -2.278725 0.000000000000000e+00 1634890835
1.601639 -0.529562 -2.278724 0.000000000000000e+00 1634890835
1.537980 -0.609555 -2.278723 0.000000000000000e+00 1634890835
1.407013 -0.761740 -2.278725 0.000000000000000e+00 1634890835
1.339652 -0.834066 -2.278725 0.000000000000000e+00 1634890835
1.573650 -0.519119 -2.278724 0.000000000000000e+00 1634890835
1.510469 -0.598025 -2.278724 0.000000000000000e+00 1634890835
1.380484 -0.748076 -2.278725 0.000000000000000e+00 1634890835
1.313627 -0.819351 -2.278725 0.000000000000000e+00 1634890835
1.546002 -0.508802 -2.278724 0.000000000000000e+00 1634890835
1.483293 -0.586635 -2.278723 0.000000000000000e+00 1634890835
1.354276 -0.734580 -2.278725 0.000000000000000e+00 1634890835
1.287919 -0.804814 -2.278724 0.000000000000000e+00 1634890835
1.518684 -0.498609 -2.278724 0.000000000000000e+00 1634890835
1.456442 -0.575382 -2.278724 0.000000000000000e+00 1634890835
1.328381 -0.721244 -2.278725 0.000000000000000e+00 1634890835
1.262519 -0.790451 -2.278725 0.000000000000000e+00 1634890835
1.491686 -0.488534 -2.278723 0.000000000000000e+00 1634890835
1.429904 -0.564261 -2.278724 0.000000000000000e+00 1634890835
1.302790 -0.708063 -2.278725 0.000000000000000e+00 1634890835
1.237416 -0.776258 -2.278725 0.000000000000000e+00 1634890835
1.464999 -0.478578 -2.278724 0.000000000000000e+00 1634890835
1.403672 -0.553268 -2.278725 0.000000000000000e+00 1634890835
1.277492 -0.695035 -2.278725 0.000000000000000e+00 1634890835
1.212600 -0.762227 -2.278725 0.000000000000000e+00 1634890835
1.438614 -0.468733 -2.278724 0.000000000000000e+00 1634890835
1.377736 -0.542399 -2.278725 0.000000000000000e+00 1634890835
1.252479 -0.682153 -2.278725 0.000000000000000e+00 1634890835
1.188065 -0.748353 -2.278725 0.000000000000000e+00 1634890835
1.412521 -0.458998 -2.278725 0.000000000000000e+00 1634890835
1.352086 -0.531649 -2.278725 0.000000000000000e+00 1634890835
1.227742 -0.669413 -2.278725 0.000000000000000e+00 1634890835
1.163800 -0.734633 -2.278725 0.000000000000000e+00 1634890835
1.386712 -0.449370 -2.278725 0.000000000000000e+00 1634890835
1.326716 -0.521016 -2.278724 0.000000000000000e+00 1634890835
1.203274 -0.656813 -2.278725 0.000000000000000e+00 1634890835
1.139798 -0.721064 -2.278725 0.000000000000000e+00 1634890835
1.361179 -0.439844 -2.278725 0.000000000000000e+00 1634890835
1.301616 -0.510497 -2.278725 0.000000000000000e+00 1634890835
1.179065 -0.644345 -2.278725 0.000000000000000e+00 1634890835
1.116051 -0.707637 -2.278725 0.000000000000000e+00 1634890835
1.335914 -0.430416 -2.278725 0.000000000000000e+00 1634890835
1.276778 -0.500088 -2.278725 0.000000000000000e+00 1634890835
1.155109 -0.632008 -2.278725 0.000000000000000e+00 1634890835
1.092552 -0.694350 -2.278725 0.000000000000000e+00 1634890835
1.310908 -0.421088 -2.278725 0.000000000000000e+00 1634890835
1.252194 -0.489785 -2.278725 0.000000000000000e+00 1634890835
1.131397 -0.619796 -2.278725 0.000000000000000e+00 1634890835
1.069292 -0.681200 -2.278725 0.000000000000000e+00 1634890835
1.286155 -0.411853 -2.278725 0.000000000000000e+00 1634890835
1.227859 -0.479587 -2.278725 0.000000000000000e+00 1634890835
1.107923 -0.607707 -2.278725 0.000000000000000e+00 1634890835
1.046265 -0.668181 -2.278725 0.000000000000000e+00 1634890835
1.261647 -0.402710 -2.278725 0.000000000000000e+00 1634890835
1.203763 -0.469489 -2.278725 0.000000000000000e+00 1634890835
1.084679 -0.595736 -2.278725 0.000000000000000e+00 1634890835
1.023463 -0.655289 -2.278725 0.000000000000000e+00 1634890835
1.237375 -0.393656 -2.278725 0.000000000000000e+00 1634890835
1.179899 -0.459489 -2.278725 0.000000000000000e+00 1634890835
1.061657 -0.583881 -2.278725 0.000000000000000e+00 1634890835
1.000880 -0.642521 -2.278725 0.000000000000000e+00 1634890835
1.213336 -0.384687 -2.278725 0.000000000000000e+00 1634890835
1.156261 -0.449584 -2.278725 0.000000000000000e+00 1634890835
1.038853 -0.572137 -2.278725 0.000000000000000e+00 1634890835
0.978509 -0.629874 -2.278725 0.000000000000000e+00 1634890835
1.189519 -0.375802 -2.278725 0.000000000000000e+00 1634890835
1.132843 -0.439770 -2.278725 0.000000000000000e+00 1634890835
1.016260 -0.560501 -2.278725 0.000000000000000e+00 1634890835
0.956343 -0.617343 -2.278725 0.000000000000000e+00 1634890835
1.165920 -0.366998 -2.278725 0.000000000000000e+00 1634890835
1.109636 -0.430045 -2.278724 0.000000000000000e+00 1634890835
0.993868 -0.548970 -2.278725 0.000000000000000e+00 1634890835
0.934376 -0.604923 -2.278725 0.000000000000000e+00 1634890835
1.142532 -0.358273 -2.278725 0.000000000000000e+00 1634890835
1.086637 -0.420407 -2.278725 0.000000000000000e+00 1634890835
0.971675 -0.537541 -2.278725 0.000000000000000e+00 1634890835
0.912603 -0.592613 -2.278725 0.000000000000000e+00 1634890835
1.119348 -0.349625 -2.278725 0.000000000000000e+00 1634890835
1.063838 -0.410852 -2.278725 0.000000000000000e+00 1634890835
0.949674 -0.526210 -2.278725 0.000000000000000e+00 1634890835
0.891017 -0.580410 -2.278725 0.000000000000000e+00 1634890835
1.096363 -0.341051 -2.278725 0.000000000000000e+00 1634890835
1.041232 -0.401379 -2.278725 0.000000000000000e+00 1634890835
0.927857 -0.514976 -2.278725 0.000000000000000e+00 1634890835
0.869612 -0.568309 -2.278725 0.000000000000000e+00 1634890835
1.073570 -0.332549 -2.278725 0.000000000000000e+00 1634890835
1.018816 -0.391985 -2.278725 0.000000000000000e+00 1634890835
0.906221 -0.503834 -2.278725 0.000000000000000e+00 1634890835
0.848384 -0.556308 -2.278725 0.000000000000000e+00 1634890835
1.050965 -0.324117 -2.278725 0.000000000000000e+00 1634890835
0.996582 -0.382668 -2.278725 0.000000000000000e+00 1634890835
0.884760 -0.492781 -2.278725 0.000000000000000e+00 1634890835
0.827326 -0.544403 -2.278725 0.000000000000000e+00 1634890835
1.028542 -0.315752 -2.278725 0.000000000000000e+00 1634890835
0.974526 -0.373425 -2.278725 0.000000000000000e+00 1634890835
0.863469 -0.481816 -2.278725 0.000000000000000e+00 1634890835
0.451010 -0.297860 -1.274412 0.000000000000000e+00 1936876886
1.006294 -0.307453 -2.278725 0.000000000000000e+00 1634890835
0.952640 -0.364254 -2.278724 0.000000000000000e+00 1634890835
0.842340 -0.470936 -2.278725 0.000000000000000e+00 1634890835
0.433313 -0.287261 -1.256715 0.000000000000000e+00 1936876886
0.984216 -0.299218 -2.278725 0.000000000000000e+00 1634890835
0.930922 -0.355153 -2.278725 0.000000000000000e+00 1634890835
0.821370 -0.460137 -2.278725 0.000000000000000e+00 1634890835
0.421216 -0.280347 -1.254485 0.000000000000000e+00 1936876886
0.962304 -0.291044 -2.278725 0.000000000000000e+00 1634890835
0.909365 -0.346118 -2.278725 0.000000000000000e+00 1634890835
0.445942 -0.250344 -1.269344 0.000000000000000e+00 1936876886
0.335127 -0.223971 -1.025471 0.000000000000000e+00 1953264973
0.940552 -0.282930 -2.278725 0.000000000000000e+00 1634890835
0.887965 -0.337151 -2.278725 0.000000000000000e+00 1634890835
0.428906 -0.241307 -1.253205 0.000000000000000e+00 1936876886
0.306472 -0.205704 -0.964044 0.000000000000000e+00 1953264973
0.495093 -0.148090 -1.227676 0.000000000000000e+00 1936876886
0.866716 -0.328246 -2.278725 0.000000000000000e+00 1634890835
0.358554 -0.202188 -1.075960 0.000000000000000e+00 1953264973
0.281222 -0.189608 -0.909918 0.000000000000000e+00 1953264973
0.483540 -0.143780 -1.227677 0.000000000000000e+00 1936876886
0.845615 -0.319403 -2.278725 0.000000000000000e+00 1634890835
0.326694 -0.184663 -1.007393 0.000000000000000e+00 1953264973
0.258801 -0.175315 -0.861856 0.000000000000000e+00 1953264973
0.472064 -0.139500 -1.227676 0.000000000000000e+00 1936876886
0.824654 -0.310620 -2.278726 0.000000000000000e+00 1634890835
0.299054 -0.169463 -0.948142 0.000000000000000e+00 1953264973
0.238755 -0.162537 -0.818884 0.000000000000000e+00 1953264973
