# .PCD v0.7 - Point Cloud Data file format
VERSION 0.7
FIELDS x y z rgb label
SIZE 4 4 4 4 4
TYPE F F F F U
COUNT 1 1 1 1 1
WIDTH 540
HEIGHT 1
VIEWPOINT 0 0 0 1 0 0 0
POINTS 540
DATA ascii
42.691753 -18.054344 9.922309 0.000000000000000e+00 1954047316
40.885208 -20.901869 10.126330 0.000000000000000e+00 1954047316
31.136044 -16.062658 -1.373238 0.000000000000000e+00 1851878480
30.202932 -17.138054 -1.188278 0.000000000000000e+00 1851878480
31.723928 -11.794463 -2.015555 0.000000000000000e+00 1851878480
30.576591 -12.790036 -1.864018 0.000000000000000e+00 1851878480
28.592468 -14.755011 -1.546148 0.000000000000000e+00 1851878480
27.798365 -15.782933 -1.380454 0.000000000000000e+00 1851878480
28.904705 -10.738171 -2.099026 0.000000000000000e+00 1851878480
28.142075 -11.767590 -1.979064 0.000000000000000e+00 1851878480
27.111244 -13.994971 -1.736653 0.000000000000000e+00 1851878480
26.408110 -15.002444 -1.584157 0.000000000000000e+00 1851878480
26.709539 -9.915121 -2.182481 0.000000000000000e+00 1851878480
26.396835 -11.033937 -2.103692 0.000000000000000e+00 1851878480
25.751400 -13.297130 -1.906877 0.000000000000000e+00 1851878480
24.959747 -14.187987 -1.755392 0.000000000000000e+00 1851878480
24.504204 -9.089542 -2.225330 0.000000000000000e+00 1851878480
24.618557 -10.286996 -2.192935 0.000000000000000e+00 1851878480
24.009647 -12.401585 -2.018149 0.000000000000000e+00 1851878480
23.525587 -13.380679 -1.898174 0.000000000000000e+00 1851878480
22.357054 -8.286767 -2.234083 0.000000000000000e+00 1851878480
22.572784 -9.428852 -2.222740 0.000000000000000e+00 1851878480
22.218370 -11.479919 -2.090235 0.000000000000000e+00 1851878480
21.961668 -12.498557 -1.999796 0.000000000000000e+00 1851878480
20.482605 -7.586205 -2.233682 0.000000000000000e+00 1851878480
20.587805 -8.596673 -2.220944 0.000000000000000e+00 1851878480
20.653202 -10.674524 -2.150291 0.000000000000000e+00 1851878480
20.205063 -11.505685 -2.049796 0.000000000000000e+00 1851878480
19.004755 -7.033472 -2.246204 0.000000000000000e+00 1851878480
19.007507 -7.934004 -2.229549 0.000000000000000e+00 1851878480
19.225443 -9.939694 -2.194962 0.000000000000000e+00 1851878480
18.803522 -10.713936 -2.103382 0.000000000000000e+00 1851878480
17.619280 -6.515725 -2.243737 0.000000000000000e+00 1851878480
17.598047 -7.343078 -2.230311 0.000000000000000e+00 1851878480
17.762989 -9.186459 -2.206960 0.000000000000000e+00 1851878480
17.653509 -10.064667 -2.158921 0.000000000000000e+00 1851878480
16.403864 -6.061603 -2.239389 0.000000000000000e+00 1851878480
16.402428 -6.841768 -2.233884 0.000000000000000e+00 1851878480
16.491426 -8.531517 -2.215483 0.000000000000000e+00 1851878480
16.569075 -9.452042 -2.199561 0.000000000000000e+00 1851878480
8.793225 -3.246803 -1.281207 1.880790849211783e-38 1684957512
15.428870 -6.433388 -2.247480 0.000000000000000e+00 1851878480
15.369923 -7.953817 -2.220353 0.000000000000000e+00 1851878480
15.445833 -8.816542 -2.212349 0.000000000000000e+00 1851878480
8.330558 -3.073593 -1.290494 1.880790849211783e-38 1684957512
8.284793 -3.453288 -1.285491 1.880790849211783e-38 1684957512
14.517210 -7.514905 -2.244431 0.000000000000000e+00 1851878480
14.441269 -8.248072 -2.220222 0.000000000000000e+00 1851878480
7.825516 -2.885027 -1.284468 1.880790849211783e-38 1684957512
7.815371 -3.256464 -1.287040 1.880790849211783e-38 1684957512
13.647609 -7.066981 -2.248785 0.000000000000000e+00 1851878480
13.629267 -7.788977 -2.239002 0.000000000000000e+00 1851878480
7.554821 -2.783073 -1.309914 1.880790849211783e-38 1684957512
7.608661 -3.169197 -1.325597 1.880790849211783e-38 1684957512
12.803581 -6.632021 -2.240284 0.000000000000000e+00 1851878480
12.798653 -7.318695 -2.237809 0.000000000000000e+00 1851878480
7.605066 -2.799403 -1.389149 1.880790849211783e-38 1684957512
7.582382 -3.157123 -1.393559 1.880790849211783e-38 1684957512
12.097467 -6.268253 -2.240468 0.000000000000000e+00 1851878480
12.091114 -6.918285 -2.242272 0.000000000000000e+00 1851878480
7.525405 -2.767922 -1.444567 1.880790849211783e-38 1684957512
7.545702 -3.140719 -1.459206 1.880790849211783e-38 1684957512
11.469253 -5.944632 -2.241787 0.000000000000000e+00 1851878480
11.447096 -6.553753 -2.244577 0.000000000000000e+00 1851878480
7.606692 -2.795630 -1.531095 1.880790849211783e-38 1684957512
7.585283 -3.156053 -1.539844 1.880790849211783e-38 1684957512
10.929480 -5.666662 -2.248773 0.000000000000000e+00 1851878480
10.855725 -6.218956 -2.244460 0.000000000000000e+00 1851878480
7.597562 -2.790084 -1.600308 1.880790849211783e-38 1684957512
7.554468 -3.142094 -1.606501 1.880790849211783e-38 1684957512
10.394227 -5.390867 -2.245986 0.000000000000000e+00 1851878480
10.310613 -5.910279 -2.242170 0.000000000000000e+00 1851878480
7.641129 -2.803876 -1.681168 1.880790849211783e-38 1684957512
7.627738 -3.171416 -1.695944 1.880790849211783e-38 1684957512
9.899303 -5.135833 -2.241643 0.000000000000000e+00 1851878480
9.812397 -5.628134 -2.239301 0.000000000000000e+00 1851878480
7.560325 -2.772033 -1.734547 1.880790849211783e-38 1684957512
7.579469 -3.150200 -1.758854 1.880790849211783e-38 1684957512
9.466319 -4.912776 -2.242069 0.000000000000000e+00 1851878480
9.318828 -5.348321 -2.227218 0.000000000000000e+00 1851878480
7.541026 -2.762764 -1.801338 1.880790849211783e-38 1684957512
7.542518 -3.133696 -1.823825 1.880790849211783e-38 1684957512
9.062552 -4.704752 -2.241078 0.000000000000000e+00 1851878480
8.936115 -5.131837 -2.232567 0.000000000000000e+00 1851878480
7.554087 -2.765345 -1.876055 1.880790849211783e-38 1684957512
7.568702 -3.143419 -1.904231 1.880790849211783e-38 1684957512
8.778726 -4.558882 -2.262936 0.000000000000000e+00 1851878480
8.609330 -4.947228 -2.244595 0.000000000000000e+00 1851878480
7.579023 -2.772260 -1.954352 1.880790849211783e-38 1684957512
7.534584 -3.128097 -1.969675 1.880790849211783e-38 1684957512
8.369420 -4.347742 -2.245551 0.000000000000000e+00 1851878480
8.292119 -4.767913 -2.252510 0.000000000000000e+00 1851878480
7.538687 -2.755293 -2.015950 1.880790849211783e-38 1684957512
7.550532 -3.133557 -2.048329 1.880790849211783e-38 1684957512
8.103644 -4.211056 -2.259941 0.000000000000000e+00 1851878480
7.936620 -4.566358 -2.243069 0.000000000000000e+00 1851878480
7.557065 -2.759781 -2.093333 1.880790849211783e-38 1684957512
7.549298 -3.131883 -2.122780 1.880790849211783e-38 1684957512
7.752669 -4.029992 -2.244422 0.000000000000000e+00 1851878480
7.648878 -4.403564 -2.246116 0.000000000000000e+00 1851878480
7.548801 -2.754527 -2.163736 1.880790849211783e-38 1684957512
7.537893 -3.125984 -2.194571 1.880790849211783e-38 1684957512
7.456151 -3.877138 -2.238161 0.000000000000000e+00 1851878480
7.377130 -4.249792 -2.248086 0.000000000000000e+00 1851878480
7.554538 -2.754378 -2.238446 1.880790849211783e-38 1684957512
7.474138 -3.098381 -2.250708 0.000000000000000e+00 1851878480
7.254568 -3.773567 -2.255459 0.000000000000000e+00 1851878480
7.106220 -4.096325 -2.244696 0.000000000000000e+00 1851878480
7.324953 -2.668487 -2.241582 0.000000000000000e+00 1851878480
7.223094 -2.993184 -2.247637 0.000000000000000e+00 1851878480
7.047963 -3.667319 -2.267198 0.000000000000000e+00 1851878480
6.859838 -3.956814 -2.243693 0.000000000000000e+00 1851878480
7.133347 -2.596553 -2.252576 0.000000000000000e+00 1851878480
6.994698 -2.897441 -2.247142 0.000000000000000e+00 1851878480
6.744928 -3.510814 -2.242804 0.000000000000000e+00 1851878480
6.653312 -3.840145 -2.251060 0.000000000000000e+00 1851878480
6.878289 -2.501641 -2.239496 0.000000000000000e+00 1851878480
6.785428 -2.809682 -2.248716 0.000000000000000e+00 1851878480
6.574096 -3.423045 -2.257618 0.000000000000000e+00 1851878480
6.438938 -3.718807 -2.251437 0.000000000000000e+00 1851878480
6.749589 -2.452793 -2.264123 0.000000000000000e+00 1851878480
6.565158 -2.717434 -2.242633 0.000000000000000e+00 1851878480
6.383164 -3.324759 -2.261975 0.000000000000000e+00 1851878480
6.204773 -3.585882 -2.240222 0.000000000000000e+00 1851878480
6.502193 -2.360917 -2.245557 0.000000000000000e+00 1851878480
6.417057 -2.655109 -2.257796 0.000000000000000e+00 1851878480
6.185130 -3.222706 -2.259941 0.000000000000000e+00 1851878480
5.968321 -3.451479 -2.223226 0.000000000000000e+00 1851878480
6.347768 -2.302912 -2.255453 0.000000000000000e+00 1851878480
6.160702 -2.548055 -2.231074 0.000000000000000e+00 1851878480
5.939232 -3.095644 -2.235915 0.000000000000000e+00 1851878480
5.805953 -3.359780 -2.229666 0.000000000000000e+00 1851878480
6.174358 -2.238106 -2.255675 0.000000000000000e+00 1851878480
6.044281 -2.498927 -2.251540 0.000000000000000e+00 1851878480
5.762959 -3.004800 -2.233810 0.000000000000000e+00 1851878480
5.694929 -3.297703 -2.253088 0.000000000000000e+00 1851878480
5.983067 -2.166924 -2.246048 0.000000000000000e+00 1851878480
5.909409 -2.442211 -2.262885 0.000000000000000e+00 1851878480
5.647137 -2.945432 -2.252273 0.000000000000000e+00 1851878480
5.516088 -3.196259 -2.246732 0.000000000000000e+00 1851878480
5.794912 -2.096985 -2.234117 0.000000000000000e+00 1851878480
5.720962 -2.363399 -2.250703 0.000000000000000e+00 1851878480
5.551646 -2.896634 -2.276873 0.000000000000000e+00 1851878480
5.332074 -3.091696 -2.234448 0.000000000000000e+00 1851878480
5.705573 -2.062878 -2.257815 0.000000000000000e+00 1851878480
5.612734 -2.317769 -2.267332 0.000000000000000e+00 1851878480
5.357884 -2.796520 -2.258304 0.000000000000000e+00 1851878480
5.189977 -3.011323 -2.236315 0.000000000000000e+00 1851878480
5.519897 -1.994018 -2.240934 0.000000000000000e+00 1851878480
5.390088 -2.224937 -2.234609 0.000000000000000e+00 1851878480
5.190536 -2.710129 -2.247164 0.000000000000000e+00 1851878480
5.062688 -2.939456 -2.241798 0.000000000000000e+00 1851878480
5.381610 -1.942368 -2.240318 0.000000000000000e+00 1851878480
5.271104 -2.174952 -2.241602 0.000000000000000e+00 1851878480
5.075692 -2.651110 -2.255932 0.000000000000000e+00 1851878480
4.957574 -2.880386 -2.254759 0.000000000000000e+00 1851878480
5.284504 -1.905645 -2.254769 0.000000000000000e+00 1851878480
5.187973 -2.139783 -2.262050 0.000000000000000e+00 1851878480
4.917320 -2.569310 -2.242609 0.000000000000000e+00 1851878480
4.774774 -2.776080 -2.229356 0.000000000000000e+00 1851878480
5.123712 -1.846028 -2.239721 0.000000000000000e+00 1851878480
5.009650 -2.065393 -2.238550 0.000000000000000e+00 1851878480
4.815200 -2.516861 -2.252326 0.000000000000000e+00 1851878480
4.692116 -2.729904 -2.247930 0.000000000000000e+00 1851878480
5.018034 -1.806343 -2.246336 0.000000000000000e+00 1851878480
4.918407 -2.026942 -2.251416 0.000000000000000e+00 1851878480
4.732381 -2.474468 -2.269325 0.000000000000000e+00 1851878480
4.555945 -2.652526 -2.238635 0.000000000000000e+00 1851878480
4.926468 -1.771793 -2.257555 0.000000000000000e+00 1851878480
4.813046 -1.982702 -2.256052 0.000000000000000e+00 1851878480
4.621696 -2.417479 -2.271102 0.000000000000000e+00 1851878480
4.486678 -2.614028 -2.260130 0.000000000000000e+00 1851878480
4.785755 -1.719627 -2.244154 0.000000000000000e+00 1851878480
4.648343 -1.914057 -2.230285 0.000000000000000e+00 1851878480
4.501427 -2.355438 -2.265851 0.000000000000000e+00 1851878480
4.408906 -2.570532 -2.275970 0.000000000000000e+00 1851878480
4.676970 -1.679008 -2.243427 0.000000000000000e+00 1851878480
4.628978 -1.905282 -2.272599 0.000000000000000e+00 1851878480
4.421798 -2.314633 -2.279091 0.000000000000000e+00 1851878480
4.220370 -2.462363 -2.231747 0.000000000000000e+00 1851878480
4.604798 -1.651580 -2.258686 0.000000000000000e+00 1851878480
4.494013 -1.848949 -2.256827 0.000000000000000e+00 1851878480
4.276047 -2.239178 -2.255958 0.000000000000000e+00 1851878480
4.164270 -2.431378 -2.254928 0.000000000000000e+00 1851878480
4.495736 -1.610973 -2.254262 0.000000000000000e+00 1851878480
4.393458 -1.806807 -2.256079 0.000000000000000e+00 1851878480
4.181149 -2.190310 -2.257159 0.000000000000000e+00 1851878480
4.088035 -2.388596 -2.265981 0.000000000000000e+00 1851878480
4.375820 -1.566538 -2.242272 0.000000000000000e+00 1851878480
4.312181 -1.772618 -2.263568 0.000000000000000e+00 1851878480
4.122082 -2.160191 -2.276253 0.000000000000000e+00 1851878480
3.945019 -2.306716 -2.237666 0.000000000000000e+00 1851878480
4.321937 -1.545792 -2.262588 0.000000000000000e+00 1851878480
4.153246 -1.706544 -2.227942 0.000000000000000e+00 1851878480
4.032054 -2.113826 -2.276847 0.000000000000000e+00 1851878480
3.911810 -2.288986 -2.269820 0.000000000000000e+00 1851878480
4.251464 -1.519141 -2.273226 0.000000000000000e+00 1851878480
4.093735 -1.681355 -2.243534 0.000000000000000e+00 1851878480
3.930345 -2.061303 -2.268895 0.000000000000000e+00 1851878480
3.780420 -2.213748 -2.243321 0.000000000000000e+00 1851878480
4.095971 -1.462179 -2.236263 0.000000000000000e+00 1851878480
3.968026 -1.629006 -2.221095 0.000000000000000e+00 1851878480
3.841220 -2.015351 -2.266252 0.000000000000000e+00 1851878480
3.721040 -2.180614 -2.257513 0.000000000000000e+00 1851878480
4.003264 -1.427702 -2.231168 0.000000000000000e+00 1851878480
3.937797 -1.615876 -2.250684 0.000000000000000e+00 1851878480
3.757839 -1.972383 -2.265257 0.000000000000000e+00 1851878480
3.640391 -2.134968 -2.257414 0.000000000000000e+00 1851878480
3.993739 -1.422916 -2.271668 0.000000000000000e+00 1634890835
3.871132 -1.587805 -2.258715 0.000000000000000e+00 1851878480
3.678312 -1.931412 -2.264951 0.000000000000000e+00 1851878480
3.534086 -2.074210 -2.239372 0.000000000000000e+00 1851878480
3.928456 -1.398277 -2.279999 0.000000000000000e+00 1634890835
3.780626 -1.549980 -2.251379 0.000000000000000e+00 1851878480
3.590611 -1.886118 -2.257905 0.000000000000000e+00 1851878480
3.500060 -2.055826 -2.265713 0.000000000000000e+00 1851878480
3.841852 -1.366091 -2.274603 0.000000000000000e+00 1634890835
3.689957 -1.512114 -2.242184 0.000000000000000e+00 1851878480
3.519761 -1.849655 -2.259844 0.000000000000000e+00 1851878480
3.433063 -2.018048 -2.269817 0.000000000000000e+00 1851878480
3.817981 -1.356241 -2.305475 0.000000000000000e+00 1634890835
3.673378 -1.504625 -2.277137 0.000000000000000e+00 1851878480
3.452065 -1.814827 -2.262446 0.000000000000000e+00 1851878480
3.326524 -1.956964 -2.245868 0.000000000000000e+00 1851878480
3.702685 -1.313950 -2.279914 0.000000000000000e+00 1634890835
3.588539 -1.469189 -2.268963 0.000000000000000e+00 1851878480
3.392807 -1.784414 -2.269358 0.000000000000000e+00 1851878480
3.283281 -1.933066 -2.263057 0.000000000000000e+00 1851878480
3.604006 -1.277622 -2.262457 0.000000000000000e+00 1634890835
3.465925 -1.418317 -2.234766 0.000000000000000e+00 1851878480
3.307415 -1.740232 -2.257317 0.000000000000000e+00 1851878480
3.198877 -1.884886 -2.250572 0.000000000000000e+00 1851878480
3.559901 -1.260679 -2.277966 0.000000000000000e+00 1634890835
3.498238 -1.430858 -2.299781 0.000000000000000e+00 1634890835
3.258705 -1.715330 -2.268968 0.000000000000000e+00 1851878480
3.171454 -1.870249 -2.277092 0.000000000000000e+00 1851878480
3.501770 -1.238793 -2.283689 0.000000000000000e+00 1634890835
3.434079 -1.403937 -2.301424 0.000000000000000e+00 1634890835
3.194745 -1.682382 -2.268937 0.000000000000000e+00 1851878480
3.087195 -1.822058 -2.261702 0.000000000000000e+00 1851878480
3.431841 -1.212772 -2.280581 0.000000000000000e+00 1634890835
3.308350 -1.351877 -2.259829 0.000000000000000e+00 1634890835
3.117093 -1.642200 -2.257702 0.000000000000000e+00 1851878480
2.994937 -1.769078 -2.238389 0.000000000000000e+00 1851878480
3.377244 -1.192201 -2.286560 0.000000000000000e+00 1634890835
3.312618 -1.352956 -2.305928 0.000000000000000e+00 1634890835
3.046646 -1.605790 -2.250096 0.000000000000000e+00 1851878480
2.972011 -1.757014 -2.265717 0.000000000000000e+00 1851878480
3.306137 -1.165833 -2.280231 0.000000000000000e+00 1634890835
3.253510 -1.328151 -2.307663 0.000000000000000e+00 1634890835
3.000166 -1.581992 -2.259029 0.000000000000000e+00 1851878480
2.878675 -1.703284 -2.238156 0.000000000000000e+00 1851878480
3.281038 -1.155717 -2.304870 0.000000000000000e+00 1634890835
3.168266 -1.292701 -2.289428 0.000000000000000e+00 1634890835
2.970297 -1.566945 -2.279883 0.000000000000000e+00 1851878480
2.827835 -1.674644 -2.241985 0.000000000000000e+00 1851878480
3.222354 -1.133788 -2.305304 0.000000000000000e+00 1634890835
3.097232 -1.263073 -2.279853 0.000000000000000e+00 1634890835
2.909171 -1.535394 -2.275936 0.000000000000000e+00 1851878480
2.800488 -1.659897 -2.263786 0.000000000000000e+00 1851878480
3.129335 -1.099823 -2.279669 0.000000000000000e+00 1634890835
3.047251 -1.242050 -2.284622 0.000000000000000e+00 1634890835
2.803001 -1.480042 -2.234798 0.000000000000000e+00 1851878480
2.757343 -1.635766 -2.272275 0.000000000000000e+00 1851878480
3.104041 -1.089695 -2.302295 0.000000000000000e+00 1634890835
2.993270 -1.219408 -2.285461 0.000000000000000e+00 1634890835
2.791692 -1.474754 -2.268063 0.000000000000000e+00 1851878480
0.875619 -0.519917 -0.735534 0.000000000000000e+00 1886740808
2.987387 -1.047537 -2.255746 0.000000000000000e+00 1634890835
2.953806 -1.202695 -2.296589 0.000000000000000e+00 1634890835
2.693492 -1.423549 -2.229608 0.000000000000000e+00 1851878480
0.835981 -0.496831 -0.715739 0.000000000000000e+00 1886740808
3.010915 -1.054559 -2.314283 0.000000000000000e+00 1634890835
2.864581 -1.165742 -2.267726 0.000000000000000e+00 1634890835
0.863705 -0.456699 -0.728381 0.000000000000000e+00 1886740808
0.793603 -0.472078 -0.692447 0.000000000000000e+00 1886740808
2.925822 -1.023546 -2.288980 0.000000000000000e+00 1634890835
2.825555 -1.149234 -2.277289 0.000000000000000e+00 1634890835
0.877058 -0.463982 -0.753458 0.000000000000000e+00 1886740808
0.825877 -0.491733 -0.734316 0.000000000000000e+00 1886740808
2.876267 -1.005007 -2.290124 0.000000000000000e+00 1634890835
2.823604 -1.147810 -2.316666 0.000000000000000e+00 1634890835
0.857837 -0.454037 -0.750645 0.000000000000000e+00 1886740808
0.799979 -0.476762 -0.724756 0.000000000000000e+00 1886740808
2.836217 -0.989814 -2.298093 0.000000000000000e+00 1634890835
2.741076 -1.113641 -2.289226 0.000000000000000e+00 1634890835
0.834937 -0.442136 -0.744127 0.000000000000000e+00 1886740808
0.754546 -0.450115 -0.696481 0.000000000000000e+00 1886740808
2.772047 -0.966229 -2.285554 0.000000000000000e+00 1634890835
0.859418 -0.348966 -0.730543 0.000000000000000e+00 1886740808
0.813044 -0.430759 -0.737967 0.000000000000000e+00 1886740808
0.790375 -0.471946 -0.743250 0.000000000000000e+00 1886740808
0.867543 -0.302016 -0.727800 0.000000000000000e+00 1886740808
0.822493 -0.333781 -0.711565 0.000000000000000e+00 1886740808
0.767396 -0.406781 -0.709319 0.000000000000000e+00 1886740808
0.742793 -0.443970 -0.711571 0.000000000000000e+00 1886740808
0.805481 -0.280056 -0.687505 0.000000000000000e+00 1886740808
0.854187 -0.346442 -0.752051 0.000000000000000e+00 1886740808
0.774170 -0.410584 -0.728668 0.000000000000000e+00 1886740808
0.734825 -0.439645 -0.717061 0.000000000000000e+00 1886740808
0.842451 -0.292535 -0.731539 0.000000000000000e+00 1886740808
0.814844 -0.330290 -0.730051 0.000000000000000e+00 1886740808
0.793039 -0.420813 -0.760036 0.000000000000000e+00 1886740808
0.758577 -0.454315 -0.753996 0.000000000000000e+00 1886740808
0.832587 -0.288733 -0.735476 0.000000000000000e+00 1886740808
0.808487 -0.327518 -0.737075 0.000000000000000e+00 1886740808
0.743526 -0.394750 -0.725538 0.000000000000000e+00 1886740808
0.751222 -0.450373 -0.760526 0.000000000000000e+00 1886740808
0.817456 -0.283113 -0.734558 0.000000000000000e+00 1886740808
0.769949 -0.311716 -0.714230 0.000000000000000e+00 1886740808
0.803310 -0.426721 -0.798088 0.000000000000000e+00 1886740808
0.704301 -0.422683 -0.726209 0.000000000000000e+00 1886740808
0.793758 -0.274536 -0.725524 0.000000000000000e+00 1886740808
0.767974 -0.310725 -0.724837 0.000000000000000e+00 1886740808
0.761223 -0.404587 -0.769956 0.000000000000000e+00 1886740808
0.746167 -0.448283 -0.783576 0.000000000000000e+00 1886740808
0.731535 -0.252671 -0.680115 0.000000000000000e+00 1886740808
0.755578 -0.305519 -0.725560 0.000000000000000e+00 1886740808
0.788112 -0.419112 -0.811546 0.000000000000000e+00 1886740808
0.764074 -0.459535 -0.817163 0.000000000000000e+00 1886740808
0.754109 -0.260108 -0.713095 0.000000000000000e+00 1886740808
0.768676 -0.310617 -0.750968 0.000000000000000e+00 1886740808
0.772709 -0.411153 -0.810027 0.000000000000000e+00 1886740808
2.121818 -1.277515 -2.310994 0.000000000000000e+00 1634890835
0.786878 -0.271029 -0.756785 0.000000000000000e+00 1886740808
0.775606 -0.313215 -0.770887 0.000000000000000e+00 1886740808
0.766995 -0.408348 -0.818512 0.000000000000000e+00 1886740808
2.059886 -1.241605 -2.284774 0.000000000000000e+00 1634890835
0.753986 -0.259329 -0.737511 0.000000000000000e+00 1886740808
0.761404 -0.307278 -0.769886 0.000000000000000e+00 1886740808
2.166144 -1.153930 -2.353214 0.000000000000000e+00 1634890835
2.064101 -1.245552 -2.331498 0.000000000000000e+00 1634890835
0.782423 -0.268718 -0.778354 0.000000000000000e+00 1886740808
0.789745 -0.318502 -0.812363 0.000000000000000e+00 1886740808
2.079833 -1.108612 -2.300058 0.000000000000000e+00 1634890835
0.844300 -0.510066 -0.971185 0.000000000000000e+00 1886740808
0.767389 -0.263166 -0.776378 0.000000000000000e+00 1886740808
0.733404 -0.295580 -0.767453 0.000000000000000e+00 1886740808
2.065680 -1.101735 -2.325449 0.000000000000000e+00 1634890835
0.757473 -0.458147 -0.887304 0.000000000000000e+00 1886740808
0.741800 -0.254008 -0.763239 0.000000000000000e+00 1886740808
0.766919 -0.308873 -0.816394 0.000000000000000e+00 1886740808
2.034572 -1.085811 -2.331579 0.000000000000000e+00 1634890835
0.792753 -0.480056 -0.945683 0.000000000000000e+00 1886740808
0.749773 -0.256346 -0.784542 0.000000000000000e+00 1886740808
2.137433 -0.860237 -2.314637 0.000000000000000e+00 1634890835
0.808510 -0.431757 -0.943188 0.000000000000000e+00 1886740808
0.793734 -0.481233 -0.964252 0.000000000000000e+00 1886740808
0.719337 -0.245557 -0.765473 0.000000000000000e+00 1886740808
2.115052 -0.850622 -2.329976 0.000000000000000e+00 1634890835
0.805333 -0.430335 -0.956375 0.000000000000000e+00 1886740808
0.795142 -0.482682 -0.983727 0.000000000000000e+00 1886740808
0.785547 -0.267733 -0.850122 0.000000000000000e+00 1886740808
2.034226 -0.817520 -2.279671 0.000000000000000e+00 1634890835
0.821245 -0.439123 -0.992825 0.000000000000000e+00 1886740808
1.812536 -1.101662 -2.283709 0.000000000000000e+00 1634890835
2.067493 -0.703512 -2.275448 0.000000000000000e+00 1634890835
2.014410 -0.808955 -2.296507 0.000000000000000e+00 1634890835
0.780303 -0.417509 -0.960328 0.000000000000000e+00 1886740808
1.792677 -1.090987 -2.300344 0.000000000000000e+00 1634890835
2.075604 -0.705110 -2.323199 0.000000000000000e+00 1634890835
1.962534 -0.787526 -2.276099 0.000000000000000e+00 1634890835
0.799336 -0.427980 -1.001508 0.000000000000000e+00 1886740808
0.791423 -0.482273 -1.034311 0.000000000000000e+00 1886740808
2.008604 -0.681203 -2.286451 0.000000000000000e+00 1634890835
1.938233 -0.777175 -2.286879 0.000000000000000e+00 1634890835
0.744686 -0.398994 -0.949908 0.000000000000000e+00 1886740808
1.717812 -1.048184 -2.286587 0.000000000000000e+00 1634890835
1.974202 -0.668389 -2.285568 0.000000000000000e+00 1634890835
0.805660 -0.322793 -0.967082 0.000000000000000e+00 1886740808
1.791255 -0.960409 -2.326302 0.000000000000000e+00 1634890835
1.694577 -1.035411 -2.297540 0.000000000000000e+00 1634890835
1.929978 -0.652276 -2.272484 0.000000000000000e+00 1634890835
0.792761 -0.317370 -0.968149 0.000000000000000e+00 1886740808
0.765909 -0.410948 -1.012757 0.000000000000000e+00 1886740808
1.668707 -1.021016 -2.304596 0.000000000000000e+00 1634890835
1.918326 -0.647183 -2.297366 0.000000000000000e+00 1634890835
0.807166 -0.322873 -1.002921 0.000000000000000e+00 1886740808
1.709914 -0.918121 -2.302203 0.000000000000000e+00 1634890835
1.648305 -1.009959 -2.318947 0.000000000000000e+00 1634890835
0.815820 -0.274731 -0.993749 0.000000000000000e+00 1886740808
0.780447 -0.311924 -0.986664 0.000000000000000e+00 1886740808
1.682999 -0.904345 -2.307383 0.000000000000000e+00 1634890835
1.603887 -0.984162 -2.298765 0.000000000000000e+00 1634890835
0.838839 -0.281958 -1.039330 0.000000000000000e+00 1886740808
0.774087 -0.309120 -0.995770 0.000000000000000e+00 1886740808
1.659136 -0.892200 -2.316387 0.000000000000000e+00 1634890835
1.570201 -0.964914 -2.292845 0.000000000000000e+00 1634890835
0.793536 -0.266224 -1.000125 0.000000000000000e+00 1886740808
0.780149 -0.311269 -1.021203 0.000000000000000e+00 1886740808
1.609119 -0.865978 -2.287921 0.000000000000000e+00 1634890835
1.539506 -0.947477 -2.290517 0.000000000000000e+00 1634890835
0.770951 -0.258146 -0.988437 0.000000000000000e+00 1886740808
1.707355 -0.680606 -2.274308 0.000000000000000e+00 1634890835
1.572905 -0.847161 -2.277778 0.000000000000000e+00 1634890835
1.508849 -0.930040 -2.287538 0.000000000000000e+00 1634890835
0.769784 -0.257244 -1.004037 0.000000000000000e+00 1886740808
1.713845 -0.682573 -2.323354 0.000000000000000e+00 1634890835
1.598919 -0.861872 -2.358452 0.000000000000000e+00 1634890835
1.483419 -0.915806 -2.291906 0.000000000000000e+00 1634890835
0.786671 -0.262354 -1.043903 0.000000000000000e+00 1886740808
0.786666 -0.313015 -1.085383 0.000000000000000e+00 1886740808
1.536177 -0.828740 -2.308191 0.000000000000000e+00 1634890835
1.447683 -0.895185 -2.279608 0.000000000000000e+00 1634890835
1.705481 -0.567594 -2.302656 0.000000000000000e+00 1634890835
1.649009 -0.655517 -2.315781 0.000000000000000e+00 1634890835
1.511480 -0.816110 -2.313685 0.000000000000000e+00 1634890835
1.420200 -0.879639 -2.279483 0.000000000000000e+00 1634890835
0.764430 -0.253866 -1.050187 0.000000000000000e+00 1886740808
1.606740 -0.638093 -2.296872 0.000000000000000e+00 1634890835
1.475469 -0.797362 -2.301166 0.000000000000000e+00 1634890835
1.387422 -0.860790 -2.270104 0.000000000000000e+00 1634890835
1.623212 -0.537894 -2.269262 0.000000000000000e+00 1634890835
1.611797 -0.639462 -2.345610 0.000000000000000e+00 1634890835
1.470177 -0.795210 -2.336415 0.000000000000000e+00 1634890835
1.367980 -0.850196 -2.282022 0.000000000000000e+00 1634890835
1.599567 -0.528877 -2.275776 0.000000000000000e+00 1634890835
1.574189 -0.623906 -2.332373 0.000000000000000e+00 1634890835
1.407635 -0.762076 -2.279732 0.000000000000000e+00 1634890835
1.346952 -0.838611 -2.291142 0.000000000000000e+00 1634890835
1.581483 -0.521703 -2.290067 0.000000000000000e+00 1634890835
1.533025 -0.606955 -2.312752 0.000000000000000e+00 1634890835
1.383971 -0.749966 -2.284482 0.000000000000000e+00 1634890835
1.295413 -0.807990 -2.247129 0.000000000000000e+00 1634890835
1.554061 -0.511454 -2.290602 0.000000000000000e+00 1634890835
1.512271 -0.598096 -2.323242 0.000000000000000e+00 1634890835
1.356944 -0.736027 -2.283215 0.000000000000000e+00 1634890835
1.284373 -0.802598 -2.272451 0.000000000000000e+00 1634890835
1.523149 -0.500075 -2.285423 0.000000000000000e+00 1634890835
1.447430 -0.571822 -2.264624 0.000000000000000e+00 1634890835
1.346715 -0.731198 -2.310176 0.000000000000000e+00 1634890835
1.310016 -0.820189 -2.364453 0.000000000000000e+00 1634890835
1.510447 -0.494679 -2.307383 0.000000000000000e+00 1634890835
1.443583 -0.569658 -2.300522 0.000000000000000e+00 1634890835
1.312127 -0.713138 -2.295056 0.000000000000000e+00 1634890835
1.240052 -0.777912 -2.283580 0.000000000000000e+00 1634890835
1.497548 -0.489211 -2.329353 0.000000000000000e+00 1634890835
1.406738 -0.554476 -2.283701 0.000000000000000e+00 1634890835
1.326647 -0.721779 -2.366405 0.000000000000000e+00 1634890835
1.222906 -0.768706 -2.298093 0.000000000000000e+00 1634890835
1.442711 -0.470068 -2.285214 0.000000000000000e+00 1634890835
1.403188 -0.552419 -2.320821 0.000000000000000e+00 1634890835
1.232476 -0.671258 -2.242331 0.000000000000000e+00 1634890835
1.197788 -0.754477 -2.297373 0.000000000000000e+00 1634890835
1.428015 -0.464033 -2.303720 0.000000000000000e+00 1634890835
1.383865 -0.544144 -2.332283 0.000000000000000e+00 1634890835
1.277256 -0.696409 -2.370623 0.000000000000000e+00 1634890835
1.173059 -0.740477 -2.296853 0.000000000000000e+00 1634890835
1.421328 -0.460587 -2.335608 0.000000000000000e+00 1634890835
1.346527 -0.528797 -2.312752 0.000000000000000e+00 1634890835
1.238521 -0.676053 -2.345475 0.000000000000000e+00 1634890835
1.152317 -0.728983 -2.303752 0.000000000000000e+00 1634890835
1.364981 -0.441072 -2.285089 0.000000000000000e+00 1634890835
1.316425 -0.516305 -2.304651 0.000000000000000e+00 1634890835
1.172359 -0.640680 -2.265764 0.000000000000000e+00 1634890835
1.153179 -0.731179 -2.354532 0.000000000000000e+00 1634890835
1.328743 -0.428106 -2.266492 0.000000000000000e+00 1634890835
1.295074 -0.507255 -2.311379 0.000000000000000e+00 1634890835
1.181877 -0.646654 -2.331531 0.000000000000000e+00 1634890835
1.099795 -0.698953 -2.293832 0.000000000000000e+00 1634890835
1.324434 -0.425432 -2.302236 0.000000000000000e+00 1634890835
1.271713 -0.497420 -2.314244 0.000000000000000e+00 1634890835
1.142170 -0.625698 -2.300423 0.000000000000000e+00 1634890835
1.061714 -0.676372 -2.262576 0.000000000000000e+00 1634890835
1.302140 -0.416972 -2.307045 0.000000000000000e+00 1634890835
1.246345 -0.486808 -2.313033 0.000000000000000e+00 1634890835
1.127828 -0.618625 -2.319664 0.000000000000000e+00 1634890835
1.073989 -0.685886 -2.339106 0.000000000000000e+00 1634890835
1.265110 -0.403815 -2.284979 0.000000000000000e+00 1634890835
1.199570 -0.467854 -2.270789 0.000000000000000e+00 1634890835
1.116263 -0.613083 -2.345078 0.000000000000000e+00 1634890835
1.041704 -0.666968 -2.319339 0.000000000000000e+00 1634890835
1.232943 -0.392246 -2.270562 0.000000000000000e+00 1634890835
1.199438 -0.467099 -2.316462 0.000000000000000e+00 1634890835
1.075952 -0.591743 -2.309406 0.000000000000000e+00 1634890835
0.996552 -0.639743 -2.268872 0.000000000000000e+00 1634890835
1.209492 -0.383469 -2.271507 0.000000000000000e+00 1634890835
1.172147 -0.455761 -2.310032 0.000000000000000e+00 1634890835
1.042327 -0.574051 -2.286345 0.000000000000000e+00 1634890835
0.985030 -0.634071 -2.293910 0.000000000000000e+00 1634890835
1.178720 -0.372391 -2.258038 0.000000000000000e+00 1634890835
1.157031 -0.449160 -2.327379 0.000000000000000e+00 1634890835
1.043547 -0.575550 -2.339910 0.000000000000000e+00 1634890835
0.975024 -0.629402 -2.323238 0.000000000000000e+00 1634890835
1.153865 -0.363204 -2.255166 0.000000000000000e+00 1634890835
1.105090 -0.428283 -2.269388 0.000000000000000e+00 1634890835
0.983561 -0.543277 -2.255094 0.000000000000000e+00 1634890835
0.959011 -0.620872 -2.338805 0.000000000000000e+00 1634890835
1.165225 -0.365389 -2.323985 0.000000000000000e+00 1634890835
1.106343 -0.428031 -2.320050 0.000000000000000e+00 1634890835
1.014878 -0.561441 -2.380042 0.000000000000000e+00 1634890835
0.903443 -0.586665 -2.255852 0.000000000000000e+00 1634890835
1.110932 -0.346996 -2.261591 0.000000000000000e+00 1634890835
1.079637 -0.416954 -2.312567 0.000000000000000e+00 1634890835
0.952981 -0.528043 -2.286660 0.000000000000000e+00 1634890835
0.893120 -0.581780 -2.284103 0.000000000000000e+00 1634890835
1.089138 -0.338803 -2.263708 0.000000000000000e+00 1634890835
1.059419 -0.408390 -2.318527 0.000000000000000e+00 1634890835
0.953016 -0.528939 -2.340512 0.000000000000000e+00 1634890835
0.885910 -0.578959 -2.321430 0.000000000000000e+00 1634890835
1.082763 -0.335397 -2.298238 0.000000000000000e+00 1634890835
1.029746 -0.396190 -2.303172 0.000000000000000e+00 1634890835
0.918952 -0.510912 -2.310736 0.000000000000000e+00 1634890835
0.858711 -0.563080 -2.306464 0.000000000000000e+00 1634890835
1.053032 -0.324754 -2.283206 0.000000000000000e+00 1634890835
1.010073 -0.387848 -2.309573 0.000000000000000e+00 1634890835
0.904251 -0.503637 -2.328924 0.000000000000000e+00 1634890835
0.824576 -0.542594 -2.271153 0.000000000000000e+00 1634890835
1.042407 -0.320008 -2.309443 0.000000000000000e+00 1634890835
0.978493 -0.374945 -2.288002 0.000000000000000e+00 1634890835
0.871509 -0.486302 -2.299943 0.000000000000000e+00 1634890835
0.464777 -0.306952 -1.313313 0.000000000000000e+00 1936876886
1.013924 -0.309784 -2.296004 0.000000000000000e+00 1634890835
0.946188 -0.361787 -2.263290 0.000000000000000e+00 1634890835
0.869846 -0.486314 -2.353136 0.000000000000000e+00 1634890835
0.447211 -0.296474 -1.297024 0.000000000000000e+00 1936876886
0.992526 -0.301744 -2.297965 0.000000000000000e+00 1634890835
0.951618 -0.363049 -2.329386 0.000000000000000e+00 1634890835
0.848536 -0.475355 -2.354090 0.000000000000000e+00 1634890835
0.423170 -0.281647 -1.260306 0.000000000000000e+00 1936876886
0.968252 -0.292843 -2.292809 0.000000000000000e+00 1634890835
0.931620 -0.354589 -2.334491 0.000000000000000e+00 1634890835
0.460724 -0.258642 -1.311420 0.000000000000000e+00 1936876886
0.346487 -0.231563 -1.060233 0.000000000000000e+00 1953264973
0.939362 -0.282572 -2.275840 0.000000000000000e+00 1634890835
0.902277 -0.342585 -2.315453 0.000000000000000e+00 1634890835
0.445246 -0.250501 -1.300950 0.000000000000000e+00 1936876886
0.324698 -0.217937 -1.021379 0.000000000000000e+00 1953264973
0.500128 -0.149596 -1.240161 0.000000000000000e+00 1936876886
0.885752 -0.335456 -2.328773 0.000000000000000e+00 1634890835
0.374319 -0.211078 -1.123269 0.000000000000000e+00 1953264973
0.282431 -0.190423 -0.913828 0.000000000000000e+00 1953264973
0.482178 -0.143375 -1.224220 0.000000000000000e+00 1936876886
0.863107 -0.326010 -2.325862 0.000000000000000e+00 1634890835
0.353660 -0.199906 -1.090546 0.000000000000000e+00 1953264973
0.266564 -0.180573 -0.887706 0.000000000000000e+00 1953264973
0.446429 -0.131925 -1.161008 0.000000000000000e+00 1936876886
0.827833 -0.311817 -2.287508 0.000000000000000e+00 1634890835
0.301035 -0.170586 -0.954425 0.000000000000000e+00 1953264973
0.241134 -0.164156 -0.827044 0.000000000000000e+00 1953264973
