# .PCD v0.7 - Point Cloud Data file format
VERSION 0.7
FIELDS x y z rgb label
SIZE 4 4 4 4 4
TYPE F F F F U
COUNT 1 1 1 1 1
WIDTH 539
HEIGHT 1
VIEWPOINT 0 0 0 1 0 0 0
POINTS 539
DATA ascii
42.044861 -17.787291 10.184986 0.000000000000000e+00 1954047316
32.817635 -16.930166 -1.447403 0.000000000000000e+00 1851878480
31.326019 -17.775328 -1.232463 0.000000000000000e+00 1851878480
31.805521 -11.824797 -2.020738 0.000000000000000e+00 1851878480
30.952444 -12.947255 -1.886931 0.000000000000000e+00 1851878480
28.597349 -14.757529 -1.546412 0.000000000000000e+00 1851878480
27.691118 -15.722043 -1.375127 0.000000000000000e+00 1851878480
28.856485 -10.720256 -2.095524 0.000000000000000e+00 1851878480
28.089357 -11.745545 -1.975355 0.000000000000000e+00 1851878480
26.860023 -13.865290 -1.720559 0.000000000000000e+00 1851878480
26.163713 -14.863603 -1.569495 0.000000000000000e+00 1851878480
26.601219 -9.874910 -2.173629 0.000000000000000e+00 1851878480
26.180044 -10.943316 -2.086415 0.000000000000000e+00 1851878480
25.545416 -13.190766 -1.891624 0.000000000000000e+00 1851878480
24.912783 -14.161290 -1.752088 0.000000000000000e+00 1851878480
24.326435 -9.023602 -2.209185 0.000000000000000e+00 1851878480
24.573063 -10.267986 -2.188882 0.000000000000000e+00 1851878480
23.850616 -12.319441 -2.004783 0.000000000000000e+00 1851878480
23.558573 -13.399440 -1.900834 0.000000000000000e+00 1851878480
22.312910 -8.270405 -2.229672 0.000000000000000e+00 1851878480
22.567833 -9.426784 -2.222253 0.000000000000000e+00 1851878480
22.214460 -11.477897 -2.089867 0.000000000000000e+00 1851878480
21.933376 -12.482455 -1.997220 0.000000000000000e+00 1851878480
20.480080 -7.585271 -2.233407 0.000000000000000e+00 1851878480
20.638628 -8.617895 -2.226426 0.000000000000000e+00 1851878480
20.638721 -10.667040 -2.148784 0.000000000000000e+00 1851878480
20.354343 -11.590691 -2.064941 0.000000000000000e+00 1851878480
18.923496 -7.003399 -2.236600 0.000000000000000e+00 1851878480
18.976343 -7.920995 -2.225893 0.000000000000000e+00 1851878480
19.256680 -9.955845 -2.198529 0.000000000000000e+00 1851878480
18.860605 -10.746461 -2.109766 0.000000000000000e+00 1851878480
17.577660 -6.500333 -2.238437 0.000000000000000e+00 1851878480
17.619135 -7.351878 -2.232984 0.000000000000000e+00 1851878480
17.754520 -9.182079 -2.205908 0.000000000000000e+00 1851878480
17.694057 -10.087785 -2.163880 0.000000000000000e+00 1851878480
16.396881 -6.059022 -2.238436 0.000000000000000e+00 1851878480
16.435860 -6.855712 -2.238437 0.000000000000000e+00 1851878480
16.457880 -8.514162 -2.210977 0.000000000000000e+00 1851878480
16.529623 -9.429535 -2.194324 0.000000000000000e+00 1851878480
15.362919 -5.672590 -2.238437 0.000000000000000e+00 1851878480
15.366786 -6.407500 -2.238436 0.000000000000000e+00 1851878480
15.396530 -7.967587 -2.224197 0.000000000000000e+00 1851878480
15.405279 -8.793394 -2.206540 0.000000000000000e+00 1851878480
8.254580 -3.045561 -1.278724 1.880790849211783e-38 1684957512
8.241177 -3.435108 -1.278723 1.880790849211783e-38 1684957512
14.455091 -7.482749 -2.234826 0.000000000000000e+00 1851878480
14.422945 -8.237606 -2.217405 0.000000000000000e+00 1851878480
7.790520 -2.872125 -1.278723 1.880790849211783e-38 1684957512
7.764874 -3.235423 -1.278723 1.880790849211783e-38 1684957512
13.584804 -7.034459 -2.238436 0.000000000000000e+00 1851878480
13.578489 -7.759957 -2.230660 0.000000000000000e+00 1851878480
7.374931 -2.716804 -1.278724 1.880790849211783e-38 1684957512
7.339619 -3.057134 -1.278724 1.880790849211783e-38 1684957512
12.793017 -6.626549 -2.238436 0.000000000000000e+00 1851878480
12.802242 -7.320748 -2.238436 0.000000000000000e+00 1851878480
7.000531 -2.576876 -1.278724 1.880790849211783e-38 1684957512
6.957562 -2.896963 -1.278724 1.880790849211783e-38 1684957512
12.086494 -6.262568 -2.238436 0.000000000000000e+00 1851878480
12.070428 -6.906449 -2.238436 0.000000000000000e+00 1851878480
6.750532 -2.482915 -1.295823 1.880790849211783e-38 1684957512
6.750531 -2.809749 -1.305434 1.880790849211783e-38 1684957512
11.452107 -5.935746 -2.238436 0.000000000000000e+00 1851878480
11.415778 -6.535822 -2.238436 0.000000000000000e+00 1851878480
6.750531 -2.480972 -1.358765 1.880790849211783e-38 1684957512
6.750531 -2.808733 -1.370386 1.880790849211783e-38 1684957512
10.879243 -5.640615 -2.238437 0.000000000000000e+00 1851878480
10.826593 -6.202267 -2.238437 0.000000000000000e+00 1851878480
6.750532 -2.479026 -1.421894 1.880790849211783e-38 1684957512
6.750531 -2.807717 -1.435539 1.880790849211783e-38 1684957512
10.359286 -5.372746 -2.238436 0.000000000000000e+00 1851878480
10.293447 -5.900440 -2.238438 0.000000000000000e+00 1851878480
6.750531 -2.477075 -1.485223 1.880790849211783e-38 1684957512
6.750532 -2.806696 -1.500906 1.880790849211783e-38 1684957512
9.885148 -5.128490 -2.238438 0.000000000000000e+00 1851878480
9.808612 -5.625963 -2.238437 0.000000000000000e+00 1851878480
6.750530 -2.475117 -1.548757 1.880790849211783e-38 1684957512
6.750532 -2.805675 -1.566495 1.880790849211783e-38 1684957512
9.450985 -4.904819 -2.238438 0.000000000000000e+00 1851878480
9.365771 -5.375263 -2.238438 0.000000000000000e+00 1851878480
6.750531 -2.473155 -1.612511 1.880790849211783e-38 1684957512
6.750531 -2.804649 -1.632318 1.880790849211783e-38 1684957512
9.051873 -4.699208 -2.238437 0.000000000000000e+00 1851878480
8.959612 -5.145330 -2.238437 0.000000000000000e+00 1851878480
6.750533 -2.471185 -1.676493 1.880790849211783e-38 1684957512
6.750531 -2.803618 -1.698385 1.880790849211783e-38 1684957512
8.683688 -4.509528 -2.238437 0.000000000000000e+00 1851878480
8.585711 -4.933656 -2.238437 0.000000000000000e+00 1851878480
6.750530 -2.469213 -1.740714 1.880790849211783e-38 1684957512
6.750531 -2.802585 -1.764709 1.880790849211783e-38 1684957512
8.342907 -4.333969 -2.238437 0.000000000000000e+00 1851878480
8.240312 -4.738124 -2.238436 0.000000000000000e+00 1851878480
6.750531 -2.467232 -1.805186 1.880790849211783e-38 1684957512
6.750532 -2.801548 -1.831302 1.880790849211783e-38 1684957512
8.026534 -4.170986 -2.238437 0.000000000000000e+00 1851878480
7.920231 -4.556928 -2.238437 0.000000000000000e+00 1851878480
6.750532 -2.465242 -1.869921 1.880790849211783e-38 1684957512
6.750532 -2.800508 -1.898176 1.880790849211783e-38 1684957512
7.731996 -4.019245 -2.238437 0.000000000000000e+00 1851878480
7.622727 -4.388509 -2.238436 0.000000000000000e+00 1851878480
6.750532 -2.463241 -1.934926 1.880790849211783e-38 1684957512
6.750532 -2.799464 -1.965340 1.880790849211783e-38 1684957512
7.457070 -3.877615 -2.238437 0.000000000000000e+00 1851878480
7.345468 -4.231552 -2.238437 0.000000000000000e+00 1851878480
6.750532 -2.461238 -2.000215 1.880790849211783e-38 1684957512
6.750532 -2.798412 -2.032806 1.880790849211783e-38 1684957512
7.199817 -3.745088 -2.238436 0.000000000000000e+00 1851878480
7.086404 -4.084902 -2.238437 0.000000000000000e+00 1851878480
6.750532 -2.459225 -2.065798 1.880790849211783e-38 1684957512
6.750532 -2.797359 -2.100589 1.880790849211783e-38 1684957512
6.958555 -3.620796 -2.238437 0.000000000000000e+00 1851878480
6.843768 -3.947545 -2.238436 0.000000000000000e+00 1851878480
6.750530 -2.457207 -2.131690 1.880790849211783e-38 1684957512
6.750532 -2.796299 -2.168701 1.880790849211783e-38 1684957512
6.731793 -3.503978 -2.238437 0.000000000000000e+00 1851878480
6.616003 -3.818611 -2.238437 0.000000000000000e+00 1851878480
6.750531 -2.455176 -2.197899 1.880790849211783e-38 1684957512
6.750532 -2.795233 -2.237151 1.880790849211783e-38 1684957512
6.518242 -3.393963 -2.238437 0.000000000000000e+00 1851878480
6.401757 -3.697333 -2.238437 0.000000000000000e+00 1851878480
6.673016 -2.424967 -2.238436 0.000000000000000e+00 1851878480
6.552875 -2.712349 -2.238437 0.000000000000000e+00 1851878480
6.316741 -3.290162 -2.238436 0.000000000000000e+00 1851878480
6.199831 -3.583026 -2.238437 0.000000000000000e+00 1851878480
6.481575 -2.353431 -2.238436 0.000000000000000e+00 1851878480
6.362034 -2.632343 -2.238437 0.000000000000000e+00 1851878480
6.126276 -3.192040 -2.238437 0.000000000000000e+00 1851878480
6.009157 -3.475095 -2.238437 0.000000000000000e+00 1851878480
6.299879 -2.285538 -2.238436 0.000000000000000e+00 1851878480
6.181034 -2.556464 -2.238436 0.000000000000000e+00 1851878480
5.945933 -3.099136 -2.238437 0.000000000000000e+00 1851878480
5.828792 -3.372996 -2.238437 0.000000000000000e+00 1851878480
6.127173 -2.221003 -2.238437 0.000000000000000e+00 1851878480
6.009104 -2.484383 -2.238436 0.000000000000000e+00 1851878480
5.774896 -3.011024 -2.238437 0.000000000000000e+00 1851878480
5.657896 -3.276259 -2.238437 0.000000000000000e+00 1851878480
5.962790 -2.159580 -2.238437 0.000000000000000e+00 1851878480
5.845563 -2.415825 -2.238437 0.000000000000000e+00 1851878480
5.612446 -2.927338 -2.238436 0.000000000000000e+00 1851878480
5.495725 -3.184459 -2.238437 0.000000000000000e+00 1851878480
5.806118 -2.101040 -2.238437 0.000000000000000e+00 1851878480
5.689784 -2.350519 -2.238437 0.000000000000000e+00 1851878480
5.457928 -2.847736 -2.238437 0.000000000000000e+00 1851878480
5.341593 -3.097215 -2.238437 0.000000000000000e+00 1851878480
5.656603 -2.045173 -2.238437 0.000000000000000e+00 1851878480
5.541205 -2.288231 -2.238437 0.000000000000000e+00 1851878480
5.310748 -2.771917 -2.238437 0.000000000000000e+00 1851878480
5.194901 -3.014180 -2.238437 0.000000000000000e+00 1851878480
5.513747 -1.991796 -2.238437 0.000000000000000e+00 1851878480
5.399321 -2.228748 -2.238436 0.000000000000000e+00 1851878480
5.170378 -2.699605 -2.238437 0.000000000000000e+00 1851878480
5.055097 -2.935049 -2.238436 0.000000000000000e+00 1851878480
5.377090 -1.940737 -2.238437 0.000000000000000e+00 1851878480
5.263662 -2.171881 -2.238437 0.000000000000000e+00 1851878480
5.036329 -2.630550 -2.238437 0.000000000000000e+00 1851878480
4.921685 -2.859534 -2.238436 0.000000000000000e+00 1851878480
5.246226 -1.891841 -2.238436 0.000000000000000e+00 1851878480
5.133816 -2.117446 -2.238437 0.000000000000000e+00 1851878480
4.908173 -2.564530 -2.238437 0.000000000000000e+00 1851878480
4.794223 -2.787388 -2.238437 0.000000000000000e+00 1851878480
5.120775 -1.844970 -2.238437 0.000000000000000e+00 1851878480
5.009397 -2.065288 -2.238437 0.000000000000000e+00 1851878480
4.785505 -2.501340 -2.238437 0.000000000000000e+00 1851878480
4.672300 -2.718375 -2.238436 0.000000000000000e+00 1851878480
5.000387 -1.799991 -2.238436 0.000000000000000e+00 1851878480
4.890055 -2.015257 -2.238437 0.000000000000000e+00 1851878480
4.667967 -2.440787 -2.238437 0.000000000000000e+00 1851878480
4.555543 -2.652291 -2.238437 0.000000000000000e+00 1851878480
4.884747 -1.756788 -2.238436 0.000000000000000e+00 1851878480
4.775465 -1.967221 -2.238437 0.000000000000000e+00 1851878480
4.555222 -2.382708 -2.238436 0.000000000000000e+00 1851878480
4.443614 -2.588938 -2.238437 0.000000000000000e+00 1851878480
4.773563 -1.715246 -2.238437 0.000000000000000e+00 1851878480
4.665334 -1.921053 -2.238437 0.000000000000000e+00 1851878480
4.446965 -2.326940 -2.238437 0.000000000000000e+00 1851878480
4.336199 -2.528142 -2.238437 0.000000000000000e+00 1851878480
4.666569 -1.675274 -2.238437 0.000000000000000e+00 1851878480
4.559394 -1.876641 -2.238437 0.000000000000000e+00 1851878480
4.342922 -2.273345 -2.238436 0.000000000000000e+00 1851878480
4.233021 -2.469744 -2.238436 0.000000000000000e+00 1851878480
4.563516 -1.636773 -2.238437 0.000000000000000e+00 1851878480
4.457393 -1.833882 -2.238437 0.000000000000000e+00 1851878480
4.242836 -2.221786 -2.238437 0.000000000000000e+00 1851878480
4.133816 -2.413596 -2.238437 0.000000000000000e+00 1851878480
4.464175 -1.599664 -2.238437 0.000000000000000e+00 1851878480
4.359102 -1.792678 -2.238437 0.000000000000000e+00 1851878480
4.146469 -2.172143 -2.238437 0.000000000000000e+00 1851878480
4.038343 -2.359561 -2.238437 0.000000000000000e+00 1851878480
4.368336 -1.563858 -2.238437 0.000000000000000e+00 1851878480
4.264307 -1.752938 -2.238437 0.000000000000000e+00 1851878480
4.053600 -2.124303 -2.238437 0.000000000000000e+00 1851878480
3.946379 -2.307511 -2.238436 0.000000000000000e+00 1851878480
4.275804 -1.529293 -2.238437 0.000000000000000e+00 1851878480
4.172812 -1.714583 -2.238437 0.000000000000000e+00 1851878480
3.964034 -2.078166 -2.238437 0.000000000000000e+00 1851878480
3.857724 -2.257338 -2.238436 0.000000000000000e+00 1851878480
4.186400 -1.495892 -2.238437 0.000000000000000e+00 1851878480
4.084435 -1.677535 -2.238437 0.000000000000000e+00 1851878480
3.877582 -2.033632 -2.238436 0.000000000000000e+00 1851878480
3.772188 -2.208928 -2.238436 0.000000000000000e+00 1851878480
4.099952 -1.463600 -2.238437 0.000000000000000e+00 1851878480
3.999007 -1.641724 -2.238436 0.000000000000000e+00 1851878480
3.794074 -1.990615 -2.238437 0.000000000000000e+00 1851878480
3.689596 -2.162187 -2.238436 0.000000000000000e+00 1851878480
4.016307 -1.432354 -2.238437 0.000000000000000e+00 1851878480
3.916369 -1.607083 -2.238437 0.000000000000000e+00 1851878480
3.713346 -1.949030 -2.238437 0.000000000000000e+00 1851878480
3.609788 -2.117021 -2.238437 0.000000000000000e+00 1851878480
4.006152 -1.427338 -2.278729 0.000000000000000e+00 1634890835
3.836378 -1.573550 -2.238437 0.000000000000000e+00 1851878480
3.635252 -1.908802 -2.238436 0.000000000000000e+00 1851878480
3.532610 -2.073343 -2.238436 0.000000000000000e+00 1851878480
3.926266 -1.397497 -2.278728 0.000000000000000e+00 1634890835
3.758892 -1.541069 -2.238437 0.000000000000000e+00 1851878480
3.559652 -1.869856 -2.238437 0.000000000000000e+00 1851878480
3.457923 -2.031076 -2.238436 0.000000000000000e+00 1851878480
3.848820 -1.368569 -2.278729 0.000000000000000e+00 1634890835
3.683790 -1.509587 -2.238437 0.000000000000000e+00 1851878480
3.486419 -1.832133 -2.238437 0.000000000000000e+00 1851878480
3.385600 -1.990148 -2.238436 0.000000000000000e+00 1851878480
3.773688 -1.340507 -2.278728 0.000000000000000e+00 1634890835
3.610949 -1.479054 -2.238437 0.000000000000000e+00 1851878480
3.415431 -1.795567 -2.238436 0.000000000000000e+00 1851878480
3.315518 -1.950488 -2.238436 0.000000000000000e+00 1851878480
3.700760 -1.313267 -2.278729 0.000000000000000e+00 1634890835
3.540260 -1.449423 -2.238437 0.000000000000000e+00 1851878480
3.346578 -1.760101 -2.238437 0.000000000000000e+00 1851878480
3.247562 -1.912035 -2.238437 0.000000000000000e+00 1851878480
3.629926 -1.286811 -2.278729 0.000000000000000e+00 1634890835
3.471617 -1.420646 -2.238437 0.000000000000000e+00 1851878480
3.279751 -1.725676 -2.238437 0.000000000000000e+00 1851878480
3.181628 -1.874722 -2.238437 0.000000000000000e+00 1851878480
3.561093 -1.261101 -2.278729 0.000000000000000e+00 1634890835
3.466214 -1.417760 -2.278728 0.000000000000000e+00 1634890835
3.214856 -1.692248 -2.238437 0.000000000000000e+00 1851878480
3.117618 -1.838501 -2.238437 0.000000000000000e+00 1851878480
3.494165 -1.236103 -2.278729 0.000000000000000e+00 1634890835
3.400215 -1.390093 -2.278729 0.000000000000000e+00 1634890835
3.151799 -1.659766 -2.238437 0.000000000000000e+00 1851878480
3.055437 -1.803315 -2.238436 0.000000000000000e+00 1851878480
3.429053 -1.211786 -2.278728 0.000000000000000e+00 1634890835
3.336019 -1.363183 -2.278728 0.000000000000000e+00 1634890835
3.090494 -1.628187 -2.238437 0.000000000000000e+00 1851878480
2.995002 -1.769117 -2.238437 0.000000000000000e+00 1851878480
3.365677 -1.188118 -2.278729 0.000000000000000e+00 1634890835
3.273545 -1.336997 -2.278729 0.000000000000000e+00 1634890835
3.030860 -1.597470 -2.238437 0.000000000000000e+00 1851878480
2.936227 -1.735859 -2.238437 0.000000000000000e+00 1851878480
3.303958 -1.165065 -2.278729 0.000000000000000e+00 1634890835
3.212715 -1.311498 -2.278728 0.000000000000000e+00 1634890835
2.972818 -1.567572 -2.238437 0.000000000000000e+00 1851878480
2.879037 -1.703498 -2.238437 0.000000000000000e+00 1851878480
3.243825 -1.142609 -2.278729 0.000000000000000e+00 1634890835
3.153459 -1.286659 -2.278729 0.000000000000000e+00 1634890835
2.916300 -1.538460 -2.238437 0.000000000000000e+00 1851878480
2.823360 -1.671994 -2.238437 0.000000000000000e+00 1851878480
3.185207 -1.120718 -2.278728 0.000000000000000e+00 1634890835
3.095705 -1.262450 -2.278729 0.000000000000000e+00 1634890835
2.861238 -1.510096 -2.238437 0.000000000000000e+00 1851878480
2.769129 -1.641310 -2.238437 0.000000000000000e+00 1851878480
3.128044 -1.099370 -2.278729 0.000000000000000e+00 1634890835
3.039391 -1.238846 -2.278729 0.000000000000000e+00 1634890835
2.807566 -1.482452 -2.238437 0.000000000000000e+00 1851878480
2.716281 -1.611407 -2.238437 0.000000000000000e+00 1851878480
3.072268 -1.078541 -2.278729 0.000000000000000e+00 1634890835
2.984453 -1.215817 -2.278729 0.000000000000000e+00 1634890835
2.755226 -1.455490 -2.238437 0.000000000000000e+00 1851878480
0.840391 -0.499000 -0.705942 0.000000000000000e+00 1886740808
3.017824 -1.058210 -2.278728 0.000000000000000e+00 1634890835
2.930834 -1.193341 -2.278728 0.000000000000000e+00 1634890835
2.704158 -1.429186 -2.238436 0.000000000000000e+00 1851878480
0.824539 -0.490030 -0.705942 0.000000000000000e+00 1886740808
2.964658 -1.038357 -2.278729 0.000000000000000e+00 1634890835
2.878480 -1.171398 -2.278728 0.000000000000000e+00 1634890835
0.837098 -0.442629 -0.705942 0.000000000000000e+00 1886740808
0.809069 -0.481278 -0.705942 0.000000000000000e+00 1886740808
2.912719 -1.018962 -2.278729 0.000000000000000e+00 1634890835
2.827341 -1.149960 -2.278729 0.000000000000000e+00 1634890835
0.821747 -0.434722 -0.705942 0.000000000000000e+00 1886740808
0.793965 -0.472733 -0.705942 0.000000000000000e+00 1886740808
2.861954 -1.000006 -2.278729 0.000000000000000e+00 1634890835
2.777365 -1.129013 -2.278729 0.000000000000000e+00 1634890835
0.806750 -0.426998 -0.705942 0.000000000000000e+00 1886740808
0.779213 -0.464386 -0.705942 0.000000000000000e+00 1886740808
2.812319 -0.981474 -2.278729 0.000000000000000e+00 1634890835
2.728507 -1.108534 -2.278729 0.000000000000000e+00 1634890835
0.792093 -0.419448 -0.705942 0.000000000000000e+00 1886740808
0.764796 -0.456230 -0.705942 0.000000000000000e+00 1886740808
2.763769 -0.963344 -2.278729 0.000000000000000e+00 1634890835
0.830478 -0.337215 -0.705942 0.000000000000000e+00 1886740808
0.777761 -0.412066 -0.705942 0.000000000000000e+00 1886740808
0.750701 -0.448256 -0.705942 0.000000000000000e+00 1886740808
0.841489 -0.292945 -0.705942 0.000000000000000e+00 1886740808
0.815994 -0.331144 -0.705942 0.000000000000000e+00 1886740808
0.763743 -0.404845 -0.705942 0.000000000000000e+00 1886740808
0.744293 -0.444866 -0.713007 0.000000000000000e+00 1886740808
0.827082 -0.287567 -0.705942 0.000000000000000e+00 1886740808
0.801817 -0.325201 -0.705942 0.000000000000000e+00 1886740808
0.750025 -0.397779 -0.705942 0.000000000000000e+00 1886740808
0.744293 -0.445310 -0.726299 0.000000000000000e+00 1886740808
0.812974 -0.282299 -0.705942 0.000000000000000e+00 1886740808
0.787935 -0.319383 -0.705942 0.000000000000000e+00 1886740808
0.744293 -0.394946 -0.713319 0.000000000000000e+00 1886740808
0.744293 -0.445760 -0.739798 0.000000000000000e+00 1886740808
0.799154 -0.277139 -0.705942 0.000000000000000e+00 1886740808
0.774338 -0.313684 -0.705942 0.000000000000000e+00 1886740808
0.744293 -0.395157 -0.726286 0.000000000000000e+00 1886740808
0.744293 -0.446218 -0.753511 0.000000000000000e+00 1886740808
0.785610 -0.272083 -0.705942 0.000000000000000e+00 1886740808
0.761015 -0.308099 -0.705942 0.000000000000000e+00 1886740808
0.744293 -0.395371 -0.739454 0.000000000000000e+00 1886740808
0.744293 -0.446684 -0.767445 0.000000000000000e+00 1886740808
0.772335 -0.267127 -0.705942 0.000000000000000e+00 1886740808
0.747955 -0.302625 -0.705942 0.000000000000000e+00 1886740808
0.744293 -0.395588 -0.752831 0.000000000000000e+00 1886740808
0.744293 -0.447157 -0.781607 0.000000000000000e+00 1886740808
0.759316 -0.262267 -0.705942 0.000000000000000e+00 1886740808
0.744293 -0.300955 -0.714723 0.000000000000000e+00 1886740808
0.744293 -0.395809 -0.766424 0.000000000000000e+00 1886740808
0.744293 -0.447638 -0.796007 0.000000000000000e+00 1886740808
0.746545 -0.257499 -0.705942 0.000000000000000e+00 1886740808
0.744293 -0.300764 -0.727147 0.000000000000000e+00 1886740808
0.744293 -0.396033 -0.780239 0.000000000000000e+00 1886740808
2.092195 -1.259679 -2.278729 0.000000000000000e+00 1634890835
0.744293 -0.256361 -0.715829 0.000000000000000e+00 1886740808
0.744293 -0.300570 -0.739765 0.000000000000000e+00 1886740808
0.744293 -0.396262 -0.794285 0.000000000000000e+00 1886740808
2.054436 -1.238320 -2.278729 0.000000000000000e+00 1634890835
0.744293 -0.255995 -0.728030 0.000000000000000e+00 1886740808
0.744293 -0.300372 -0.752583 0.000000000000000e+00 1886740808
2.097580 -1.117406 -2.278729 0.000000000000000e+00 1634890835
2.017384 -1.217362 -2.278729 0.000000000000000e+00 1634890835
0.744293 -0.255623 -0.740422 0.000000000000000e+00 1886740808
0.744293 -0.300172 -0.765609 0.000000000000000e+00 1886740808
2.060546 -1.098331 -2.278729 0.000000000000000e+00 1634890835
0.796275 -0.481053 -0.915942 0.000000000000000e+00 1886740808
0.744293 -0.255246 -0.753011 0.000000000000000e+00 1886740808
0.744293 -0.299968 -0.778848 0.000000000000000e+00 1886740808
2.024179 -1.079600 -2.278729 0.000000000000000e+00 1634890835
0.784635 -0.474576 -0.919122 0.000000000000000e+00 1886740808
0.744293 -0.254862 -0.765804 0.000000000000000e+00 1886740808
0.744293 -0.299761 -0.792308 0.000000000000000e+00 1886740808
1.988455 -1.061200 -2.278729 0.000000000000000e+00 1634890835
0.775672 -0.469713 -0.925307 0.000000000000000e+00 1886740808
0.744293 -0.254472 -0.778808 0.000000000000000e+00 1886740808
2.104274 -0.846892 -2.278729 0.000000000000000e+00 1634890835
0.797389 -0.425818 -0.930214 0.000000000000000e+00 1886740808
0.768822 -0.466129 -0.933988 0.000000000000000e+00 1886740808
0.744293 -0.254076 -0.792029 0.000000000000000e+00 1886740808
2.068532 -0.831913 -2.278729 0.000000000000000e+00 1634890835
0.785518 -0.419747 -0.932844 0.000000000000000e+00 1886740808
0.764547 -0.464110 -0.945876 0.000000000000000e+00 1886740808
0.744293 -0.253673 -0.805476 0.000000000000000e+00 1886740808
2.033386 -0.817182 -2.278729 0.000000000000000e+00 1634890835
0.776430 -0.415160 -0.938647 0.000000000000000e+00 1886740808
1.808583 -1.099260 -2.278729 0.000000000000000e+00 1634890835
2.070474 -0.704527 -2.278729 0.000000000000000e+00 1634890835
1.998816 -0.802692 -2.278729 0.000000000000000e+00 1634890835
0.769416 -0.411683 -0.946930 0.000000000000000e+00 1886740808
1.775832 -1.080736 -2.278729 0.000000000000000e+00 1634890835
2.035873 -0.691613 -2.278729 0.000000000000000e+00 1634890835
1.964801 -0.788436 -2.278729 0.000000000000000e+00 1634890835
0.764803 -0.409491 -0.958241 0.000000000000000e+00 1886740808
0.749056 -0.456456 -0.978942 0.000000000000000e+00 1886740808
2.001820 -0.678902 -2.278729 0.000000000000000e+00 1634890835
1.931325 -0.774406 -2.278729 0.000000000000000e+00 1634890835
0.767160 -0.411035 -0.978575 0.000000000000000e+00 1886740808
1.711909 -1.044582 -2.278729 0.000000000000000e+00 1634890835
1.968295 -0.666389 -2.278729 0.000000000000000e+00 1634890835
0.797682 -0.319597 -0.957506 0.000000000000000e+00 1886740808
1.754624 -0.940769 -2.278729 0.000000000000000e+00 1634890835
1.680702 -1.026933 -2.278729 0.000000000000000e+00 1634890835
1.935282 -0.654069 -2.278729 0.000000000000000e+00 1634890835
0.785810 -0.314588 -0.959660 0.000000000000000e+00 1886740808
0.751064 -0.402983 -0.993127 0.000000000000000e+00 1886740808
1.649977 -1.009556 -2.278729 0.000000000000000e+00 1634890835
1.902764 -0.641933 -2.278729 0.000000000000000e+00 1634890835
0.776730 -0.310699 -0.965104 0.000000000000000e+00 1886740808
1.692479 -0.908760 -2.278729 0.000000000000000e+00 1634890835
1.619718 -0.992443 -2.278729 0.000000000000000e+00 1634890835
0.796758 -0.268312 -0.970530 0.000000000000000e+00 1886740808
0.769654 -0.307611 -0.973020 0.000000000000000e+00 1886740808
1.662099 -0.893114 -2.278729 0.000000000000000e+00 1634890835
1.589908 -0.975585 -2.278729 0.000000000000000e+00 1634890835
0.785167 -0.263918 -0.972831 0.000000000000000e+00 1886740808
0.764877 -0.305442 -0.983922 0.000000000000000e+00 1886740808
1.632163 -0.877696 -2.278729 0.000000000000000e+00 1634890835
1.560535 -0.958974 -2.278729 0.000000000000000e+00 1634890835
0.776221 -0.260415 -0.978302 0.000000000000000e+00 1886740808
0.765612 -0.305469 -1.002175 0.000000000000000e+00 1886740808
1.602654 -0.862499 -2.278729 0.000000000000000e+00 1634890835
1.531583 -0.942600 -2.278729 0.000000000000000e+00 1634890835
0.769281 -0.257586 -0.986295 0.000000000000000e+00 1886740808
1.710673 -0.681929 -2.278729 0.000000000000000e+00 1634890835
1.573561 -0.847514 -2.278729 0.000000000000000e+00 1634890835
1.503039 -0.926459 -2.278729 0.000000000000000e+00 1634890835
0.764659 -0.255532 -0.997353 0.000000000000000e+00 1886740808
1.680926 -0.669463 -2.278728 0.000000000000000e+00 1634890835
1.544871 -0.832738 -2.278729 0.000000000000000e+00 1634890835
1.474891 -0.910541 -2.278729 0.000000000000000e+00 1634890835
0.766221 -0.255533 -1.016766 0.000000000000000e+00 1886740808
0.744040 -0.296054 -1.026571 0.000000000000000e+00 1886740808
1.516569 -0.818162 -2.278729 0.000000000000000e+00 1634890835
1.447125 -0.894839 -2.278729 0.000000000000000e+00 1634890835
1.687760 -0.561696 -2.278729 0.000000000000000e+00 1634890835
1.622625 -0.645029 -2.278729 0.000000000000000e+00 1634890835
1.488643 -0.803779 -2.278729 0.000000000000000e+00 1634890835
1.419729 -0.879348 -2.278729 0.000000000000000e+00 1634890835
0.752076 -0.249764 -1.033215 0.000000000000000e+00 1886740808
1.594048 -0.633053 -2.278729 0.000000000000000e+00 1634890835
1.461083 -0.789588 -2.278729 0.000000000000000e+00 1634890835
1.392693 -0.864061 -2.278729 0.000000000000000e+00 1634890835
1.629984 -0.540138 -2.278729 0.000000000000000e+00 1634890835
1.565839 -0.621229 -2.278729 0.000000000000000e+00 1634890835
1.433879 -0.775576 -2.278729 0.000000000000000e+00 1634890835
1.366006 -0.848969 -2.278729 0.000000000000000e+00 1634890835
1.601643 -0.529564 -2.278729 0.000000000000000e+00 1634890835
1.537983 -0.609556 -2.278729 0.000000000000000e+00 1634890835
1.407016 -0.761741 -2.278729 0.000000000000000e+00 1634890835
1.339654 -0.834068 -2.278729 0.000000000000000e+00 1634890835
1.573654 -0.519120 -2.278729 0.000000000000000e+00 1634890835
1.510472 -0.598026 -2.278729 0.000000000000000e+00 1634890835
1.380486 -0.748077 -2.278729 0.000000000000000e+00 1634890835
1.313629 -0.819352 -2.278729 0.000000000000000e+00 1634890835
1.546005 -0.508803 -2.278729 0.000000000000000e+00 1634890835
1.483296 -0.586637 -2.278729 0.000000000000000e+00 1634890835
1.354278 -0.734581 -2.278729 0.000000000000000e+00 1634890835
1.287922 -0.804816 -2.278729 0.000000000000000e+00 1634890835
1.518687 -0.498610 -2.278729 0.000000000000000e+00 1634890835
1.456445 -0.575383 -2.278729 0.000000000000000e+00 1634890835
1.328384 -0.721245 -2.278729 0.000000000000000e+00 1634890835
1.262521 -0.790453 -2.278729 0.000000000000000e+00 1634890835
1.491690 -0.488535 -2.278729 0.000000000000000e+00 1634890835
1.429908 -0.564262 -2.278729 0.000000000000000e+00 1634890835
1.302792 -0.708065 -2.278729 0.000000000000000e+00 1634890835
1.237418 -0.776259 -2.278729 0.000000000000000e+00 1634890835
1.465002 -0.478579 -2.278729 0.000000000000000e+00 1634890835
1.403675 -0.553269 -2.278729 0.000000000000000e+00 1634890835
1.277494 -0.695036 -2.278729 0.000000000000000e+00 1634890835
1.212602 -0.762228 -2.278729 0.000000000000000e+00 1634890835
1.438617 -0.468734 -2.278729 0.000000000000000e+00 1634890835
1.377738 -0.542400 -2.278729 0.000000000000000e+00 1634890835
1.252481 -0.682154 -2.278729 0.000000000000000e+00 1634890835
1.188067 -0.748354 -2.278729 0.000000000000000e+00 1634890835
1.412524 -0.458999 -2.278729 0.000000000000000e+00 1634890835
1.352089 -0.531650 -2.278729 0.000000000000000e+00 1634890835
1.227744 -0.669414 -2.278729 0.000000000000000e+00 1634890835
1.163802 -0.734634 -2.278729 0.000000000000000e+00 1634890835
1.386714 -0.449371 -2.278729 0.000000000000000e+00 1634890835
1.326718 -0.521017 -2.278729 0.000000000000000e+00 1634890835
1.203276 -0.656814 -2.278729 0.000000000000000e+00 1634890835
1.139800 -0.721065 -2.278729 0.000000000000000e+00 1634890835
1.361181 -0.439845 -2.278729 0.000000000000000e+00 1634890835
1.301618 -0.510498 -2.278729 0.000000000000000e+00 1634890835
1.179067 -0.644346 -2.278729 0.000000000000000e+00 1634890835
1.116053 -0.707639 -2.278729 0.000000000000000e+00 1634890835
1.335916 -0.430417 -2.278729 0.000000000000000e+00 1634890835
1.276780 -0.500089 -2.278729 0.000000000000000e+00 1634890835
1.155111 -0.632010 -2.278729 0.000000000000000e+00 1634890835
1.092554 -0.694351 -2.278729 0.000000000000000e+00 1634890835
1.310910 -0.421088 -2.278729 0.000000000000000e+00 1634890835
1.252197 -0.489786 -2.278729 0.000000000000000e+00 1634890835
1.131399 -0.619797 -2.278729 0.000000000000000e+00 1634890835
1.069294 -0.681201 -2.278729 0.000000000000000e+00 1634890835
1.286157 -0.411854 -2.278729 0.000000000000000e+00 1634890835
1.227861 -0.479588 -2.278729 0.000000000000000e+00 1634890835
1.107925 -0.607708 -2.278729 0.000000000000000e+00 1634890835
1.046267 -0.668182 -2.278729 0.000000000000000e+00 1634890835
1.261649 -0.402711 -2.278729 0.000000000000000e+00 1634890835
1.203765 -0.469490 -2.278729 0.000000000000000e+00 1634890835
1.084681 -0.595737 -2.278729 0.000000000000000e+00 1634890835
1.023465 -0.655290 -2.278729 0.000000000000000e+00 1634890835
1.237377 -0.393657 -2.278729 0.000000000000000e+00 1634890835
1.179901 -0.459490 -2.278729 0.000000000000000e+00 1634890835
1.061659 -0.583882 -2.278729 0.000000000000000e+00 1634890835
1.000881 -0.642522 -2.278729 0.000000000000000e+00 1634890835
1.213338 -0.384688 -2.278729 0.000000000000000e+00 1634890835
1.156263 -0.449585 -2.278729 0.000000000000000e+00 1634890835
1.038855 -0.572138 -2.278729 0.000000000000000e+00 1634890835
0.978511 -0.629875 -2.278729 0.000000000000000e+00 1634890835
1.189521 -0.375803 -2.278729 0.000000000000000e+00 1634890835
1.132845 -0.439771 -2.278729 0.000000000000000e+00 1634890835
1.016261 -0.560502 -2.278729 0.000000000000000e+00 1634890835
0.956344 -0.617344 -2.278729 0.000000000000000e+00 1634890835
1.165921 -0.366999 -2.278729 0.000000000000000e+00 1634890835
1.109638 -0.430046 -2.278729 0.000000000000000e+00 1634890835
0.993870 -0.548971 -2.278729 0.000000000000000e+00 1634890835
0.934378 -0.604924 -2.278729 0.000000000000000e+00 1634890835
1.142534 -0.358274 -2.278729 0.000000000000000e+00 1634890835
1.086639 -0.420407 -2.278729 0.000000000000000e+00 1634890835
0.971677 -0.537542 -2.278729 0.000000000000000e+00 1634890835
0.912605 -0.592614 -2.278729 0.000000000000000e+00 1634890835
1.119350 -0.349626 -2.278729 0.000000000000000e+00 1634890835
1.063840 -0.410853 -2.278729 0.000000000000000e+00 1634890835
0.949676 -0.526211 -2.278729 0.000000000000000e+00 1634890835
0.891019 -0.580411 -2.278729 0.000000000000000e+00 1634890835
1.096365 -0.341051 -2.278729 0.000000000000000e+00 1634890835
1.041234 -0.401380 -2.278729 0.000000000000000e+00 1634890835
0.927859 -0.514976 -2.278729 0.000000000000000e+00 1634890835
0.869614 -0.568310 -2.278729 0.000000000000000e+00 1634890835
1.073572 -0.332550 -2.278729 0.000000000000000e+00 1634890835
1.018818 -0.391986 -2.278729 0.000000000000000e+00 1634890835
0.906223 -0.503835 -2.278729 0.000000000000000e+00 1634890835
0.848385 -0.556309 -2.278729 0.000000000000000e+00 1634890835
1.050967 -0.324117 -2.278729 0.000000000000000e+00 1634890835
0.996583 -0.382669 -2.278728 0.000000000000000e+00 1634890835
0.884762 -0.492782 -2.278729 0.000000000000000e+00 1634890835
0.827327 -0.544404 -2.278729 0.000000000000000e+00 1634890835
1.028543 -0.315753 -2.278729 0.000000000000000e+00 1634890835
0.974527 -0.373425 -2.278729 0.000000000000000e+00 1634890835
0.863470 -0.481817 -2.278729 0.000000000000000e+00 1634890835
0.451011 -0.297861 -1.274415 0.000000000000000e+00 1936876886
1.006295 -0.307453 -2.278729 0.000000000000000e+00 1634890835
0.952642 -0.364254 -2.278729 0.000000000000000e+00 1634890835
0.842341 -0.470937 -2.278729 0.000000000000000e+00 1634890835
0.433314 -0.287261 -1.256717 0.000000000000000e+00 1936876886
0.984218 -0.299219 -2.278729 0.000000000000000e+00 1634890835
0.930924 -0.355153 -2.278729 0.000000000000000e+00 1634890835
0.821372 -0.460138 -2.278729 0.000000000000000e+00 1634890835
0.421236 -0.280360 -1.254547 0.000000000000000e+00 1936876886
0.962306 -0.291044 -2.278729 0.000000000000000e+00 1634890835
0.909367 -0.346119 -2.278729 0.000000000000000e+00 1634890835
0.445942 -0.250344 -1.269346 0.000000000000000e+00 1936876886
0.335131 -0.223973 -1.025484 0.000000000000000e+00 1953264973
0.940554 -0.282931 -2.278729 0.000000000000000e+00 1634890835
0.887966 -0.337151 -2.278729 0.000000000000000e+00 1634890835
0.428906 -0.241307 -1.253205 0.000000000000000e+00 1936876886
0.306476 -0.205706 -0.964057 0.000000000000000e+00 1953264973
0.495093 -0.148090 -1.227674 0.000000000000000e+00 1936876886
0.866718 -0.328247 -2.278729 0.000000000000000e+00 1634890835
0.358559 -0.202191 -1.075974 0.000000000000000e+00 1953264973
0.281226 -0.189610 -0.909930 0.000000000000000e+00 1953264973
0.483539 -0.143780 -1.227675 0.000000000000000e+00 1936876886
0.845616 -0.319403 -2.278729 0.000000000000000e+00 1634890835
0.326698 -0.184666 -1.007407 0.000000000000000e+00 1953264973
0.258805 -0.175317 -0.861867 0.000000000000000e+00 1953264973
0.472064 -0.139500 -1.227675 0.000000000000000e+00 1936876886
0.824656 -0.310620 -2.278729 0.000000000000000e+00 1634890835
0.299058 -0.169466 -0.948155 0.000000000000000e+00 1953264973
0.238758 -0.162539 -0.818895 0.000000000000000e+00 1953264973
