# .PCD v0.7 - Point Cloud Data file format
VERSION 0.7
FIELDS x y z rgb label
SIZE 4 4 4 4 4
TYPE F F F F U
COUNT 1 1 1 1 1
WIDTH 538
HEIGHT 1
VIEWPOINT 0 0 0 1 0 0 0
POINTS 538
DATA ascii
40.103706 -16.972298 10.110284 0.000000000000000e+00 1954047316
38.349277 -19.592697 10.297504 0.000000000000000e+00 1954047316
33.788239 -12.561941 -2.146710 0.000000000000000e+00 1851878480
36.688591 -15.346658 -2.236621 0.000000000000000e+00 1851878480
29.610563 -15.280394 -1.601201 0.000000000000000e+00 1851878480
28.232738 -16.029556 -1.402025 0.000000000000000e+00 1851878480
29.057615 -10.794976 -2.110129 0.000000000000000e+00 1851878480
28.499393 -11.917002 -2.004191 0.000000000000000e+00 1851878480
26.736303 -13.801425 -1.712635 0.000000000000000e+00 1851878480
25.896185 -14.711619 -1.553446 0.000000000000000e+00 1851878480
26.527777 -9.847647 -2.167628 0.000000000000000e+00 1851878480
26.056576 -10.891706 -2.076575 0.000000000000000e+00 1851878480
24.868107 -12.841027 -1.841470 0.000000000000000e+00 1851878480
24.409777 -13.875365 -1.716713 0.000000000000000e+00 1851878480
24.110289 -8.943424 -2.189557 0.000000000000000e+00 1851878480
24.316956 -10.160971 -2.166069 0.000000000000000e+00 1851878480
23.469107 -12.122382 -1.972714 0.000000000000000e+00 1851878480
23.262440 -13.231008 -1.876941 0.000000000000000e+00 1851878480
22.176748 -8.219935 -2.216066 0.000000000000000e+00 1851878480
22.332739 -9.328583 -2.199103 0.000000000000000e+00 1851878480
22.108044 -11.422915 -2.079856 0.000000000000000e+00 1851878480
21.838751 -12.428604 -1.988604 0.000000000000000e+00 1851878480
20.484440 -7.586885 -2.233883 0.000000000000000e+00 1851878480
20.648815 -8.622149 -2.227525 0.000000000000000e+00 1851878480
20.752666 -10.725932 -2.160647 0.000000000000000e+00 1851878480
20.453062 -11.646906 -2.074955 0.000000000000000e+00 1851878480
18.930508 -7.005994 -2.237427 0.000000000000000e+00 1851878480
19.022133 -7.940108 -2.231264 0.000000000000000e+00 1851878480
19.400137 -10.030012 -2.214907 0.000000000000000e+00 1851878480
19.108080 -10.887468 -2.137450 0.000000000000000e+00 1851878480
17.577652 -6.500330 -2.238436 0.000000000000000e+00 1851878480
17.634581 -7.358322 -2.234942 0.000000000000000e+00 1851878480
17.863918 -9.238657 -2.219500 0.000000000000000e+00 1851878480
17.887718 -10.198195 -2.187564 0.000000000000000e+00 1851878480
16.396881 -6.059023 -2.238436 0.000000000000000e+00 1851878480
16.435040 -6.855371 -2.238325 0.000000000000000e+00 1851878480
16.514862 -8.543641 -2.218632 0.000000000000000e+00 1851878480
16.634260 -9.489228 -2.208215 0.000000000000000e+00 1851878480
15.362917 -5.672589 -2.238437 0.000000000000000e+00 1851878480
15.366789 -6.407502 -2.238437 0.000000000000000e+00 1851878480
15.406645 -7.972821 -2.225658 0.000000000000000e+00 1851878480
15.452782 -8.820508 -2.213344 0.000000000000000e+00 1851878480
14.449836 -5.331326 -2.238436 0.000000000000000e+00 1851878480
14.426381 -6.013239 -2.238437 0.000000000000000e+00 1851878480
14.417615 -7.463349 -2.229032 0.000000000000000e+00 1851878480
14.413629 -8.232285 -2.215973 0.000000000000000e+00 1851878480
13.637499 -5.027726 -2.238437 0.000000000000000e+00 1851878480
13.592599 -5.663685 -2.238437 0.000000000000000e+00 1851878480
13.584803 -7.034458 -2.238436 0.000000000000000e+00 1851878480
13.550975 -7.744233 -2.226140 0.000000000000000e+00 1851878480
12.909999 -4.755833 -2.238438 0.000000000000000e+00 1851878480
12.848183 -5.351588 -2.238437 0.000000000000000e+00 1851878480
12.793022 -6.626552 -2.238437 0.000000000000000e+00 1851878480
12.790085 -7.313796 -2.236310 0.000000000000000e+00 1851878480
12.254601 -4.510884 -2.238437 0.000000000000000e+00 1851878480
12.179383 -5.071205 -2.238437 0.000000000000000e+00 1851878480
12.086501 -6.262572 -2.238437 0.000000000000000e+00 1851878480
12.070430 -6.906450 -2.238436 0.000000000000000e+00 1851878480
11.661036 -4.289049 -2.238437 0.000000000000000e+00 1851878480
11.575182 -4.817895 -2.238437 0.000000000000000e+00 1851878480
11.452112 -5.935748 -2.238437 0.000000000000000e+00 1851878480
11.415779 -6.535823 -2.238437 0.000000000000000e+00 1851878480
11.120863 -4.087167 -2.238436 0.000000000000000e+00 1851878480
11.026555 -4.587883 -2.238437 0.000000000000000e+00 1851878480
6.214848 -3.222243 -1.278723 1.880790849211783e-38 1684957512
10.826592 -6.202267 -2.238437 0.000000000000000e+00 1851878480
6.070821 -2.229413 -1.278723 1.880790849211783e-38 1684957512
6.013117 -2.501008 -1.278723 1.880790849211783e-38 1684957512
5.917819 -3.069221 -1.278724 1.880790849211783e-38 1684957512
5.880206 -3.370668 -1.278723 1.880790849211783e-38 1684957512
5.811965 -2.132673 -1.278723 1.880790849211783e-38 1684957512
5.751235 -2.391215 -1.278724 1.880790849211783e-38 1684957512
5.646962 -2.929686 -1.278723 1.880790849211783e-38 1684957512
5.603241 -3.213872 -1.278723 1.880790849211783e-38 1684957512
5.573540 -2.043567 -1.278723 1.880790849211783e-38 1684957512
5.510432 -2.290262 -1.278723 1.880790849211783e-38 1684957512
5.398943 -2.801913 -1.278724 1.880790849211783e-38 1684957512
5.350264 -3.070657 -1.278723 1.880790849211783e-38 1684957512
5.353181 -1.961216 -1.278723 1.880790849211783e-38 1684957512
5.288226 -2.197104 -1.278723 1.880790849211783e-38 1684957512
5.170949 -2.684457 -1.278723 1.880790849211783e-38 1684957512
5.118244 -2.939307 -1.278724 1.880790849211783e-38 1684957512
5.148882 -1.884865 -1.278723 1.880790849211783e-38 1684957512
5.082513 -2.110860 -1.278724 1.880790849211783e-38 1684957512
4.960619 -2.576100 -1.278724 1.880790849211783e-38 1684957512
4.904650 -2.818387 -1.278723 1.880790849211783e-38 1684957512
4.958919 -1.813876 -1.278723 1.880790849211783e-38 1684957512
4.891492 -2.030777 -1.278723 1.880790849211783e-38 1684957512
4.765946 -2.475811 -1.278723 1.880790849211783e-38 1684957512
4.707338 -2.706688 -1.278723 1.880790849211783e-38 1684957512
4.781813 -1.747691 -1.278723 1.880790849211783e-38 1684957512
4.713620 -1.956207 -1.278723 1.880790849211783e-38 1684957512
4.585217 -2.382707 -1.278723 1.880790849211783e-38 1684957512
4.524489 -2.603178 -1.278723 1.880790849211783e-38 1684957512
4.616272 -1.685827 -1.278724 1.880790849211783e-38 1684957512
4.547556 -1.886588 -1.278723 1.880790849211783e-38 1684957512
4.416960 -2.296024 -1.278724 1.880790849211783e-38 1684957512
4.354539 -2.506968 -1.278724 1.880790849211783e-38 1684957512
4.461186 -1.627869 -1.278724 1.880790849211783e-38 1684957512
4.392149 -1.821436 -1.278724 1.880790849211783e-38 1684957512
4.263710 -2.217094 -1.279866 1.880790849211783e-38 1684957512
4.263710 -2.456223 -1.299311 1.880790849211783e-38 1684957512
4.315569 -1.573453 -1.278723 1.880790849211783e-38 1684957512
4.263710 -1.767508 -1.283943 1.880790849211783e-38 1684957512
4.263710 -2.217830 -1.325595 1.880790849211783e-38 1684957512
4.263710 -2.457782 -1.346811 1.880790849211783e-38 1684957512
4.263711 -1.553274 -1.304781 1.880790849211783e-38 1684957512
4.263710 -1.766843 -1.326755 1.880790849211783e-38 1684957512
4.263710 -2.218568 -1.371556 1.880790849211783e-38 1684957512
4.263710 -2.459345 -1.394560 1.880790849211783e-38 1684957512
4.263710 -1.552000 -1.346399 1.880790849211783e-38 1684957512
4.263710 -1.766173 -1.369775 1.880790849211783e-38 1684957512
4.263710 -2.219311 -1.417757 1.880790849211783e-38 1684957512
4.263711 -2.460920 -1.442570 1.880790849211783e-38 1684957512
4.263710 -1.550716 -1.388217 1.880790849211783e-38 1684957512
4.263710 -1.765500 -1.413010 1.880790849211783e-38 1684957512
4.263710 -2.220057 -1.464205 1.880790849211783e-38 1684957512
4.263711 -2.462505 -1.490848 1.880790849211783e-38 1684957512
4.263710 -1.549428 -1.430244 1.880790849211783e-38 1684957512
4.263710 -1.764824 -1.456467 1.880790849211783e-38 1684957512
4.263710 -2.220812 -1.510913 1.880790849211783e-38 1684957512
4.263710 -2.464097 -1.539404 1.880790849211783e-38 1684957512
4.263710 -1.548134 -1.472488 1.880790849211783e-38 1684957512
4.263710 -1.764144 -1.500156 1.880790849211783e-38 1684957512
4.263710 -2.221567 -1.557887 1.880790849211783e-38 1684957512
4.263710 -2.465702 -1.588250 1.880790849211783e-38 1684957512
4.263710 -1.546834 -1.514957 1.880790849211783e-38 1684957512
4.263710 -1.763463 -1.544086 1.880790849211783e-38 1684957512
4.263710 -2.222329 -1.605139 1.880790849211783e-38 1684957512
4.263710 -2.467317 -1.637397 1.880790849211783e-38 1684957512
4.263710 -1.545527 -1.557659 1.880790849211783e-38 1684957512
4.263711 -1.762774 -1.588264 1.880790849211783e-38 1684957512
4.263710 -2.223094 -1.652678 1.880790849211783e-38 1684957512
4.263710 -2.468942 -1.686854 1.880790849211783e-38 1684957512
4.263710 -1.544214 -1.600600 1.880790849211783e-38 1684957512
4.263711 -1.762085 -1.632699 1.880790849211783e-38 1684957512
4.263710 -2.223864 -1.700514 1.880790849211783e-38 1684957512
4.263710 -2.470577 -1.736631 1.880790849211783e-38 1684957512
4.263710 -1.542894 -1.643791 1.880790849211783e-38 1684957512
4.263710 -1.761391 -1.677401 1.880790849211783e-38 1684957512
4.263710 -2.224639 -1.748657 1.880790849211783e-38 1684957512
4.263710 -2.472226 -1.786741 1.880790849211783e-38 1684957512
4.263710 -1.541566 -1.687240 1.880790849211783e-38 1684957512
4.263710 -1.760692 -1.722377 1.880790849211783e-38 1684957512
4.263710 -2.225421 -1.797119 1.880790849211783e-38 1684957512
4.263710 -2.473886 -1.837195 1.880790849211783e-38 1684957512
4.263710 -1.540230 -1.730955 1.880790849211783e-38 1684957512
4.263710 -1.759987 -1.767638 1.880790849211783e-38 1684957512
4.263710 -2.226207 -1.845909 1.880790849211783e-38 1684957512
4.263710 -2.475560 -1.888004 1.880790849211783e-38 1684957512
4.263710 -1.538888 -1.774946 1.880790849211783e-38 1684957512
4.263710 -1.759283 -1.813195 1.880790849211783e-38 1684957512
4.263710 -2.227000 -1.895040 1.880790849211783e-38 1684957512
4.263710 -2.477245 -1.939182 1.880790849211783e-38 1684957512
4.263709 -1.537536 -1.819221 1.880790849211783e-38 1684957512
4.263710 -1.758570 -1.859055 1.880790849211783e-38 1684957512
4.263710 -2.227797 -1.944521 1.880790849211783e-38 1684957512
4.263710 -2.478945 -1.990739 1.880790849211783e-38 1684957512
4.263710 -1.536177 -1.863790 1.880790849211783e-38 1684957512
4.263710 -1.757854 -1.905229 1.880790849211783e-38 1684957512
4.263710 -2.228602 -1.994365 1.880790849211783e-38 1684957512
4.263710 -2.480655 -2.042687 1.880790849211783e-38 1684957512
4.263710 -1.534809 -1.908661 1.880790849211783e-38 1684957512
4.263710 -1.757132 -1.951726 1.880790849211783e-38 1684957512
4.263710 -2.229409 -2.044583 1.880790849211783e-38 1684957512
4.263710 -2.482383 -2.095040 1.880790849211783e-38 1684957512
4.263709 -1.533434 -1.953846 1.880790849211783e-38 1684957512
4.263710 -1.756407 -1.998558 1.880790849211783e-38 1684957512
4.263710 -2.230227 -2.095188 1.880790849211783e-38 1684957512
4.263710 -2.484123 -2.147811 1.880790849211783e-38 1684957512
4.263710 -1.532045 -1.999355 1.880790849211783e-38 1684957512
4.263709 -1.755675 -2.045737 1.880790849211783e-38 1684957512
4.263710 -2.231050 -2.146193 1.880790849211783e-38 1684957512
4.263709 -2.485877 -2.201015 1.880790849211783e-38 1684957512
4.263710 -1.530650 -2.045196 1.880790849211783e-38 1684957512
4.263710 -1.754938 -2.093271 1.880790849211783e-38 1684957512
4.263710 -2.231880 -2.197609 1.880790849211783e-38 1684957512
4.233021 -2.469744 -2.238436 0.000000000000000e+00 1851878480
4.263710 -1.529244 -2.091380 1.880790849211783e-38 1684957512
4.263710 -1.754196 -2.141172 1.880790849211783e-38 1684957512
4.242836 -2.221786 -2.238437 0.000000000000000e+00 1851878480
4.133816 -2.413596 -2.238437 0.000000000000000e+00 1851878480
4.263710 -1.527830 -2.137919 1.880790849211783e-38 1684957512
4.263710 -1.753448 -2.189452 1.880790849211783e-38 1684957512
4.146469 -2.172143 -2.238437 0.000000000000000e+00 1851878480
4.038342 -2.359561 -2.238437 0.000000000000000e+00 1851878480
4.263709 -1.526402 -2.184824 1.880790849211783e-38 1684957512
4.263710 -1.752692 -2.238123 1.880790849211783e-38 1684957512
4.053600 -2.124303 -2.238437 0.000000000000000e+00 1851878480
3.946380 -2.307512 -2.238437 0.000000000000000e+00 1851878480
4.263710 -1.524967 -2.232105 1.880790849211783e-38 1684957512
4.172812 -1.714583 -2.238437 0.000000000000000e+00 1851878480
3.964034 -2.078166 -2.238437 0.000000000000000e+00 1851878480
3.857724 -2.257338 -2.238437 0.000000000000000e+00 1851878480
4.186399 -1.495892 -2.238437 0.000000000000000e+00 1851878480
4.084435 -1.677535 -2.238437 0.000000000000000e+00 1851878480
3.877583 -2.033632 -2.238437 0.000000000000000e+00 1851878480
3.772188 -2.208928 -2.238436 0.000000000000000e+00 1851878480
4.099953 -1.463600 -2.238437 0.000000000000000e+00 1851878480
3.999006 -1.641724 -2.238436 0.000000000000000e+00 1851878480
3.794074 -1.990615 -2.238437 0.000000000000000e+00 1851878480
3.689597 -2.162188 -2.238437 0.000000000000000e+00 1851878480
4.016306 -1.432353 -2.238436 0.000000000000000e+00 1851878480
3.916369 -1.607083 -2.238436 0.000000000000000e+00 1851878480
3.713346 -1.949030 -2.238437 0.000000000000000e+00 1851878480
3.609788 -2.117021 -2.238437 0.000000000000000e+00 1851878480
4.006147 -1.427337 -2.278726 0.000000000000000e+00 1634890835
3.836378 -1.573550 -2.238437 0.000000000000000e+00 1851878480
3.635252 -1.908802 -2.238436 0.000000000000000e+00 1851878480
3.532611 -2.073344 -2.238437 0.000000000000000e+00 1851878480
3.926262 -1.397496 -2.278726 0.000000000000000e+00 1634890835
3.758891 -1.541069 -2.238436 0.000000000000000e+00 1851878480
3.559652 -1.869856 -2.238437 0.000000000000000e+00 1851878480
3.457924 -2.031077 -2.238437 0.000000000000000e+00 1851878480
3.848816 -1.368568 -2.278726 0.000000000000000e+00 1634890835
3.683789 -1.509587 -2.238436 0.000000000000000e+00 1851878480
3.486420 -1.832134 -2.238437 0.000000000000000e+00 1851878480
3.385601 -1.990149 -2.238437 0.000000000000000e+00 1851878480
3.773685 -1.340506 -2.278726 0.000000000000000e+00 1634890835
3.610948 -1.479054 -2.238436 0.000000000000000e+00 1851878480
3.415431 -1.795568 -2.238437 0.000000000000000e+00 1851878480
3.315518 -1.950488 -2.238436 0.000000000000000e+00 1851878480
3.700755 -1.313265 -2.278726 0.000000000000000e+00 1634890835
3.540259 -1.449422 -2.238436 0.000000000000000e+00 1851878480
3.346577 -1.760100 -2.238437 0.000000000000000e+00 1851878480
3.247561 -1.912035 -2.238436 0.000000000000000e+00 1851878480
3.629922 -1.286809 -2.278726 0.000000000000000e+00 1634890835
3.471618 -1.420647 -2.238437 0.000000000000000e+00 1851878480
3.279751 -1.725676 -2.238437 0.000000000000000e+00 1851878480
3.181628 -1.874722 -2.238437 0.000000000000000e+00 1851878480
3.561089 -1.261100 -2.278726 0.000000000000000e+00 1634890835
3.466210 -1.417758 -2.278726 0.000000000000000e+00 1634890835
3.214856 -1.692248 -2.238437 0.000000000000000e+00 1851878480
3.117617 -1.838500 -2.238437 0.000000000000000e+00 1851878480
3.494161 -1.236101 -2.278726 0.000000000000000e+00 1634890835
3.400211 -1.390091 -2.278726 0.000000000000000e+00 1634890835
3.151799 -1.659766 -2.238437 0.000000000000000e+00 1851878480
3.055438 -1.803315 -2.238437 0.000000000000000e+00 1851878480
3.429049 -1.211785 -2.278726 0.000000000000000e+00 1634890835
3.336015 -1.363182 -2.278726 0.000000000000000e+00 1634890835
3.090494 -1.628187 -2.238437 0.000000000000000e+00 1851878480
2.995002 -1.769117 -2.238437 0.000000000000000e+00 1851878480
3.365673 -1.188116 -2.278726 0.000000000000000e+00 1634890835
3.273542 -1.336996 -2.278726 0.000000000000000e+00 1634890835
3.030860 -1.597470 -2.238437 0.000000000000000e+00 1851878480
2.936227 -1.735859 -2.238437 0.000000000000000e+00 1851878480
3.303955 -1.165064 -2.278726 0.000000000000000e+00 1634890835
3.212712 -1.311496 -2.278726 0.000000000000000e+00 1634890835
2.972818 -1.567572 -2.238437 0.000000000000000e+00 1851878480
2.879036 -1.703498 -2.238437 0.000000000000000e+00 1851878480
3.243822 -1.142608 -2.278726 0.000000000000000e+00 1634890835
3.153455 -1.286658 -2.278726 0.000000000000000e+00 1634890835
2.916300 -1.538460 -2.238437 0.000000000000000e+00 1851878480
2.823360 -1.671994 -2.238437 0.000000000000000e+00 1851878480
3.185204 -1.120717 -2.278726 0.000000000000000e+00 1634890835
3.095702 -1.262449 -2.278726 0.000000000000000e+00 1634890835
2.861238 -1.510096 -2.238437 0.000000000000000e+00 1851878480
2.769128 -1.641310 -2.238436 0.000000000000000e+00 1851878480
3.128041 -1.099368 -2.278726 0.000000000000000e+00 1634890835
3.039387 -1.238844 -2.278726 0.000000000000000e+00 1634890835
2.807565 -1.482451 -2.238437 0.000000000000000e+00 1851878480
2.716281 -1.611407 -2.238437 0.000000000000000e+00 1851878480
3.072265 -1.078540 -2.278726 0.000000000000000e+00 1634890835
2.984450 -1.215815 -2.278726 0.000000000000000e+00 1634890835
2.755226 -1.455490 -2.238437 0.000000000000000e+00 1851878480
0.840391 -0.499000 -0.705943 0.000000000000000e+00 1886740808
3.017821 -1.058208 -2.278726 0.000000000000000e+00 1634890835
2.930831 -1.193340 -2.278726 0.000000000000000e+00 1634890835
2.704158 -1.429187 -2.238437 0.000000000000000e+00 1851878480
0.824539 -0.490030 -0.705943 0.000000000000000e+00 1886740808
2.964655 -1.038356 -2.278726 0.000000000000000e+00 1634890835
2.878477 -1.171397 -2.278726 0.000000000000000e+00 1634890835
0.837099 -0.442630 -0.705943 0.000000000000000e+00 1886740808
0.809069 -0.481278 -0.705943 0.000000000000000e+00 1886740808
2.912715 -1.018961 -2.278727 0.000000000000000e+00 1634890835
2.827338 -1.149959 -2.278726 0.000000000000000e+00 1634890835
0.821748 -0.434722 -0.705943 0.000000000000000e+00 1886740808
0.793966 -0.472733 -0.705943 0.000000000000000e+00 1886740808
2.861952 -1.000005 -2.278726 0.000000000000000e+00 1634890835
2.777362 -1.129012 -2.278726 0.000000000000000e+00 1634890835
0.806751 -0.426998 -0.705943 0.000000000000000e+00 1886740808
0.779213 -0.464386 -0.705943 0.000000000000000e+00 1886740808
2.812316 -0.981473 -2.278726 0.000000000000000e+00 1634890835
2.728504 -1.108533 -2.278726 0.000000000000000e+00 1634890835
0.792093 -0.419448 -0.705943 0.000000000000000e+00 1886740808
0.764796 -0.456230 -0.705943 0.000000000000000e+00 1886740808
2.763766 -0.963343 -2.278727 0.000000000000000e+00 1634890835
0.830478 -0.337215 -0.705943 0.000000000000000e+00 1886740808
0.777761 -0.412066 -0.705943 0.000000000000000e+00 1886740808
0.750702 -0.448256 -0.705943 0.000000000000000e+00 1886740808
0.841489 -0.292946 -0.705943 0.000000000000000e+00 1886740808
0.815994 -0.331144 -0.705943 0.000000000000000e+00 1886740808
0.763743 -0.404845 -0.705943 0.000000000000000e+00 1886740808
0.744293 -0.444866 -0.713007 0.000000000000000e+00 1886740808
0.827082 -0.287567 -0.705943 0.000000000000000e+00 1886740808
0.801817 -0.325201 -0.705943 0.000000000000000e+00 1886740808
0.750025 -0.397779 -0.705943 0.000000000000000e+00 1886740808
0.744293 -0.445310 -0.726299 0.000000000000000e+00 1886740808
0.812974 -0.282300 -0.705943 0.000000000000000e+00 1886740808
0.787936 -0.319383 -0.705943 0.000000000000000e+00 1886740808
0.744293 -0.394946 -0.713319 0.000000000000000e+00 1886740808
0.744293 -0.445760 -0.739798 0.000000000000000e+00 1886740808
0.799154 -0.277139 -0.705943 0.000000000000000e+00 1886740808
0.774338 -0.313684 -0.705943 0.000000000000000e+00 1886740808
0.744293 -0.395157 -0.726286 0.000000000000000e+00 1886740808
0.744293 -0.446218 -0.753511 0.000000000000000e+00 1886740808
0.785611 -0.272084 -0.705943 0.000000000000000e+00 1886740808
0.761015 -0.308099 -0.705943 0.000000000000000e+00 1886740808
0.744293 -0.395371 -0.739454 0.000000000000000e+00 1886740808
0.744293 -0.446684 -0.767445 0.000000000000000e+00 1886740808
0.772335 -0.267127 -0.705943 0.000000000000000e+00 1886740808
0.747955 -0.302626 -0.705943 0.000000000000000e+00 1886740808
0.744293 -0.395588 -0.752831 0.000000000000000e+00 1886740808
0.744293 -0.447156 -0.781607 0.000000000000000e+00 1886740808
0.759316 -0.262267 -0.705943 0.000000000000000e+00 1886740808
0.744293 -0.300955 -0.714723 0.000000000000000e+00 1886740808
0.744292 -0.395809 -0.766423 0.000000000000000e+00 1886740808
0.744292 -0.447638 -0.796007 0.000000000000000e+00 1886740808
0.746545 -0.257499 -0.705943 0.000000000000000e+00 1886740808
0.744293 -0.300764 -0.727147 0.000000000000000e+00 1886740808
0.744293 -0.396033 -0.780239 0.000000000000000e+00 1886740808
2.092192 -1.259678 -2.278727 0.000000000000000e+00 1634890835
0.744293 -0.256361 -0.715829 0.000000000000000e+00 1886740808
0.744292 -0.300570 -0.739765 0.000000000000000e+00 1886740808
0.744292 -0.396262 -0.794285 0.000000000000000e+00 1886740808
2.054433 -1.238319 -2.278726 0.000000000000000e+00 1634890835
0.744293 -0.255995 -0.728030 0.000000000000000e+00 1886740808
0.744293 -0.300372 -0.752583 0.000000000000000e+00 1886740808
2.097578 -1.117404 -2.278726 0.000000000000000e+00 1634890835
2.017382 -1.217361 -2.278727 0.000000000000000e+00 1634890835
0.744293 -0.255623 -0.740422 0.000000000000000e+00 1886740808
0.744293 -0.300171 -0.765608 0.000000000000000e+00 1886740808
2.060544 -1.098330 -2.278727 0.000000000000000e+00 1634890835
0.796275 -0.481053 -0.915943 0.000000000000000e+00 1886740808
0.744293 -0.255245 -0.753011 0.000000000000000e+00 1886740808
0.744293 -0.299968 -0.778848 0.000000000000000e+00 1886740808
2.024177 -1.079599 -2.278727 0.000000000000000e+00 1634890835
0.784635 -0.474576 -0.919123 0.000000000000000e+00 1886740808
0.744292 -0.254862 -0.765803 0.000000000000000e+00 1886740808
0.744293 -0.299761 -0.792308 0.000000000000000e+00 1886740808
1.988454 -1.061199 -2.278728 0.000000000000000e+00 1634890835
0.775672 -0.469713 -0.925308 0.000000000000000e+00 1886740808
0.744293 -0.254472 -0.778808 0.000000000000000e+00 1886740808
2.104272 -0.846891 -2.278726 0.000000000000000e+00 1634890835
0.797389 -0.425818 -0.930214 0.000000000000000e+00 1886740808
0.768822 -0.466129 -0.933988 0.000000000000000e+00 1886740808
0.744293 -0.254076 -0.792029 0.000000000000000e+00 1886740808
2.068530 -0.831912 -2.278726 0.000000000000000e+00 1634890835
0.785518 -0.419747 -0.932844 0.000000000000000e+00 1886740808
0.764547 -0.464110 -0.945876 0.000000000000000e+00 1886740808
0.744293 -0.253673 -0.805476 0.000000000000000e+00 1886740808
2.033383 -0.817181 -2.278726 0.000000000000000e+00 1634890835
0.776430 -0.415161 -0.938647 0.000000000000000e+00 1886740808
1.808582 -1.099259 -2.278727 0.000000000000000e+00 1634890835
2.070472 -0.704526 -2.278726 0.000000000000000e+00 1634890835
1.998814 -0.802692 -2.278727 0.000000000000000e+00 1634890835
0.769416 -0.411683 -0.946930 0.000000000000000e+00 1886740808
1.775831 -1.080735 -2.278727 0.000000000000000e+00 1634890835
2.035871 -0.691612 -2.278726 0.000000000000000e+00 1634890835
1.964800 -0.788436 -2.278727 0.000000000000000e+00 1634890835
0.764803 -0.409491 -0.958241 0.000000000000000e+00 1886740808
0.749057 -0.456456 -0.978943 0.000000000000000e+00 1886740808
2.001819 -0.678902 -2.278728 0.000000000000000e+00 1634890835
1.931324 -0.774405 -2.278728 0.000000000000000e+00 1634890835
0.767159 -0.411035 -0.978574 0.000000000000000e+00 1886740808
1.711908 -1.044582 -2.278727 0.000000000000000e+00 1634890835
1.968293 -0.666389 -2.278727 0.000000000000000e+00 1634890835
0.797682 -0.319597 -0.957507 0.000000000000000e+00 1886740808
1.754623 -0.940768 -2.278728 0.000000000000000e+00 1634890835
1.680701 -1.026932 -2.278728 0.000000000000000e+00 1634890835
1.935281 -0.654068 -2.278727 0.000000000000000e+00 1634890835
0.785811 -0.314588 -0.959661 0.000000000000000e+00 1886740808
0.751064 -0.402983 -0.993128 0.000000000000000e+00 1886740808
1.649976 -1.009556 -2.278727 0.000000000000000e+00 1634890835
1.902763 -0.641933 -2.278727 0.000000000000000e+00 1634890835
0.776730 -0.310699 -0.965104 0.000000000000000e+00 1886740808
1.692478 -0.908759 -2.278727 0.000000000000000e+00 1634890835
1.619717 -0.992443 -2.278727 0.000000000000000e+00 1634890835
0.796758 -0.268312 -0.970531 0.000000000000000e+00 1886740808
0.769654 -0.307611 -0.973020 0.000000000000000e+00 1886740808
1.662098 -0.893114 -2.278728 0.000000000000000e+00 1634890835
1.589907 -0.975584 -2.278727 0.000000000000000e+00 1634890835
0.785168 -0.263918 -0.972831 0.000000000000000e+00 1886740808
0.764877 -0.305442 -0.983922 0.000000000000000e+00 1886740808
1.632162 -0.877695 -2.278728 0.000000000000000e+00 1634890835
1.560534 -0.958973 -2.278728 0.000000000000000e+00 1634890835
0.776221 -0.260415 -0.978302 0.000000000000000e+00 1886740808
0.765612 -0.305469 -1.002174 0.000000000000000e+00 1886740808
1.602654 -0.862498 -2.278728 0.000000000000000e+00 1634890835
1.531582 -0.942600 -2.278728 0.000000000000000e+00 1634890835
0.769281 -0.257586 -0.986295 0.000000000000000e+00 1886740808
1.710672 -0.681929 -2.278727 0.000000000000000e+00 1634890835
1.573560 -0.847514 -2.278728 0.000000000000000e+00 1634890835
1.503038 -0.926458 -2.278728 0.000000000000000e+00 1634890835
0.764659 -0.255531 -0.997353 0.000000000000000e+00 1886740808
1.680925 -0.669462 -2.278727 0.000000000000000e+00 1634890835
1.544870 -0.832737 -2.278727 0.000000000000000e+00 1634890835
1.474890 -0.910540 -2.278728 0.000000000000000e+00 1634890835
0.766217 -0.255532 -1.016761 0.000000000000000e+00 1886740808
0.744040 -0.296054 -1.026570 0.000000000000000e+00 1886740808
1.516568 -0.818161 -2.278728 0.000000000000000e+00 1634890835
1.447124 -0.894839 -2.278728 0.000000000000000e+00 1634890835
1.687759 -0.561696 -2.278727 0.000000000000000e+00 1634890835
1.622624 -0.645028 -2.278727 0.000000000000000e+00 1634890835
1.488642 -0.803779 -2.278727 0.000000000000000e+00 1634890835
1.419729 -0.879347 -2.278728 0.000000000000000e+00 1634890835
0.752078 -0.249764 -1.033217 0.000000000000000e+00 1886740808
1.594047 -0.633052 -2.278727 0.000000000000000e+00 1634890835
1.461082 -0.789587 -2.278727 0.000000000000000e+00 1634890835
1.392692 -0.864060 -2.278728 0.000000000000000e+00 1634890835
1.629982 -0.540137 -2.278727 0.000000000000000e+00 1634890835
1.565838 -0.621229 -2.278727 0.000000000000000e+00 1634890835
1.433878 -0.775575 -2.278727 0.000000000000000e+00 1634890835
1.366005 -0.848968 -2.278727 0.000000000000000e+00 1634890835
1.601642 -0.529563 -2.278727 0.000000000000000e+00 1634890835
1.537982 -0.609556 -2.278727 0.000000000000000e+00 1634890835
1.407015 -0.761741 -2.278728 0.000000000000000e+00 1634890835
1.339654 -0.834067 -2.278727 0.000000000000000e+00 1634890835
1.573653 -0.519120 -2.278727 0.000000000000000e+00 1634890835
1.510471 -0.598026 -2.278727 0.000000000000000e+00 1634890835
1.380485 -0.748077 -2.278727 0.000000000000000e+00 1634890835
1.313628 -0.819352 -2.278728 0.000000000000000e+00 1634890835
1.546005 -0.508803 -2.278727 0.000000000000000e+00 1634890835
1.483295 -0.586636 -2.278727 0.000000000000000e+00 1634890835
1.354278 -0.734580 -2.278728 0.000000000000000e+00 1634890835
1.287921 -0.804815 -2.278728 0.000000000000000e+00 1634890835
1.518686 -0.498610 -2.278727 0.000000000000000e+00 1634890835
1.456444 -0.575383 -2.278727 0.000000000000000e+00 1634890835
1.328382 -0.721244 -2.278728 0.000000000000000e+00 1634890835
1.262520 -0.790452 -2.278728 0.000000000000000e+00 1634890835
1.491689 -0.488535 -2.278727 0.000000000000000e+00 1634890835
1.429907 -0.564262 -2.278728 0.000000000000000e+00 1634890835
1.302791 -0.708064 -2.278727 0.000000000000000e+00 1634890835
1.237417 -0.776259 -2.278728 0.000000000000000e+00 1634890835
1.465001 -0.478579 -2.278728 0.000000000000000e+00 1634890835
1.403674 -0.553269 -2.278727 0.000000000000000e+00 1634890835
1.277493 -0.695036 -2.278728 0.000000000000000e+00 1634890835
1.212601 -0.762228 -2.278727 0.000000000000000e+00 1634890835
1.438616 -0.468734 -2.278727 0.000000000000000e+00 1634890835
1.377737 -0.542399 -2.278727 0.000000000000000e+00 1634890835
1.252481 -0.682154 -2.278728 0.000000000000000e+00 1634890835
1.188066 -0.748354 -2.278727 0.000000000000000e+00 1634890835
1.412523 -0.458999 -2.278728 0.000000000000000e+00 1634890835
1.352088 -0.531649 -2.278727 0.000000000000000e+00 1634890835
1.227744 -0.669414 -2.278728 0.000000000000000e+00 1634890835
1.163801 -0.734634 -2.278727 0.000000000000000e+00 1634890835
1.386714 -0.449370 -2.278728 0.000000000000000e+00 1634890835
1.326717 -0.521017 -2.278727 0.000000000000000e+00 1634890835
1.203275 -0.656814 -2.278728 0.000000000000000e+00 1634890835
1.139799 -0.721065 -2.278727 0.000000000000000e+00 1634890835
1.361181 -0.439844 -2.278727 0.000000000000000e+00 1634890835
1.301618 -0.510498 -2.278728 0.000000000000000e+00 1634890835
1.179067 -0.644345 -2.278728 0.000000000000000e+00 1634890835
1.116052 -0.707638 -2.278727 0.000000000000000e+00 1634890835
1.335915 -0.430417 -2.278727 0.000000000000000e+00 1634890835
1.276779 -0.500089 -2.278727 0.000000000000000e+00 1634890835
1.155110 -0.632009 -2.278728 0.000000000000000e+00 1634890835
1.092553 -0.694350 -2.278728 0.000000000000000e+00 1634890835
1.310910 -0.421088 -2.278728 0.000000000000000e+00 1634890835
1.252196 -0.489786 -2.278727 0.000000000000000e+00 1634890835
1.131398 -0.619797 -2.278727 0.000000000000000e+00 1634890835
1.069293 -0.681201 -2.278728 0.000000000000000e+00 1634890835
1.286156 -0.411854 -2.278728 0.000000000000000e+00 1634890835
1.227860 -0.479588 -2.278728 0.000000000000000e+00 1634890835
1.107924 -0.607707 -2.278727 0.000000000000000e+00 1634890835
1.046266 -0.668181 -2.278727 0.000000000000000e+00 1634890835
1.261648 -0.402710 -2.278728 0.000000000000000e+00 1634890835
1.203764 -0.469490 -2.278728 0.000000000000000e+00 1634890835
1.084680 -0.595737 -2.278728 0.000000000000000e+00 1634890835
1.023465 -0.655289 -2.278728 0.000000000000000e+00 1634890835
1.237376 -0.393657 -2.278727 0.000000000000000e+00 1634890835
1.179900 -0.459490 -2.278728 0.000000000000000e+00 1634890835
1.061659 -0.583882 -2.278728 0.000000000000000e+00 1634890835
1.000881 -0.642522 -2.278727 0.000000000000000e+00 1634890835
1.213337 -0.384688 -2.278727 0.000000000000000e+00 1634890835
1.156262 -0.449584 -2.278727 0.000000000000000e+00 1634890835
1.038855 -0.572138 -2.278728 0.000000000000000e+00 1634890835
0.978510 -0.629874 -2.278728 0.000000000000000e+00 1634890835
1.189521 -0.375803 -2.278727 0.000000000000000e+00 1634890835
1.132844 -0.439770 -2.278727 0.000000000000000e+00 1634890835
1.016261 -0.560501 -2.278728 0.000000000000000e+00 1634890835
0.956344 -0.617343 -2.278728 0.000000000000000e+00 1634890835
1.165921 -0.366999 -2.278727 0.000000000000000e+00 1634890835
1.109637 -0.430046 -2.278727 0.000000000000000e+00 1634890835
0.993869 -0.548971 -2.278727 0.000000000000000e+00 1634890835
0.934377 -0.604923 -2.278728 0.000000000000000e+00 1634890835
1.142533 -0.358274 -2.278728 0.000000000000000e+00 1634890835
1.086638 -0.420407 -2.278728 0.000000000000000e+00 1634890835
0.971676 -0.537541 -2.278727 0.000000000000000e+00 1634890835
0.912604 -0.592614 -2.278728 0.000000000000000e+00 1634890835
1.119349 -0.349626 -2.278728 0.000000000000000e+00 1634890835
1.063839 -0.410853 -2.278727 0.000000000000000e+00 1634890835
0.949675 -0.526211 -2.278728 0.000000000000000e+00 1634890835
0.891018 -0.580411 -2.278727 0.000000000000000e+00 1634890835
1.096364 -0.341051 -2.278728 0.000000000000000e+00 1634890835
1.041233 -0.401379 -2.278727 0.000000000000000e+00 1634890835
0.927858 -0.514976 -2.278728 0.000000000000000e+00 1634890835
0.869613 -0.568309 -2.278727 0.000000000000000e+00 1634890835
1.073572 -0.332549 -2.278728 0.000000000000000e+00 1634890835
1.018817 -0.391985 -2.278727 0.000000000000000e+00 1634890835
0.906222 -0.503834 -2.278728 0.000000000000000e+00 1634890835
0.848384 -0.556308 -2.278728 0.000000000000000e+00 1634890835
1.050966 -0.324117 -2.278728 0.000000000000000e+00 1634890835
0.996583 -0.382668 -2.278727 0.000000000000000e+00 1634890835
0.884761 -0.492782 -2.278728 0.000000000000000e+00 1634890835
0.827327 -0.544404 -2.278728 0.000000000000000e+00 1634890835
1.028543 -0.315752 -2.278727 0.000000000000000e+00 1634890835
0.974527 -0.373425 -2.278727 0.000000000000000e+00 1634890835
0.863469 -0.481816 -2.278727 0.000000000000000e+00 1634890835
0.451012 -0.297861 -1.274416 0.000000000000000e+00 1936876886
1.006295 -0.307453 -2.278728 0.000000000000000e+00 1634890835
0.952642 -0.364254 -2.278727 0.000000000000000e+00 1634890835
0.842340 -0.470936 -2.278727 0.000000000000000e+00 1634890835
0.433314 -0.287261 -1.256719 0.000000000000000e+00 1936876886
0.984217 -0.299218 -2.278728 0.000000000000000e+00 1634890835
0.930923 -0.355153 -2.278727 0.000000000000000e+00 1634890835
0.821371 -0.460138 -2.278728 0.000000000000000e+00 1634890835
0.421231 -0.280357 -1.254532 0.000000000000000e+00 1936876886
0.962305 -0.291044 -2.278728 0.000000000000000e+00 1634890835
0.909366 -0.346119 -2.278727 0.000000000000000e+00 1634890835
0.445943 -0.250344 -1.269347 0.000000000000000e+00 1936876886
0.335132 -0.223974 -1.025485 0.000000000000000e+00 1953264973
0.940553 -0.282931 -2.278727 0.000000000000000e+00 1634890835
0.887966 -0.337151 -2.278727 0.000000000000000e+00 1634890835
0.428906 -0.241308 -1.253205 0.000000000000000e+00 1936876886
0.306476 -0.205707 -0.964058 0.000000000000000e+00 1953264973
0.495093 -0.148090 -1.227675 0.000000000000000e+00 1936876886
0.866717 -0.328247 -2.278728 0.000000000000000e+00 1634890835
0.358559 -0.202191 -1.075976 0.000000000000000e+00 1953264973
0.281226 -0.189611 -0.909931 0.000000000000000e+00 1953264973
0.483539 -0.143780 -1.227675 0.000000000000000e+00 1936876886
0.845615 -0.319403 -2.278727 0.000000000000000e+00 1634890835
0.326699 -0.184666 -1.007408 0.000000000000000e+00 1953264973
0.258805 -0.175318 -0.861868 0.000000000000000e+00 1953264973
0.472064 -0.139500 -1.227675 0.000000000000000e+00 1936876886
0.824655 -0.310620 -2.278728 0.000000000000000e+00 1634890835
0.299058 -0.169466 -0.948156 0.000000000000000e+00 1953264973
0.238759 -0.162539 -0.818895 0.000000000000000e+00 1953264973
