# .PCD v0.7 - Point Cloud Data file format
VERSION 0.7
FIELDS x y z rgb label
SIZE 4 4 4 4 4
TYPE F F F F U
COUNT 1 1 1 1 1
WIDTH 531
HEIGHT 1
VIEWPOINT 0 0 0 1 0 0 0
POINTS 531
DATA ascii
34.816578 -17.776222 10.080394 0.000000000000000e+00 1954047316
34.012432 -18.933907 10.017760 0.000000000000000e+00 1954047316
30.821930 -11.450424 -2.238252 0.000000000000000e+00 1851878480
31.922623 -13.348422 -2.244926 0.000000000000000e+00 1851878480
26.935551 -9.999021 -2.200947 0.000000000000000e+00 1851878480
26.594315 -11.116482 -2.119430 0.000000000000000e+00 1851878480
25.953701 -13.401592 -1.921858 0.000000000000000e+00 1851878480
25.166140 -14.305307 -1.769907 0.000000000000000e+00 1851878480
24.268764 -9.002210 -2.203948 0.000000000000000e+00 1851878480
24.350681 -10.175063 -2.169073 0.000000000000000e+00 1851878480
23.571114 -12.175071 -1.981288 0.000000000000000e+00 1851878480
22.961857 -13.060045 -1.852688 0.000000000000000e+00 1851878480
22.107136 -8.194134 -2.209109 0.000000000000000e+00 1851878480
22.207335 -9.276200 -2.186754 0.000000000000000e+00 1851878480
21.713949 -11.219291 -2.042781 0.000000000000000e+00 1851878480
21.312136 -12.128903 -1.940651 0.000000000000000e+00 1851878480
20.398342 -7.554997 -2.224494 0.000000000000000e+00 1851878480
20.404146 -8.519984 -2.201132 0.000000000000000e+00 1851878480
20.397335 -10.542282 -2.123652 0.000000000000000e+00 1851878480
19.922247 -11.344635 -2.021105 0.000000000000000e+00 1851878480
18.925940 -7.004303 -2.236889 0.000000000000000e+00 1851878480
18.881144 -7.881258 -2.214727 0.000000000000000e+00 1851878480
19.062555 -9.855479 -2.176365 0.000000000000000e+00 1851878480
18.902687 -10.770439 -2.114474 0.000000000000000e+00 1851878480
17.540262 -6.486504 -2.233675 0.000000000000000e+00 1851878480
17.632145 -7.357305 -2.234633 0.000000000000000e+00 1851878480
17.762535 -9.186224 -2.206904 0.000000000000000e+00 1851878480
17.928154 -10.221250 -2.192509 0.000000000000000e+00 1851878480
16.449892 -6.078612 -2.245673 0.000000000000000e+00 1851878480
16.458124 -6.864999 -2.241469 0.000000000000000e+00 1851878480
16.583473 -8.579135 -2.227850 0.000000000000000e+00 1851878480
16.697884 -9.525523 -2.216661 0.000000000000000e+00 1851878480
15.379875 -5.678852 -2.240908 0.000000000000000e+00 1851878480
15.351245 -6.401021 -2.236172 0.000000000000000e+00 1851878480
15.427150 -7.983432 -2.228620 0.000000000000000e+00 1851878480
15.557227 -8.880126 -2.228305 0.000000000000000e+00 1851878480
14.476055 -5.340999 -2.242497 0.000000000000000e+00 1851878480
14.450595 -6.023333 -2.242194 0.000000000000000e+00 1851878480
14.504941 -7.508554 -2.242533 0.000000000000000e+00 1851878480
14.477594 -8.268820 -2.225807 0.000000000000000e+00 1851878480
13.570314 -5.002957 -2.227409 0.000000000000000e+00 1851878480
13.614136 -5.672659 -2.241983 0.000000000000000e+00 1851878480
13.600245 -7.042455 -2.240981 0.000000000000000e+00 1851878480
13.641076 -7.795725 -2.240942 0.000000000000000e+00 1851878480
12.897505 -4.751230 -2.236271 0.000000000000000e+00 1851878480
12.854421 -5.354187 -2.239524 0.000000000000000e+00 1851878480
12.800478 -6.630413 -2.239741 0.000000000000000e+00 1851878480
12.843166 -7.344149 -2.245591 0.000000000000000e+00 1851878480
12.255507 -4.511218 -2.238603 0.000000000000000e+00 1851878480
12.229088 -5.091901 -2.247572 0.000000000000000e+00 1851878480
12.139994 -6.290288 -2.248344 0.000000000000000e+00 1851878480
12.055173 -6.897720 -2.235607 0.000000000000000e+00 1851878480
11.706115 -4.305630 -2.247090 0.000000000000000e+00 1851878480
11.576303 -4.818362 -2.238653 0.000000000000000e+00 1851878480
11.507265 -5.964334 -2.249217 0.000000000000000e+00 1851878480
11.394068 -6.523393 -2.234179 0.000000000000000e+00 1851878480
11.120576 -4.087062 -2.238379 0.000000000000000e+00 1851878480
11.100164 -4.618510 -2.253380 0.000000000000000e+00 1851878480
10.909828 -5.656473 -2.244730 0.000000000000000e+00 1851878480
10.876331 -6.230761 -2.248721 0.000000000000000e+00 1851878480
10.650645 -3.911281 -2.243392 0.000000000000000e+00 1851878480
10.551454 -4.388617 -2.243827 0.000000000000000e+00 1851878480
10.401803 -5.394796 -2.247624 0.000000000000000e+00 1851878480
10.323874 -5.917881 -2.245054 0.000000000000000e+00 1851878480
10.161759 -3.728809 -2.235747 0.000000000000000e+00 1851878480
10.067636 -4.185863 -2.238428 0.000000000000000e+00 1851878480
10.007380 -5.191905 -2.266117 0.000000000000000e+00 1851878480
9.789127 -5.614787 -2.233990 0.000000000000000e+00 1851878480
9.803803 -3.594616 -2.249262 0.000000000000000e+00 1851878480
9.695986 -4.029873 -2.250002 0.000000000000000e+00 1851878480
9.547932 -4.955132 -2.261399 0.000000000000000e+00 1851878480
9.400124 -5.394979 -2.246648 0.000000000000000e+00 1851878480
9.400025 -3.443836 -2.245400 0.000000000000000e+00 1851878480
9.286488 -3.858265 -2.245526 0.000000000000000e+00 1851878480
9.120950 -4.735069 -2.255519 0.000000000000000e+00 1851878480
9.015031 -5.177156 -2.252283 0.000000000000000e+00 1851878480
9.042010 -3.310033 -2.245581 0.000000000000000e+00 1851878480
8.922548 -3.705696 -2.244849 0.000000000000000e+00 1851878480
8.743270 -4.540470 -2.253796 0.000000000000000e+00 1851878480
8.585522 -4.933547 -2.238388 0.000000000000000e+00 1851878480
8.711675 -3.186561 -2.246421 0.000000000000000e+00 1851878480
8.597814 -3.569513 -2.247622 0.000000000000000e+00 1851878480
8.378251 -4.352329 -2.247920 0.000000000000000e+00 1851878480
8.211170 -4.721369 -2.230521 0.000000000000000e+00 1851878480
8.422967 -3.078486 -2.252419 0.000000000000000e+00 1851878480
8.258862 -3.427522 -2.240486 0.000000000000000e+00 1851878480
8.077031 -4.197227 -2.252519 0.000000000000000e+00 1851878480
7.990218 -4.597195 -2.258217 0.000000000000000e+00 1851878480
8.064499 -2.945092 -2.233895 0.000000000000000e+00 1851878480
7.981439 -3.311160 -2.244294 0.000000000000000e+00 1851878480
7.744186 -4.025582 -2.241966 0.000000000000000e+00 1851878480
7.609105 -4.380666 -2.234436 0.000000000000000e+00 1851878480
7.775900 -2.837394 -2.228830 0.000000000000000e+00 1851878480
7.736575 -3.208378 -2.252415 0.000000000000000e+00 1851878480
7.531910 -3.916531 -2.260902 0.000000000000000e+00 1851878480
7.416474 -4.272457 -2.260075 0.000000000000000e+00 1851878480
7.568548 -2.759487 -2.242597 0.000000000000000e+00 1851878480
7.503018 -3.110353 -2.259404 0.000000000000000e+00 1851878480
7.268017 -3.780563 -2.259640 0.000000000000000e+00 1851878480
7.138066 -4.114683 -2.254756 0.000000000000000e+00 1851878480
7.356564 -2.680003 -2.251256 0.000000000000000e+00 1851878480
7.252173 -3.005234 -2.256686 0.000000000000000e+00 1851878480
6.952796 -3.617800 -2.236584 0.000000000000000e+00 1851878480
6.844013 -3.947686 -2.238517 0.000000000000000e+00 1851878480
7.084105 -2.578629 -2.237027 0.000000000000000e+00 1851878480
7.032401 -2.913059 -2.259255 0.000000000000000e+00 1851878480
6.800730 -3.539860 -2.261359 0.000000000000000e+00 1851878480
6.660172 -3.844105 -2.253381 0.000000000000000e+00 1851878480
6.934042 -2.521919 -2.257648 0.000000000000000e+00 1851878480
6.835062 -2.830234 -2.265165 0.000000000000000e+00 1851878480
6.533032 -3.401663 -2.243516 0.000000000000000e+00 1851878480
6.449404 -3.724851 -2.255097 0.000000000000000e+00 1851878480
6.641459 -2.413499 -2.227851 0.000000000000000e+00 1851878480
6.578390 -2.722911 -2.247153 0.000000000000000e+00 1851878480
6.369683 -3.317738 -2.257197 0.000000000000000e+00 1851878480
6.234324 -3.602960 -2.250891 0.000000000000000e+00 1851878480
6.483333 -2.354069 -2.239043 0.000000000000000e+00 1851878480
6.366773 -2.634304 -2.240104 0.000000000000000e+00 1851878480
6.172174 -3.215955 -2.255207 0.000000000000000e+00 1851878480
6.010666 -3.475967 -2.238999 0.000000000000000e+00 1851878480
6.319710 -2.292732 -2.245483 0.000000000000000e+00 1851878480
6.186153 -2.558581 -2.240291 0.000000000000000e+00 1851878480
6.008539 -3.131768 -2.262006 0.000000000000000e+00 1851878480
5.871984 -3.397990 -2.255024 0.000000000000000e+00 1851878480
6.184550 -2.241801 -2.259398 0.000000000000000e+00 1851878480
6.042356 -2.498130 -2.250823 0.000000000000000e+00 1851878480
5.814785 -3.031823 -2.253899 0.000000000000000e+00 1851878480
5.633185 -3.261950 -2.228661 0.000000000000000e+00 1851878480
5.989862 -2.169385 -2.248599 0.000000000000000e+00 1851878480
5.852528 -2.418703 -2.241104 0.000000000000000e+00 1851878480
5.614396 -2.928355 -2.239214 0.000000000000000e+00 1851878480
5.519687 -3.198344 -2.248197 0.000000000000000e+00 1851878480
5.793577 -2.096502 -2.233602 0.000000000000000e+00 1851878480
5.728396 -2.366470 -2.253628 0.000000000000000e+00 1851878480
5.485491 -2.862117 -2.249741 0.000000000000000e+00 1851878480
5.370727 -3.114108 -2.250646 0.000000000000000e+00 1851878480
5.638151 -2.038502 -2.231135 0.000000000000000e+00 1851878480
5.616346 -2.319260 -2.268791 0.000000000000000e+00 1851878480
5.397399 -2.817144 -2.274960 0.000000000000000e+00 1851878480
5.215710 -3.026253 -2.247403 0.000000000000000e+00 1851878480
5.499292 -1.986574 -2.232569 0.000000000000000e+00 1851878480
5.376996 -2.219533 -2.229181 0.000000000000000e+00 1851878480
5.212257 -2.721471 -2.256568 0.000000000000000e+00 1851878480
5.069541 -2.943435 -2.244833 0.000000000000000e+00 1851878480
5.399414 -1.948794 -2.247730 0.000000000000000e+00 1851878480
5.323418 -2.196537 -2.263849 0.000000000000000e+00 1851878480
5.049724 -2.637547 -2.244390 0.000000000000000e+00 1851878480
4.928692 -2.863605 -2.241623 0.000000000000000e+00 1851878480
5.291590 -1.908200 -2.257792 0.000000000000000e+00 1851878480
5.163922 -2.129863 -2.251564 0.000000000000000e+00 1851878480
4.912505 -2.566794 -2.240413 0.000000000000000e+00 1851878480
4.807599 -2.795165 -2.244682 0.000000000000000e+00 1851878480
5.121260 -1.845144 -2.238649 0.000000000000000e+00 1851878480
5.046715 -2.080674 -2.255112 0.000000000000000e+00 1851878480
4.889894 -2.555902 -2.287265 0.000000000000000e+00 1851878480
4.648239 -2.704376 -2.226909 0.000000000000000e+00 1851878480
5.031078 -1.811039 -2.252176 0.000000000000000e+00 1851878480
4.913378 -2.024869 -2.249114 0.000000000000000e+00 1851878480
4.720811 -2.468418 -2.263777 0.000000000000000e+00 1851878480
4.559754 -2.654743 -2.240506 0.000000000000000e+00 1851878480
4.924358 -1.771034 -2.256588 0.000000000000000e+00 1851878480
4.795877 -1.975630 -2.248005 0.000000000000000e+00 1851878480
4.626041 -2.419752 -2.273237 0.000000000000000e+00 1851878480
4.421787 -2.576221 -2.227442 0.000000000000000e+00 1851878480
4.786626 -1.719940 -2.244562 0.000000000000000e+00 1851878480
4.712967 -1.940667 -2.261292 0.000000000000000e+00 1851878480
4.545318 -2.378405 -2.287944 0.000000000000000e+00 1851878480
4.384537 -2.556324 -2.263389 0.000000000000000e+00 1851878480
4.690529 -1.683876 -2.249930 0.000000000000000e+00 1851878480
4.526070 -1.862925 -2.222076 0.000000000000000e+00 1851878480
4.333359 -2.268339 -2.233508 0.000000000000000e+00 1851878480
4.213524 -2.458369 -2.228126 0.000000000000000e+00 1851878480
4.580757 -1.642957 -2.246893 0.000000000000000e+00 1851878480
4.452313 -1.831792 -2.235886 0.000000000000000e+00 1851878480
4.255722 -2.228534 -2.245235 0.000000000000000e+00 1851878480
4.165505 -2.432098 -2.255596 0.000000000000000e+00 1851878480
4.504975 -1.614284 -2.258895 0.000000000000000e+00 1851878480
4.398239 -1.808773 -2.258534 0.000000000000000e+00 1851878480
4.164807 -2.181749 -2.248337 0.000000000000000e+00 1851878480
4.068250 -2.377036 -2.255015 0.000000000000000e+00 1851878480
4.408517 -1.578243 -2.259027 0.000000000000000e+00 1851878480
4.289931 -1.763471 -2.251888 0.000000000000000e+00 1851878480
4.090925 -2.143863 -2.259048 0.000000000000000e+00 1851878480
3.965259 -2.318551 -2.249146 0.000000000000000e+00 1851878480
4.325938 -1.547224 -2.264683 0.000000000000000e+00 1851878480
4.175584 -1.715722 -2.239924 0.000000000000000e+00 1851878480
4.039445 -2.117701 -2.281021 0.000000000000000e+00 1851878480
3.909537 -2.287656 -2.268501 0.000000000000000e+00 1851878480
4.191236 -1.497620 -2.241023 0.000000000000000e+00 1851878480
4.121427 -1.692728 -2.258710 0.000000000000000e+00 1851878480
3.929836 -2.061036 -2.268601 0.000000000000000e+00 1851878480
3.811420 -2.231901 -2.261717 0.000000000000000e+00 1851878480
4.127882 -1.473570 -2.253685 0.000000000000000e+00 1851878480
4.003338 -1.643502 -2.240861 0.000000000000000e+00 1851878480
3.786383 -1.986580 -2.233899 0.000000000000000e+00 1851878480
3.687568 -2.160998 -2.237206 0.000000000000000e+00 1851878480
4.160717 -1.483855 -2.318922 0.000000000000000e+00 1634890835
3.921422 -1.609156 -2.241324 0.000000000000000e+00 1851878480
3.746488 -1.966425 -2.258415 0.000000000000000e+00 1851878480
3.650884 -2.141122 -2.263921 0.000000000000000e+00 1851878480
4.044627 -1.441046 -2.300613 0.000000000000000e+00 1634890835
3.871406 -1.587917 -2.258875 0.000000000000000e+00 1851878480
3.648170 -1.915585 -2.246391 0.000000000000000e+00 1851878480
3.554633 -2.086269 -2.252392 0.000000000000000e+00 1851878480
3.932943 -1.399874 -2.282604 0.000000000000000e+00 1634890835
3.791135 -1.554288 -2.257638 0.000000000000000e+00 1851878480
3.618678 -1.900862 -2.275554 0.000000000000000e+00 1851878480
3.458859 -2.031626 -2.239042 0.000000000000000e+00 1851878480
3.828011 -1.361170 -2.266408 0.000000000000000e+00 1634890835
3.684589 -1.509914 -2.238922 0.000000000000000e+00 1851878480
3.520609 -1.850100 -2.260388 0.000000000000000e+00 1851878480
3.401045 -1.999227 -2.248648 0.000000000000000e+00 1851878480
3.780293 -1.342853 -2.282717 0.000000000000000e+00 1634890835
3.656723 -1.497803 -2.266812 0.000000000000000e+00 1851878480
3.451831 -1.814704 -2.262293 0.000000000000000e+00 1851878480
3.304338 -1.943911 -2.230888 0.000000000000000e+00 1851878480
3.693382 -1.310649 -2.274186 0.000000000000000e+00 1634890835
3.353978 -1.763992 -2.243387 0.000000000000000e+00 1851878480
3.281662 -1.932112 -2.261941 0.000000000000000e+00 1851878480
3.650056 -1.293947 -2.291365 0.000000000000000e+00 1634890835
3.586473 -1.467648 -2.312494 0.000000000000000e+00 1634890835
3.326241 -1.750138 -2.270166 0.000000000000000e+00 1851878480
3.223008 -1.899105 -2.267550 0.000000000000000e+00 1851878480
3.523296 -1.247716 -2.254542 0.000000000000000e+00 1634890835
3.530735 -1.444151 -2.321146 0.000000000000000e+00 1634890835
3.266348 -1.719353 -2.274290 0.000000000000000e+00 1851878480
3.108838 -1.833323 -2.232133 0.000000000000000e+00 1851878480
3.504796 -1.239864 -2.285662 0.000000000000000e+00 1634890835
3.389317 -1.385638 -2.271425 0.000000000000000e+00 1634890835
3.185375 -1.677447 -2.262283 0.000000000000000e+00 1851878480
3.037845 -1.792932 -2.225548 0.000000000000000e+00 1851878480
3.469742 -1.226165 -2.305768 0.000000000000000e+00 1634890835
3.358923 -1.372542 -2.294373 0.000000000000000e+00 1634890835
3.112969 -1.640028 -2.254715 0.000000000000000e+00 1851878480
3.004193 -1.774546 -2.245306 0.000000000000000e+00 1851878480
3.348583 -1.182083 -2.267155 0.000000000000000e+00 1634890835
3.262470 -1.332474 -2.271019 0.000000000000000e+00 1634890835
3.037850 -1.601154 -2.243600 0.000000000000000e+00 1851878480
2.932141 -1.733443 -2.235322 0.000000000000000e+00 1851878480
3.316175 -1.169373 -2.287154 0.000000000000000e+00 1634890835
3.213930 -1.311993 -2.279590 0.000000000000000e+00 1634890835
3.016905 -1.590819 -2.271633 0.000000000000000e+00 1851878480
2.908499 -1.720930 -2.261343 0.000000000000000e+00 1851878480
3.203940 -1.128559 -2.250710 0.000000000000000e+00 1634890835
3.195003 -1.303610 -2.308749 0.000000000000000e+00 1634890835
2.931290 -1.546367 -2.249942 0.000000000000000e+00 1851878480
2.858656 -1.692896 -2.266420 0.000000000000000e+00 1851878480
3.145800 -1.106852 -2.250536 0.000000000000000e+00 1634890835
3.120898 -1.272724 -2.297273 0.000000000000000e+00 1634890835
2.847165 -1.502669 -2.227427 0.000000000000000e+00 1851878480
2.799776 -1.659475 -2.263211 0.000000000000000e+00 1851878480
3.098083 -1.088840 -2.256902 0.000000000000000e+00 1634890835
3.054651 -1.245066 -2.290170 0.000000000000000e+00 1634890835
2.846766 -1.503150 -2.269691 0.000000000000000e+00 1851878480
2.762712 -1.638952 -2.276700 0.000000000000000e+00 1851878480
3.088970 -1.084404 -2.291116 0.000000000000000e+00 1634890835
3.016945 -1.229053 -2.303537 0.000000000000000e+00 1634890835
2.780802 -1.469001 -2.259216 0.000000000000000e+00 1851878480
0.829241 -0.492379 -0.696576 0.000000000000000e+00 1886740808
2.970703 -1.041687 -2.243148 0.000000000000000e+00 1634890835
2.974742 -1.211220 -2.312867 0.000000000000000e+00 1634890835
2.816066 -1.488331 -2.331071 0.000000000000000e+00 1634890835
0.850166 -0.505261 -0.727883 0.000000000000000e+00 1886740808
2.973486 -1.041449 -2.285515 0.000000000000000e+00 1634890835
2.915935 -1.186641 -2.308380 0.000000000000000e+00 1634890835
0.884841 -0.467874 -0.746205 0.000000000000000e+00 1886740808
0.807457 -0.480319 -0.704536 0.000000000000000e+00 1886740808
2.943335 -1.029673 -2.302681 0.000000000000000e+00 1634890835
2.874532 -1.169154 -2.316763 0.000000000000000e+00 1634890835
0.820366 -0.433991 -0.704755 0.000000000000000e+00 1886740808
0.821406 -0.489071 -0.730340 0.000000000000000e+00 1886740808
2.881932 -1.006987 -2.294635 0.000000000000000e+00 1634890835
2.807173 -1.141130 -2.303185 0.000000000000000e+00 1634890835
0.846858 -0.448226 -0.741038 0.000000000000000e+00 1886740808
0.791108 -0.471475 -0.716720 0.000000000000000e+00 1886740808
2.825922 -0.986221 -2.289750 0.000000000000000e+00 1634890835
2.733549 -1.110583 -2.282940 0.000000000000000e+00 1634890835
0.814204 -0.431157 -0.725649 0.000000000000000e+00 1886740808
0.799708 -0.477056 -0.738168 0.000000000000000e+00 1886740808
2.779352 -0.968775 -2.291577 0.000000000000000e+00 1634890835
0.875539 -0.355512 -0.744246 0.000000000000000e+00 1886740808
0.806329 -0.427202 -0.731873 0.000000000000000e+00 1886740808
0.719529 -0.429643 -0.676628 0.000000000000000e+00 1886740808
0.854618 -0.297516 -0.716957 0.000000000000000e+00 1886740808
0.858405 -0.348355 -0.742633 0.000000000000000e+00 1886740808
0.791692 -0.419660 -0.731777 0.000000000000000e+00 1886740808
0.798060 -0.477003 -0.764514 0.000000000000000e+00 1886740808
0.834881 -0.290278 -0.712599 0.000000000000000e+00 1886740808
0.823323 -0.333924 -0.724877 0.000000000000000e+00 1886740808
0.786753 -0.417258 -0.740512 0.000000000000000e+00 1886740808
0.762073 -0.455947 -0.743649 0.000000000000000e+00 1886740808
0.842576 -0.292579 -0.731647 0.000000000000000e+00 1886740808
0.787287 -0.319120 -0.705361 0.000000000000000e+00 1886740808
0.776129 -0.411839 -0.743830 0.000000000000000e+00 1886740808
0.732000 -0.438398 -0.727579 0.000000000000000e+00 1886740808
0.840327 -0.291418 -0.742313 0.000000000000000e+00 1886740808
0.851648 -0.345002 -0.776424 0.000000000000000e+00 1886740808
0.764421 -0.405843 -0.745927 0.000000000000000e+00 1886740808
0.762449 -0.457103 -0.771892 0.000000000000000e+00 1886740808
0.832368 -0.288277 -0.747958 0.000000000000000e+00 1886740808
0.786240 -0.318312 -0.729342 0.000000000000000e+00 1886740808
0.790769 -0.420059 -0.785628 0.000000000000000e+00 1886740808
0.732542 -0.439631 -0.755328 0.000000000000000e+00 1886740808
0.775094 -0.268081 -0.708464 0.000000000000000e+00 1886740808
0.750425 -0.303625 -0.708274 0.000000000000000e+00 1886740808
0.790897 -0.420358 -0.799970 0.000000000000000e+00 1886740808
0.747972 -0.449367 -0.785471 0.000000000000000e+00 1886740808
0.768232 -0.265346 -0.714232 0.000000000000000e+00 1886740808
0.775245 -0.313471 -0.744445 0.000000000000000e+00 1886740808
0.785695 -0.417826 -0.809057 0.000000000000000e+00 1886740808
0.759894 -0.457021 -0.812693 0.000000000000000e+00 1886740808
0.730208 -0.251864 -0.690494 0.000000000000000e+00 1886740808
0.754666 -0.304956 -0.737281 0.000000000000000e+00 1886740808
0.788021 -0.419301 -0.826079 0.000000000000000e+00 1886740808
2.115133 -1.273490 -2.303712 0.000000000000000e+00 1634890835
0.745668 -0.256835 -0.717151 0.000000000000000e+00 1886740808
0.736258 -0.297325 -0.731779 0.000000000000000e+00 1886740808
0.788933 -0.420028 -0.841923 0.000000000000000e+00 1886740808
2.079177 -1.253233 -2.306172 0.000000000000000e+00 1634890835
0.792105 -0.272440 -0.774798 0.000000000000000e+00 1886740808
0.739861 -0.298584 -0.748102 0.000000000000000e+00 1886740808
2.142089 -1.141116 -2.327081 0.000000000000000e+00 1634890835
2.015434 -1.216185 -2.276526 0.000000000000000e+00 1634890835
0.728868 -0.250326 -0.725078 0.000000000000000e+00 1886740808
0.720621 -0.290625 -0.741259 0.000000000000000e+00 1886740808
2.136013 -1.138558 -2.362187 0.000000000000000e+00 1634890835
0.818463 -0.494458 -0.941465 0.000000000000000e+00 1886740808
0.757111 -0.259641 -0.765980 0.000000000000000e+00 1886740808
0.739465 -0.298022 -0.773796 0.000000000000000e+00 1886740808
2.048266 -1.092447 -2.305845 0.000000000000000e+00 1634890835
0.802280 -0.485248 -0.939791 0.000000000000000e+00 1886740808
0.764239 -0.261692 -0.786326 0.000000000000000e+00 1886740808
0.782199 -0.315028 -0.832660 0.000000000000000e+00 1886740808
1.998772 -1.066706 -2.290553 0.000000000000000e+00 1634890835
0.820478 -0.496845 -0.978757 0.000000000000000e+00 1886740808
0.808975 -0.276587 -0.846489 0.000000000000000e+00 1886740808
2.144687 -0.863156 -2.322492 0.000000000000000e+00 1634890835
0.853621 -0.455847 -0.995813 0.000000000000000e+00 1886740808
0.787443 -0.477419 -0.956610 0.000000000000000e+00 1886740808
0.768637 -0.262386 -0.817935 0.000000000000000e+00 1886740808
2.055238 -0.826566 -2.264084 0.000000000000000e+00 1634890835
0.799529 -0.427234 -0.949483 0.000000000000000e+00 1886740808
0.770224 -0.467556 -0.952900 0.000000000000000e+00 1886740808
0.765498 -0.260900 -0.828424 0.000000000000000e+00 1886740808
2.069005 -0.831496 -2.318646 0.000000000000000e+00 1634890835
0.793691 -0.424390 -0.959513 0.000000000000000e+00 1886740808
1.801921 -1.095210 -2.270335 0.000000000000000e+00 1634890835
2.066854 -0.703295 -2.274745 0.000000000000000e+00 1634890835
2.038330 -0.818561 -2.323777 0.000000000000000e+00 1634890835
0.817161 -0.437230 -1.005691 0.000000000000000e+00 1886740808
1.804740 -1.098329 -2.315823 0.000000000000000e+00 1634890835
2.016378 -0.684990 -2.256908 0.000000000000000e+00 1634890835
1.984144 -0.796198 -2.301162 0.000000000000000e+00 1634890835
0.798330 -0.427442 -1.000248 0.000000000000000e+00 1886740808
0.794174 -0.483950 -1.037907 0.000000000000000e+00 1886740808
2.006998 -0.680658 -2.284623 0.000000000000000e+00 1634890835
1.970233 -0.790006 -2.324635 0.000000000000000e+00 1634890835
0.779806 -0.417811 -0.994706 0.000000000000000e+00 1886740808
1.751239 -1.068581 -2.331081 0.000000000000000e+00 1634890835
1.975711 -0.668900 -2.287315 0.000000000000000e+00 1634890835
0.838404 -0.335913 -1.006388 0.000000000000000e+00 1886740808
1.810462 -0.970707 -2.351245 0.000000000000000e+00 1634890835
1.694660 -1.035462 -2.297654 0.000000000000000e+00 1634890835
1.922520 -0.649755 -2.263701 0.000000000000000e+00 1634890835
0.780362 -0.312407 -0.953007 0.000000000000000e+00 1886740808
0.755511 -0.405369 -0.999007 0.000000000000000e+00 1886740808
1.657194 -1.013972 -2.288696 0.000000000000000e+00 1634890835
1.923831 -0.649040 -2.303958 0.000000000000000e+00 1634890835
0.804811 -0.321931 -0.999995 0.000000000000000e+00 1886740808
1.698213 -0.911839 -2.286449 0.000000000000000e+00 1634890835
1.646546 -1.008882 -2.316473 0.000000000000000e+00 1634890835
0.794426 -0.267527 -0.967690 0.000000000000000e+00 1886740808
0.761563 -0.304377 -0.962791 0.000000000000000e+00 1886740808
1.686489 -0.906220 -2.312167 0.000000000000000e+00 1634890835
1.612820 -0.989643 -2.311567 0.000000000000000e+00 1634890835
0.778007 -0.261511 -0.963959 0.000000000000000e+00 1886740808
0.804673 -0.321334 -1.035115 0.000000000000000e+00 1886740808
1.659233 -0.892253 -2.316523 0.000000000000000e+00 1634890835
1.595266 -0.980317 -2.329446 0.000000000000000e+00 1634890835
0.774388 -0.259800 -0.975991 0.000000000000000e+00 1886740808
0.779708 -0.311093 -1.020625 0.000000000000000e+00 1886740808
1.615890 -0.869622 -2.297548 0.000000000000000e+00 1634890835
1.556780 -0.958108 -2.316218 0.000000000000000e+00 1634890835
0.762691 -0.255380 -0.977847 0.000000000000000e+00 1886740808
1.748677 -0.697079 -2.329352 0.000000000000000e+00 1634890835
1.585243 -0.853806 -2.295645 0.000000000000000e+00 1634890835
1.501987 -0.925811 -2.277134 0.000000000000000e+00 1634890835
0.802536 -0.268189 -1.046756 0.000000000000000e+00 1886740808
1.667128 -0.663967 -2.260023 0.000000000000000e+00 1634890835
1.590880 -0.857539 -2.346594 0.000000000000000e+00 1634890835
1.477934 -0.912420 -2.283432 0.000000000000000e+00 1634890835
0.774499 -0.258294 -1.027751 0.000000000000000e+00 1886740808
0.784127 -0.312004 -1.081880 0.000000000000000e+00 1886740808
1.541718 -0.831730 -2.316517 0.000000000000000e+00 1634890835
1.437589 -0.888943 -2.263713 0.000000000000000e+00 1634890835
1.687412 -0.561580 -2.278260 0.000000000000000e+00 1634890835
1.619907 -0.643948 -2.274911 0.000000000000000e+00 1634890835
1.502235 -0.811118 -2.299534 0.000000000000000e+00 1634890835
1.443366 -0.893988 -2.316666 0.000000000000000e+00 1634890835
0.776434 -0.257853 -1.066678 0.000000000000000e+00 1886740808
1.609992 -0.639384 -2.301521 0.000000000000000e+00 1634890835
1.469623 -0.794203 -2.292048 0.000000000000000e+00 1634890835
1.397213 -0.866865 -2.286125 0.000000000000000e+00 1634890835
1.641801 -0.544053 -2.295249 0.000000000000000e+00 1634890835
1.585123 -0.628880 -2.306793 0.000000000000000e+00 1634890835
1.465001 -0.792410 -2.328189 0.000000000000000e+00 1634890835
1.350436 -0.839292 -2.252756 0.000000000000000e+00 1634890835
1.604325 -0.530450 -2.282546 0.000000000000000e+00 1634890835
1.584114 -0.627839 -2.347078 0.000000000000000e+00 1634890835
1.431562 -0.775030 -2.318483 0.000000000000000e+00 1634890835
1.343597 -0.836522 -2.285434 0.000000000000000e+00 1634890835
1.565217 -0.516337 -2.266512 0.000000000000000e+00 1634890835
1.533651 -0.607203 -2.313697 0.000000000000000e+00 1634890835
1.380806 -0.748251 -2.279257 0.000000000000000e+00 1634890835
1.340680 -0.836225 -2.325655 0.000000000000000e+00 1634890835
1.567744 -0.515957 -2.310769 0.000000000000000e+00 1634890835
1.490772 -0.589593 -2.290214 0.000000000000000e+00 1634890835
1.346714 -0.730478 -2.266002 0.000000000000000e+00 1634890835
1.307521 -0.817063 -2.313406 0.000000000000000e+00 1634890835
1.521199 -0.499435 -2.282498 0.000000000000000e+00 1634890835
1.483629 -0.586122 -2.321260 0.000000000000000e+00 1634890835
1.356669 -0.736602 -2.327250 0.000000000000000e+00 1634890835
1.272110 -0.796457 -2.296037 0.000000000000000e+00 1634890835
1.492132 -0.488680 -2.279405 0.000000000000000e+00 1634890835
1.439736 -0.568141 -2.294392 0.000000000000000e+00 1634890835
1.328933 -0.722272 -2.324452 0.000000000000000e+00 1634890835
1.224405 -0.768096 -2.254766 0.000000000000000e+00 1634890835
1.456978 -0.475958 -2.266248 0.000000000000000e+00 1634890835
1.410715 -0.556044 -2.290159 0.000000000000000e+00 1634890835
1.290024 -0.701854 -2.301080 0.000000000000000e+00 1634890835
1.222015 -0.768146 -2.296419 0.000000000000000e+00 1634890835
1.440500 -0.469348 -2.281711 0.000000000000000e+00 1634890835
1.432695 -0.564035 -2.369624 0.000000000000000e+00 1634890835
1.284450 -0.699566 -2.336892 0.000000000000000e+00 1634890835
1.210662 -0.762587 -2.322067 0.000000000000000e+00 1634890835
1.429263 -0.464438 -2.305733 0.000000000000000e+00 1634890835
1.346991 -0.529645 -2.270138 0.000000000000000e+00 1634890835
1.253819 -0.683631 -2.327124 0.000000000000000e+00 1634890835
1.155127 -0.729159 -2.261744 0.000000000000000e+00 1634890835
1.400465 -0.453827 -2.301325 0.000000000000000e+00 1634890835
1.303539 -0.511915 -2.238918 0.000000000000000e+00 1634890835
1.239842 -0.676774 -2.347978 0.000000000000000e+00 1634890835
1.155808 -0.731192 -2.310732 0.000000000000000e+00 1634890835
1.372746 -0.443581 -2.298088 0.000000000000000e+00 1634890835
1.285085 -0.504014 -2.249785 0.000000000000000e+00 1634890835
1.197841 -0.654605 -2.315012 0.000000000000000e+00 1634890835
1.135369 -0.719886 -2.318168 0.000000000000000e+00 1634890835
1.365962 -0.440098 -2.329979 0.000000000000000e+00 1634890835
1.312487 -0.514075 -2.342456 0.000000000000000e+00 1634890835
1.202819 -0.658113 -2.372845 0.000000000000000e+00 1634890835
1.115956 -0.709224 -2.327538 0.000000000000000e+00 1634890835
1.324775 -0.425542 -2.302830 0.000000000000000e+00 1634890835
1.260995 -0.493228 -2.294740 0.000000000000000e+00 1634890835
1.148099 -0.628946 -2.312365 0.000000000000000e+00 1634890835
1.093770 -0.696794 -2.330889 0.000000000000000e+00 1634890835
1.299767 -0.416212 -2.302842 0.000000000000000e+00 1634890835
1.259005 -0.491753 -2.336528 0.000000000000000e+00 1634890835
1.107142 -0.607279 -2.277119 0.000000000000000e+00 1634890835
1.056730 -0.674864 -2.301517 0.000000000000000e+00 1634890835
1.252153 -0.399680 -2.261579 0.000000000000000e+00 1634890835
1.218759 -0.475338 -2.307114 0.000000000000000e+00 1634890835
1.090371 -0.598863 -2.290683 0.000000000000000e+00 1634890835
1.050130 -0.672362 -2.338098 0.000000000000000e+00 1634890835
1.255699 -0.399486 -2.312470 0.000000000000000e+00 1634890835
1.174551 -0.457407 -2.268397 0.000000000000000e+00 1634890835
1.076290 -0.591929 -2.310133 0.000000000000000e+00 1634890835
1.015381 -0.651830 -2.311741 0.000000000000000e+00 1634890835
1.229551 -0.389829 -2.309179 0.000000000000000e+00 1634890835
1.153032 -0.448328 -2.272361 0.000000000000000e+00 1634890835
1.076700 -0.592981 -2.361742 0.000000000000000e+00 1634890835
0.984979 -0.634038 -2.293792 0.000000000000000e+00 1634890835
1.209398 -0.382082 -2.316806 0.000000000000000e+00 1634890835
1.149440 -0.446213 -2.312111 0.000000000000000e+00 1634890835
1.051340 -0.579849 -2.357385 0.000000000000000e+00 1634890835
0.956521 -0.617458 -2.279151 0.000000000000000e+00 1634890835
1.174849 -0.369809 -2.296177 0.000000000000000e+00 1634890835
1.129573 -0.437772 -2.319667 0.000000000000000e+00 1634890835
0.989270 -0.546431 -2.268183 0.000000000000000e+00 1634890835
0.943507 -0.610834 -2.300994 0.000000000000000e+00 1634890835
1.152443 -0.361381 -2.298493 0.000000000000000e+00 1634890835
1.110719 -0.429723 -2.329226 0.000000000000000e+00 1634890835
0.993032 -0.549356 -2.328810 0.000000000000000e+00 1634890835
0.914619 -0.593922 -2.283759 0.000000000000000e+00 1634890835
1.126169 -0.351756 -2.292611 0.000000000000000e+00 1634890835
1.072454 -0.414180 -2.297180 0.000000000000000e+00 1634890835
0.985898 -0.546282 -2.365644 0.000000000000000e+00 1634890835
0.903224 -0.588362 -2.309944 0.000000000000000e+00 1634890835
1.095523 -0.340789 -2.276980 0.000000000000000e+00 1634890835
1.059455 -0.408404 -2.318605 0.000000000000000e+00 1634890835
0.943401 -0.523602 -2.316898 0.000000000000000e+00 1634890835
0.883008 -0.577063 -2.313828 0.000000000000000e+00 1634890835
1.068976 -0.331126 -2.268973 0.000000000000000e+00 1634890835
1.029764 -0.396197 -2.303211 0.000000000000000e+00 1634890835
0.906096 -0.503764 -2.278411 0.000000000000000e+00 1634890835
0.850585 -0.557751 -2.284637 0.000000000000000e+00 1634890835
1.065725 -0.328669 -2.310728 0.000000000000000e+00 1634890835
0.993617 -0.381530 -2.271947 0.000000000000000e+00 1634890835
0.903785 -0.503378 -2.327724 0.000000000000000e+00 1634890835
0.836823 -0.550653 -2.304885 0.000000000000000e+00 1634890835
1.028841 -0.315844 -2.279387 0.000000000000000e+00 1634890835
0.980309 -0.375640 -2.292247 0.000000000000000e+00 1634890835
0.880545 -0.491345 -2.323791 0.000000000000000e+00 1634890835
0.466787 -0.308280 -1.318993 0.000000000000000e+00 1936876886
1.013045 -0.309515 -2.294014 0.000000000000000e+00 1634890835
0.978693 -0.374215 -2.341043 0.000000000000000e+00 1634890835
0.856658 -0.478941 -2.317461 0.000000000000000e+00 1634890835
0.439851 -0.291595 -1.275676 0.000000000000000e+00 1936876886
1.007204 -0.306207 -2.331947 0.000000000000000e+00 1634890835
0.943142 -0.359815 -2.308637 0.000000000000000e+00 1634890835
0.830383 -0.465186 -2.303728 0.000000000000000e+00 1634890835
0.440663 -0.293290 -1.312405 0.000000000000000e+00 1936876886
0.969668 -0.293271 -2.296163 0.000000000000000e+00 1634890835
0.932809 -0.355041 -2.337471 0.000000000000000e+00 1634890835
0.443225 -0.248819 -1.261610 0.000000000000000e+00 1936876886
0.334979 -0.223872 -1.025019 0.000000000000000e+00 1953264973
0.959707 -0.288692 -2.325132 0.000000000000000e+00 1634890835
0.897014 -0.340586 -2.301948 0.000000000000000e+00 1634890835
0.447122 -0.251556 -1.306430 0.000000000000000e+00 1936876886
0.316595 -0.212498 -0.995887 0.000000000000000e+00 1953264973
0.488279 -0.146052 -1.210780 0.000000000000000e+00 1936876886
0.881571 -0.333872 -2.317781 0.000000000000000e+00 1634890835
0.366914 -0.206903 -1.101048 0.000000000000000e+00 1953264973
0.277060 -0.186801 -0.896449 0.000000000000000e+00 1953264973
0.487365 -0.144918 -1.237387 0.000000000000000e+00 1936876886
0.860561 -0.325048 -2.319002 0.000000000000000e+00 1634890835
0.335618 -0.189708 -1.034912 0.000000000000000e+00 1953264973
0.267213 -0.181013 -0.889867 0.000000000000000e+00 1953264973
0.477327 -0.141055 -1.241363 0.000000000000000e+00 1936876886
0.831323 -0.313131 -2.297153 0.000000000000000e+00 1634890835
0.301955 -0.171108 -0.957341 0.000000000000000e+00 1953264973
0.243854 -0.166008 -0.836373 0.000000000000000e+00 1953264973
