# .PCD v0.7 - Point Cloud Data file format
VERSION 0.7
FIELDS x y z rgb label
SIZE 4 4 4 4 4
TYPE F F F F U
COUNT 1 1 1 1 1
WIDTH 543
HEIGHT 1
VIEWPOINT 0 0 0 1 0 0 0
POINTS 543
DATA ascii
43.830784 -18.536039 10.187039 0.000000000000000e+00 1954047316
40.943348 -22.848680 10.296597 0.000000000000000e+00 1954047316
40.936516 -22.858871 9.858352 0.000000000000000e+00 1954047316
35.588230 -13.241175 -1.938009 0.000000000000000e+00 1851878480
33.760284 -14.126712 -1.742314 0.000000000000000e+00 1851878480
30.734362 -15.855436 -1.355520 0.000000000000000e+00 1851878480
30.020226 -17.034382 -1.181090 0.000000000000000e+00 1851878480
31.317804 -11.643473 -1.989752 0.000000000000000e+00 1851878480
30.455626 -12.739437 -1.856644 0.000000000000000e+00 1851878480
28.787792 -14.855806 -1.556710 0.000000000000000e+00 1851878480
28.071608 -15.938072 -1.394022 0.000000000000000e+00 1851878480
28.954151 -10.756539 -2.102616 0.000000000000000e+00 1851878480
28.344816 -11.852365 -1.993320 0.000000000000000e+00 1851878480
27.395437 -14.141673 -1.754857 0.000000000000000e+00 1851878480
26.431107 -15.015508 -1.585536 0.000000000000000e+00 1851878480
26.901321 -9.986314 -2.198151 0.000000000000000e+00 1851878480
26.537395 -11.092690 -2.114893 0.000000000000000e+00 1851878480
25.828606 -13.336996 -1.912595 0.000000000000000e+00 1851878480
24.757898 -14.073249 -1.741196 0.000000000000000e+00 1851878480
24.491882 -9.084972 -2.224210 0.000000000000000e+00 1851878480
24.639507 -10.295751 -2.194801 0.000000000000000e+00 1851878480
23.903788 -12.346906 -2.009252 0.000000000000000e+00 1851878480
23.325184 -13.266696 -1.882004 0.000000000000000e+00 1851878480
22.300247 -8.265711 -2.228407 0.000000000000000e+00 1851878480
22.511881 -9.403413 -2.216743 0.000000000000000e+00 1851878480
22.005058 -11.369703 -2.070167 0.000000000000000e+00 1851878480
21.544472 -12.261127 -1.961807 0.000000000000000e+00 1851878480
20.450768 -7.574414 -2.230211 0.000000000000000e+00 1851878480
20.564035 -8.586748 -2.218380 0.000000000000000e+00 1851878480
20.382427 -10.534576 -2.122100 0.000000000000000e+00 1851878480
19.977060 -11.375850 -2.026665 0.000000000000000e+00 1851878480
18.930595 -7.006026 -2.237438 0.000000000000000e+00 1851878480
18.937151 -7.904636 -2.221296 0.000000000000000e+00 1851878480
19.062561 -9.855483 -2.176366 0.000000000000000e+00 1851878480
18.663181 -10.633972 -2.087683 0.000000000000000e+00 1851878480
17.577677 -6.500340 -2.238439 0.000000000000000e+00 1851878480
17.637100 -7.359373 -2.235261 0.000000000000000e+00 1851878480
17.694405 -9.150990 -2.198438 0.000000000000000e+00 1851878480
17.710987 -10.097437 -2.165951 0.000000000000000e+00 1851878480
16.396904 -6.059031 -2.238439 0.000000000000000e+00 1851878480
16.435867 -6.855716 -2.238438 0.000000000000000e+00 1851878480
16.462372 -8.516486 -2.211581 0.000000000000000e+00 1851878480
16.502100 -9.413835 -2.190670 0.000000000000000e+00 1851878480
9.037758 -3.337093 -1.316836 1.880790849211783e-38 1684957512
15.366799 -6.407506 -2.238438 0.000000000000000e+00 1851878480
15.414528 -7.976900 -2.226797 0.000000000000000e+00 1851878480
15.395132 -8.787601 -2.205087 0.000000000000000e+00 1851878480
9.037758 -3.334517 -1.400046 1.880790849211783e-38 1684957512
14.426394 -6.013245 -2.238439 0.000000000000000e+00 1851878480
14.478456 -7.494844 -2.238439 0.000000000000000e+00 1851878480
14.420225 -8.236053 -2.216987 0.000000000000000e+00 1851878480
9.037758 -3.331944 -1.483443 1.880790849211783e-38 1684957512
13.592607 -5.663689 -2.238438 0.000000000000000e+00 1851878480
13.584818 -7.034466 -2.238439 0.000000000000000e+00 1851878480
13.584731 -7.763525 -2.231686 0.000000000000000e+00 1851878480
9.037759 -3.329363 -1.567038 1.880790849211783e-38 1684957512
12.848192 -5.351592 -2.238438 0.000000000000000e+00 1851878480
12.793036 -6.626558 -2.238439 0.000000000000000e+00 1851878480
12.802257 -7.320756 -2.238439 0.000000000000000e+00 1851878480
9.037759 -3.326773 -1.650846 1.880790849211783e-38 1684957512
12.179398 -5.071210 -2.238440 0.000000000000000e+00 1851878480
12.086516 -6.262579 -2.238440 0.000000000000000e+00 1851878480
12.070442 -6.906457 -2.238439 0.000000000000000e+00 1851878480
9.037759 -3.324181 -1.734876 1.880790849211783e-38 1684957512
11.575191 -4.817899 -2.238439 0.000000000000000e+00 1851878480
11.452121 -5.935752 -2.238438 0.000000000000000e+00 1851878480
11.415791 -6.535829 -2.238439 0.000000000000000e+00 1851878480
9.037758 -3.321579 -1.819144 1.880790849211783e-38 1684957512
11.026567 -4.587888 -2.238440 0.000000000000000e+00 1851878480
10.879251 -5.640620 -2.238439 0.000000000000000e+00 1851878480
10.826602 -6.202272 -2.238439 0.000000000000000e+00 1851878480
9.037758 -3.318973 -1.903662 1.880790849211783e-38 1684957512
10.526118 -4.378079 -2.238439 0.000000000000000e+00 1851878480
10.359295 -5.372750 -2.238439 0.000000000000000e+00 1851878480
10.293451 -5.900441 -2.238438 0.000000000000000e+00 1851878480
9.037759 -3.316362 -1.988449 1.880790849211783e-38 1684957512
10.067682 -4.185882 -2.238438 0.000000000000000e+00 1851878480
9.885152 -5.128492 -2.238439 0.000000000000000e+00 1851878480
9.808619 -5.625967 -2.238439 0.000000000000000e+00 1851878480
9.037759 -3.313741 -2.073510 1.880790849211783e-38 1684957512
9.646156 -4.009163 -2.238439 0.000000000000000e+00 1851878480
9.450989 -4.904820 -2.238439 0.000000000000000e+00 1851878480
9.365773 -5.375264 -2.238438 0.000000000000000e+00 1851878480
9.037758 -3.311115 -2.158865 1.880790849211783e-38 1684957512
9.257175 -3.846087 -2.238439 0.000000000000000e+00 1851878480
9.051880 -4.699212 -2.238439 0.000000000000000e+00 1851878480
8.959618 -5.145333 -2.238439 0.000000000000000e+00 1851878480
9.013253 -3.299505 -2.238439 0.000000000000000e+00 1851878480
8.897070 -3.695114 -2.238439 0.000000000000000e+00 1851878480
8.683692 -4.509530 -2.238438 0.000000000000000e+00 1851878480
8.585717 -4.933660 -2.238438 0.000000000000000e+00 1851878480
8.680716 -3.175237 -2.238439 0.000000000000000e+00 1851878480
8.562683 -3.554928 -2.238439 0.000000000000000e+00 1851878480
8.342915 -4.333972 -2.238439 0.000000000000000e+00 1851878480
8.240319 -4.738129 -2.238439 0.000000000000000e+00 1851878480
8.370687 -3.059378 -2.238439 0.000000000000000e+00 1851878480
8.251315 -3.424390 -2.238439 0.000000000000000e+00 1851878480
8.026542 -4.170990 -2.238439 0.000000000000000e+00 1851878480
7.920238 -4.556932 -2.238439 0.000000000000000e+00 1851878480
8.080906 -2.951084 -2.238439 0.000000000000000e+00 1851878480
7.960617 -3.302521 -2.238439 0.000000000000000e+00 1851878480
7.732003 -4.019249 -2.238439 0.000000000000000e+00 1851878480
7.622736 -4.388514 -2.238439 0.000000000000000e+00 1851878480
7.809422 -2.849627 -2.238439 0.000000000000000e+00 1851878480
7.688570 -3.188471 -2.238439 0.000000000000000e+00 1851878480
7.457075 -3.877618 -2.238439 0.000000000000000e+00 1851878480
7.345475 -4.231556 -2.238439 0.000000000000000e+00 1851878480
7.554514 -2.754370 -2.238438 0.000000000000000e+00 1851878480
7.433395 -3.081491 -2.238439 0.000000000000000e+00 1851878480
7.199824 -3.745091 -2.238438 0.000000000000000e+00 1851878480
7.086409 -4.084905 -2.238438 0.000000000000000e+00 1851878480
7.314680 -2.664745 -2.238439 0.000000000000000e+00 1851878480
7.193533 -2.980934 -2.238439 0.000000000000000e+00 1851878480
6.958562 -3.620800 -2.238439 0.000000000000000e+00 1851878480
6.843775 -3.947548 -2.238439 0.000000000000000e+00 1851878480
7.088575 -2.580257 -2.238438 0.000000000000000e+00 1851878480
6.967607 -2.886219 -2.238439 0.000000000000000e+00 1851878480
6.731798 -3.503980 -2.238439 0.000000000000000e+00 1851878480
6.616007 -3.818614 -2.238438 0.000000000000000e+00 1851878480
6.875042 -2.500461 -2.238439 0.000000000000000e+00 1851878480
6.754416 -2.796841 -2.238439 0.000000000000000e+00 1851878480
6.518246 -3.393965 -2.238438 0.000000000000000e+00 1851878480
6.401762 -3.697335 -2.238438 0.000000000000000e+00 1851878480
6.673022 -2.424969 -2.238439 0.000000000000000e+00 1851878480
6.552880 -2.712352 -2.238439 0.000000000000000e+00 1851878480
6.316747 -3.290165 -2.238439 0.000000000000000e+00 1851878480
6.199836 -3.583029 -2.238439 0.000000000000000e+00 1851878480
6.481581 -2.353433 -2.238438 0.000000000000000e+00 1851878480
6.362040 -2.632345 -2.238439 0.000000000000000e+00 1851878480
6.126280 -3.192043 -2.238438 0.000000000000000e+00 1851878480
6.009160 -3.475096 -2.238438 0.000000000000000e+00 1851878480
6.299883 -2.285539 -2.238438 0.000000000000000e+00 1851878480
6.181038 -2.556466 -2.238438 0.000000000000000e+00 1851878480
5.945936 -3.099138 -2.238438 0.000000000000000e+00 1851878480
5.828795 -3.372998 -2.238438 0.000000000000000e+00 1851878480
6.127177 -2.221004 -2.238438 0.000000000000000e+00 1851878480
6.009109 -2.484385 -2.238438 0.000000000000000e+00 1851878480
5.774899 -3.011026 -2.238438 0.000000000000000e+00 1851878480
5.657899 -3.276261 -2.238438 0.000000000000000e+00 1851878480
5.962795 -2.159582 -2.238438 0.000000000000000e+00 1851878480
5.845566 -2.415826 -2.238438 0.000000000000000e+00 1851878480
5.612450 -2.927340 -2.238438 0.000000000000000e+00 1851878480
5.495727 -3.184460 -2.238438 0.000000000000000e+00 1851878480
5.806120 -2.101041 -2.238438 0.000000000000000e+00 1851878480
5.689786 -2.350520 -2.238438 0.000000000000000e+00 1851878480
5.457930 -2.847737 -2.238438 0.000000000000000e+00 1851878480
5.341597 -3.097217 -2.238438 0.000000000000000e+00 1851878480
5.656606 -2.045174 -2.238438 0.000000000000000e+00 1851878480
5.541209 -2.288233 -2.238438 0.000000000000000e+00 1851878480
5.310750 -2.771918 -2.238438 0.000000000000000e+00 1851878480
5.194904 -3.014182 -2.238438 0.000000000000000e+00 1851878480
5.513750 -1.991797 -2.238438 0.000000000000000e+00 1851878480
5.399324 -2.228750 -2.238438 0.000000000000000e+00 1851878480
5.170381 -2.699606 -2.238438 0.000000000000000e+00 1851878480
5.055101 -2.935051 -2.238439 0.000000000000000e+00 1851878480
5.377092 -1.940738 -2.238438 0.000000000000000e+00 1851878480
5.263664 -2.171882 -2.238438 0.000000000000000e+00 1851878480
5.036332 -2.630552 -2.238438 0.000000000000000e+00 1851878480
4.921688 -2.859535 -2.238438 0.000000000000000e+00 1851878480
5.246229 -1.891842 -2.238438 0.000000000000000e+00 1851878480
5.133819 -2.117447 -2.238438 0.000000000000000e+00 1851878480
4.908175 -2.564531 -2.238438 0.000000000000000e+00 1851878480
4.794225 -2.787389 -2.238438 0.000000000000000e+00 1851878480
5.120778 -1.844970 -2.238438 0.000000000000000e+00 1851878480
5.009400 -2.065289 -2.238438 0.000000000000000e+00 1851878480
4.785508 -2.501341 -2.238438 0.000000000000000e+00 1851878480
4.672303 -2.718377 -2.238438 0.000000000000000e+00 1851878480
5.000390 -1.799992 -2.238438 0.000000000000000e+00 1851878480
4.890057 -2.015259 -2.238438 0.000000000000000e+00 1851878480
4.667970 -2.440788 -2.238438 0.000000000000000e+00 1851878480
4.555545 -2.652293 -2.238438 0.000000000000000e+00 1851878480
4.884751 -1.756790 -2.238438 0.000000000000000e+00 1851878480
4.775467 -1.967222 -2.238438 0.000000000000000e+00 1851878480
4.555225 -2.382710 -2.238438 0.000000000000000e+00 1851878480
4.443616 -2.588940 -2.238438 0.000000000000000e+00 1851878480
4.773565 -1.715247 -2.238438 0.000000000000000e+00 1851878480
4.665337 -1.921054 -2.238439 0.000000000000000e+00 1851878480
4.446968 -2.326942 -2.238438 0.000000000000000e+00 1851878480
4.336202 -2.528143 -2.238438 0.000000000000000e+00 1851878480
4.666573 -1.675275 -2.238439 0.000000000000000e+00 1851878480
4.559396 -1.876642 -2.238438 0.000000000000000e+00 1851878480
4.342924 -2.273346 -2.238438 0.000000000000000e+00 1851878480
4.233025 -2.469746 -2.238438 0.000000000000000e+00 1851878480
4.563519 -1.636775 -2.238438 0.000000000000000e+00 1851878480
4.457396 -1.833883 -2.238438 0.000000000000000e+00 1851878480
4.242838 -2.221788 -2.238438 0.000000000000000e+00 1851878480
4.133819 -2.413598 -2.238438 0.000000000000000e+00 1851878480
4.464179 -1.599665 -2.238439 0.000000000000000e+00 1851878480
4.359105 -1.792679 -2.238438 0.000000000000000e+00 1851878480
4.146472 -2.172144 -2.238438 0.000000000000000e+00 1851878480
4.038345 -2.359563 -2.238438 0.000000000000000e+00 1851878480
4.368339 -1.563859 -2.238439 0.000000000000000e+00 1851878480
4.264309 -1.752939 -2.238438 0.000000000000000e+00 1851878480
4.053603 -2.124304 -2.238438 0.000000000000000e+00 1851878480
3.946382 -2.307513 -2.238438 0.000000000000000e+00 1851878480
4.275806 -1.529293 -2.238438 0.000000000000000e+00 1851878480
4.172814 -1.714584 -2.238438 0.000000000000000e+00 1851878480
3.964037 -2.078167 -2.238438 0.000000000000000e+00 1851878480
3.857727 -2.257340 -2.238439 0.000000000000000e+00 1851878480
4.186402 -1.495893 -2.238438 0.000000000000000e+00 1851878480
4.084439 -1.677536 -2.238439 0.000000000000000e+00 1851878480
3.877585 -2.033633 -2.238438 0.000000000000000e+00 1851878480
3.772191 -2.208930 -2.238438 0.000000000000000e+00 1851878480
4.099955 -1.463601 -2.238438 0.000000000000000e+00 1851878480
3.999009 -1.641725 -2.238438 0.000000000000000e+00 1851878480
3.794076 -1.990616 -2.238438 0.000000000000000e+00 1851878480
3.689600 -2.162189 -2.238439 0.000000000000000e+00 1851878480
4.016310 -1.432355 -2.238438 0.000000000000000e+00 1851878480
3.916372 -1.607084 -2.238438 0.000000000000000e+00 1851878480
3.713349 -1.949031 -2.238438 0.000000000000000e+00 1851878480
3.609791 -2.117022 -2.238439 0.000000000000000e+00 1851878480
4.006147 -1.427337 -2.278726 0.000000000000000e+00 1634890835
3.836381 -1.573551 -2.238438 0.000000000000000e+00 1851878480
3.635255 -1.908804 -2.238438 0.000000000000000e+00 1851878480
3.532614 -2.073345 -2.238439 0.000000000000000e+00 1851878480
3.926263 -1.397496 -2.278726 0.000000000000000e+00 1634890835
3.758894 -1.541070 -2.238438 0.000000000000000e+00 1851878480
3.559655 -1.869858 -2.238438 0.000000000000000e+00 1851878480
3.457927 -2.031079 -2.238439 0.000000000000000e+00 1851878480
3.848816 -1.368568 -2.278726 0.000000000000000e+00 1634890835
3.683792 -1.509588 -2.238438 0.000000000000000e+00 1851878480
3.486423 -1.832135 -2.238439 0.000000000000000e+00 1851878480
3.385604 -1.990150 -2.238439 0.000000000000000e+00 1851878480
3.773685 -1.340506 -2.278727 0.000000000000000e+00 1634890835
3.610951 -1.479055 -2.238438 0.000000000000000e+00 1851878480
3.415434 -1.795569 -2.238439 0.000000000000000e+00 1851878480
3.315521 -1.950490 -2.238439 0.000000000000000e+00 1851878480
3.700757 -1.313266 -2.278727 0.000000000000000e+00 1634890835
3.540262 -1.449424 -2.238438 0.000000000000000e+00 1851878480
3.346581 -1.760102 -2.238439 0.000000000000000e+00 1851878480
3.247564 -1.912037 -2.238439 0.000000000000000e+00 1851878480
3.629923 -1.286810 -2.278727 0.000000000000000e+00 1634890835
3.471620 -1.420648 -2.238438 0.000000000000000e+00 1851878480
3.279753 -1.725678 -2.238438 0.000000000000000e+00 1851878480
3.181630 -1.874724 -2.238438 0.000000000000000e+00 1851878480
3.561089 -1.261100 -2.278726 0.000000000000000e+00 1634890835
3.466211 -1.417759 -2.278727 0.000000000000000e+00 1634890835
3.214858 -1.692249 -2.238439 0.000000000000000e+00 1851878480
3.117620 -1.838502 -2.238438 0.000000000000000e+00 1851878480
3.494161 -1.236102 -2.278727 0.000000000000000e+00 1634890835
3.400212 -1.390092 -2.278727 0.000000000000000e+00 1634890835
3.151802 -1.659767 -2.238439 0.000000000000000e+00 1851878480
3.055440 -1.803316 -2.238438 0.000000000000000e+00 1851878480
3.429050 -1.211785 -2.278727 0.000000000000000e+00 1634890835
3.336016 -1.363182 -2.278727 0.000000000000000e+00 1634890835
3.090497 -1.628188 -2.238438 0.000000000000000e+00 1851878480
2.995004 -1.769118 -2.238439 0.000000000000000e+00 1851878480
3.365674 -1.188116 -2.278727 0.000000000000000e+00 1634890835
3.273543 -1.336996 -2.278727 0.000000000000000e+00 1634890835
3.030862 -1.597471 -2.238439 0.000000000000000e+00 1851878480
2.936229 -1.735860 -2.238438 0.000000000000000e+00 1851878480
3.303956 -1.165064 -2.278727 0.000000000000000e+00 1634890835
3.212713 -1.311497 -2.278727 0.000000000000000e+00 1634890835
2.972820 -1.567573 -2.238438 0.000000000000000e+00 1851878480
2.879039 -1.703499 -2.238439 0.000000000000000e+00 1851878480
3.243822 -1.142608 -2.278727 0.000000000000000e+00 1634890835
3.153456 -1.286658 -2.278727 0.000000000000000e+00 1634890835
2.916302 -1.538460 -2.238438 0.000000000000000e+00 1851878480
2.823362 -1.671995 -2.238438 0.000000000000000e+00 1851878480
3.185205 -1.120717 -2.278727 0.000000000000000e+00 1634890835
3.095703 -1.262449 -2.278727 0.000000000000000e+00 1634890835
2.861239 -1.510097 -2.238438 0.000000000000000e+00 1851878480
2.769131 -1.641311 -2.238438 0.000000000000000e+00 1851878480
3.128042 -1.099369 -2.278727 0.000000000000000e+00 1634890835
3.039388 -1.238845 -2.278727 0.000000000000000e+00 1634890835
2.807568 -1.482453 -2.238438 0.000000000000000e+00 1851878480
2.716283 -1.611408 -2.238438 0.000000000000000e+00 1851878480
3.072266 -1.078540 -2.278727 0.000000000000000e+00 1634890835
2.984452 -1.215816 -2.278728 0.000000000000000e+00 1634890835
2.755227 -1.455491 -2.238438 0.000000000000000e+00 1851878480
0.840393 -0.499001 -0.705944 0.000000000000000e+00 1886740808
3.017823 -1.058209 -2.278728 0.000000000000000e+00 1634890835
2.930833 -1.193341 -2.278728 0.000000000000000e+00 1634890835
2.704159 -1.429188 -2.238438 0.000000000000000e+00 1851878480
0.824541 -0.490032 -0.705944 0.000000000000000e+00 1886740808
2.964658 -1.038357 -2.278728 0.000000000000000e+00 1634890835
2.878479 -1.171398 -2.278728 0.000000000000000e+00 1634890835
0.837101 -0.442631 -0.705944 0.000000000000000e+00 1886740808
0.809071 -0.481280 -0.705944 0.000000000000000e+00 1886740808
2.912717 -1.018962 -2.278728 0.000000000000000e+00 1634890835
2.827340 -1.149960 -2.278728 0.000000000000000e+00 1634890835
0.821750 -0.434723 -0.705944 0.000000000000000e+00 1886740808
0.793968 -0.472734 -0.705944 0.000000000000000e+00 1886740808
2.861953 -1.000006 -2.278728 0.000000000000000e+00 1634890835
2.777364 -1.129013 -2.278728 0.000000000000000e+00 1634890835
0.806753 -0.426999 -0.705944 0.000000000000000e+00 1886740808
0.779215 -0.464387 -0.705944 0.000000000000000e+00 1886740808
2.812319 -0.981473 -2.278728 0.000000000000000e+00 1634890835
2.728506 -1.108534 -2.278728 0.000000000000000e+00 1634890835
0.792095 -0.419449 -0.705944 0.000000000000000e+00 1886740808
0.764798 -0.456231 -0.705944 0.000000000000000e+00 1886740808
2.763768 -0.963344 -2.278728 0.000000000000000e+00 1634890835
0.830480 -0.337216 -0.705944 0.000000000000000e+00 1886740808
0.777763 -0.412067 -0.705944 0.000000000000000e+00 1886740808
0.750704 -0.448258 -0.705944 0.000000000000000e+00 1886740808
0.841491 -0.292946 -0.705944 0.000000000000000e+00 1886740808
0.815996 -0.331145 -0.705944 0.000000000000000e+00 1886740808
0.763745 -0.404846 -0.705944 0.000000000000000e+00 1886740808
0.744300 -0.444870 -0.713014 0.000000000000000e+00 1886740808
0.827084 -0.287567 -0.705944 0.000000000000000e+00 1886740808
0.801819 -0.325202 -0.705944 0.000000000000000e+00 1886740808
0.750027 -0.397780 -0.705944 0.000000000000000e+00 1886740808
0.744300 -0.445314 -0.726307 0.000000000000000e+00 1886740808
0.812976 -0.282300 -0.705944 0.000000000000000e+00 1886740808
0.787938 -0.319384 -0.705944 0.000000000000000e+00 1886740808
0.744300 -0.394950 -0.713326 0.000000000000000e+00 1886740808
0.744300 -0.445765 -0.739805 0.000000000000000e+00 1886740808
0.799156 -0.277140 -0.705944 0.000000000000000e+00 1886740808
0.774340 -0.313685 -0.705944 0.000000000000000e+00 1886740808
0.744300 -0.395161 -0.726294 0.000000000000000e+00 1886740808
0.744300 -0.446223 -0.753518 0.000000000000000e+00 1886740808
0.785613 -0.272084 -0.705944 0.000000000000000e+00 1886740808
0.761017 -0.308100 -0.705944 0.000000000000000e+00 1886740808
0.744300 -0.395375 -0.739462 0.000000000000000e+00 1886740808
0.744300 -0.446688 -0.767453 0.000000000000000e+00 1886740808
0.772337 -0.267127 -0.705944 0.000000000000000e+00 1886740808
0.747957 -0.302626 -0.705944 0.000000000000000e+00 1886740808
0.744300 -0.395592 -0.752839 0.000000000000000e+00 1886740808
0.744300 -0.447161 -0.781615 0.000000000000000e+00 1886740808
0.759318 -0.262267 -0.705944 0.000000000000000e+00 1886740808
0.744300 -0.300958 -0.714730 0.000000000000000e+00 1886740808
0.744300 -0.395813 -0.766431 0.000000000000000e+00 1886740808
0.744300 -0.447642 -0.796015 0.000000000000000e+00 1886740808
0.746547 -0.257500 -0.705944 0.000000000000000e+00 1886740808
0.744300 -0.300767 -0.727154 0.000000000000000e+00 1886740808
0.744300 -0.396037 -0.780247 0.000000000000000e+00 1886740808
2.092193 -1.259678 -2.278728 0.000000000000000e+00 1634890835
0.744300 -0.256364 -0.715836 0.000000000000000e+00 1886740808
0.744300 -0.300573 -0.739772 0.000000000000000e+00 1886740808
0.744300 -0.396266 -0.794293 0.000000000000000e+00 1886740808
2.054435 -1.238319 -2.278728 0.000000000000000e+00 1634890835
0.744300 -0.255998 -0.728038 0.000000000000000e+00 1886740808
0.744300 -0.300375 -0.752591 0.000000000000000e+00 1886740808
2.097579 -1.117405 -2.278728 0.000000000000000e+00 1634890835
2.017382 -1.217361 -2.278728 0.000000000000000e+00 1634890835
0.744300 -0.255626 -0.740430 0.000000000000000e+00 1886740808
0.744300 -0.300175 -0.765616 0.000000000000000e+00 1886740808
2.060545 -1.098331 -2.278728 0.000000000000000e+00 1634890835
0.796276 -0.481053 -0.915943 0.000000000000000e+00 1886740808
0.744300 -0.255248 -0.753019 0.000000000000000e+00 1886740808
0.744300 -0.299971 -0.778856 0.000000000000000e+00 1886740808
2.024178 -1.079599 -2.278728 0.000000000000000e+00 1634890835
0.784638 -0.474578 -0.919125 0.000000000000000e+00 1886740808
0.744300 -0.254864 -0.765812 0.000000000000000e+00 1886740808
0.744300 -0.299764 -0.792316 0.000000000000000e+00 1886740808
1.988454 -1.061199 -2.278728 0.000000000000000e+00 1634890835
0.775676 -0.469715 -0.925312 0.000000000000000e+00 1886740808
0.744300 -0.254475 -0.778816 0.000000000000000e+00 1886740808
2.104272 -0.846891 -2.278728 0.000000000000000e+00 1634890835
0.797389 -0.425818 -0.930214 0.000000000000000e+00 1886740808
0.768826 -0.466132 -0.933993 0.000000000000000e+00 1886740808
0.744300 -0.254078 -0.792037 0.000000000000000e+00 1886740808
2.068530 -0.831912 -2.278727 0.000000000000000e+00 1634890835
0.785520 -0.419748 -0.932846 0.000000000000000e+00 1886740808
0.764554 -0.464114 -0.945884 0.000000000000000e+00 1886740808
0.744300 -0.253675 -0.805484 0.000000000000000e+00 1886740808
2.033385 -0.817181 -2.278728 0.000000000000000e+00 1634890835
0.776433 -0.415162 -0.938650 0.000000000000000e+00 1886740808
1.808582 -1.099259 -2.278728 0.000000000000000e+00 1634890835
2.070472 -0.704526 -2.278727 0.000000000000000e+00 1634890835
1.998814 -0.802692 -2.278728 0.000000000000000e+00 1634890835
0.769420 -0.411686 -0.946935 0.000000000000000e+00 1886740808
1.775831 -1.080735 -2.278727 0.000000000000000e+00 1634890835
2.035872 -0.691612 -2.278728 0.000000000000000e+00 1634890835
1.964800 -0.788436 -2.278728 0.000000000000000e+00 1634890835
0.764809 -0.409494 -0.958249 0.000000000000000e+00 1886740808
0.749058 -0.456457 -0.978944 0.000000000000000e+00 1886740808
2.001819 -0.678902 -2.278728 0.000000000000000e+00 1634890835
1.931324 -0.774405 -2.278728 0.000000000000000e+00 1634890835
0.767184 -0.411048 -0.978606 0.000000000000000e+00 1886740808
1.711908 -1.044582 -2.278727 0.000000000000000e+00 1634890835
1.968294 -0.666389 -2.278728 0.000000000000000e+00 1634890835
0.797682 -0.319597 -0.957506 0.000000000000000e+00 1886740808
1.754623 -0.940768 -2.278728 0.000000000000000e+00 1634890835
1.680701 -1.026932 -2.278728 0.000000000000000e+00 1634890835
1.935281 -0.654068 -2.278728 0.000000000000000e+00 1634890835
0.785812 -0.314588 -0.959663 0.000000000000000e+00 1886740808
0.751061 -0.402981 -0.993123 0.000000000000000e+00 1886740808
1.649976 -1.009556 -2.278727 0.000000000000000e+00 1634890835
1.902763 -0.641933 -2.278727 0.000000000000000e+00 1634890835
0.776733 -0.310700 -0.965108 0.000000000000000e+00 1886740808
1.692478 -0.908759 -2.278727 0.000000000000000e+00 1634890835
1.619717 -0.992443 -2.278727 0.000000000000000e+00 1634890835
0.796758 -0.268312 -0.970530 0.000000000000000e+00 1886740808
0.769658 -0.307613 -0.973025 0.000000000000000e+00 1886740808
1.662098 -0.893114 -2.278727 0.000000000000000e+00 1634890835
1.589907 -0.975584 -2.278727 0.000000000000000e+00 1634890835
0.785170 -0.263919 -0.972834 0.000000000000000e+00 1886740808
0.764884 -0.305444 -0.983930 0.000000000000000e+00 1886740808
1.632162 -0.877695 -2.278728 0.000000000000000e+00 1634890835
1.560533 -0.958973 -2.278727 0.000000000000000e+00 1634890835
0.776224 -0.260416 -0.978306 0.000000000000000e+00 1886740808
0.765626 -0.305475 -1.002193 0.000000000000000e+00 1886740808
1.602653 -0.862498 -2.278728 0.000000000000000e+00 1634890835
1.531582 -0.942600 -2.278727 0.000000000000000e+00 1634890835
0.769285 -0.257588 -0.986301 0.000000000000000e+00 1886740808
1.710673 -0.681929 -2.278728 0.000000000000000e+00 1634890835
1.573560 -0.847514 -2.278727 0.000000000000000e+00 1634890835
1.503038 -0.926458 -2.278727 0.000000000000000e+00 1634890835
0.764665 -0.255534 -0.997361 0.000000000000000e+00 1886740808
1.680925 -0.669462 -2.278728 0.000000000000000e+00 1634890835
1.544870 -0.832737 -2.278728 0.000000000000000e+00 1634890835
1.474890 -0.910540 -2.278727 0.000000000000000e+00 1634890835
0.766234 -0.255538 -1.016783 0.000000000000000e+00 1886740808
0.744052 -0.296059 -1.026588 0.000000000000000e+00 1886740808
1.516568 -0.818161 -2.278728 0.000000000000000e+00 1634890835
1.447124 -0.894839 -2.278728 0.000000000000000e+00 1634890835
1.687759 -0.561696 -2.278727 0.000000000000000e+00 1634890835
1.622624 -0.645028 -2.278728 0.000000000000000e+00 1634890835
1.488642 -0.803779 -2.278727 0.000000000000000e+00 1634890835
1.419728 -0.879347 -2.278727 0.000000000000000e+00 1634890835
0.752060 -0.249758 -1.033192 0.000000000000000e+00 1886740808
1.594047 -0.633052 -2.278727 0.000000000000000e+00 1634890835
1.461082 -0.789587 -2.278727 0.000000000000000e+00 1634890835
1.392692 -0.864060 -2.278727 0.000000000000000e+00 1634890835
1.629982 -0.540137 -2.278727 0.000000000000000e+00 1634890835
1.565838 -0.621229 -2.278727 0.000000000000000e+00 1634890835
1.433877 -0.775575 -2.278727 0.000000000000000e+00 1634890835
1.366005 -0.848968 -2.278727 0.000000000000000e+00 1634890835
1.601642 -0.529563 -2.278727 0.000000000000000e+00 1634890835
1.537982 -0.609556 -2.278727 0.000000000000000e+00 1634890835
1.407015 -0.761741 -2.278727 0.000000000000000e+00 1634890835
1.339653 -0.834067 -2.278727 0.000000000000000e+00 1634890835
1.573653 -0.519120 -2.278727 0.000000000000000e+00 1634890835
1.510471 -0.598026 -2.278727 0.000000000000000e+00 1634890835
1.380485 -0.748077 -2.278728 0.000000000000000e+00 1634890835
1.313628 -0.819352 -2.278728 0.000000000000000e+00 1634890835
1.546005 -0.508803 -2.278727 0.000000000000000e+00 1634890835
1.483295 -0.586636 -2.278728 0.000000000000000e+00 1634890835
1.354277 -0.734580 -2.278727 0.000000000000000e+00 1634890835
1.287921 -0.804815 -2.278727 0.000000000000000e+00 1634890835
1.518686 -0.498610 -2.278727 0.000000000000000e+00 1634890835
1.456444 -0.575383 -2.278727 0.000000000000000e+00 1634890835
1.328382 -0.721244 -2.278728 0.000000000000000e+00 1634890835
1.262520 -0.790452 -2.278727 0.000000000000000e+00 1634890835
1.491689 -0.488535 -2.278727 0.000000000000000e+00 1634890835
1.429907 -0.564262 -2.278727 0.000000000000000e+00 1634890835
1.302791 -0.708064 -2.278727 0.000000000000000e+00 1634890835
1.237417 -0.776259 -2.278727 0.000000000000000e+00 1634890835
1.465001 -0.478579 -2.278728 0.000000000000000e+00 1634890835
1.403674 -0.553269 -2.278727 0.000000000000000e+00 1634890835
1.277493 -0.695036 -2.278727 0.000000000000000e+00 1634890835
1.212601 -0.762228 -2.278727 0.000000000000000e+00 1634890835
1.438616 -0.468734 -2.278727 0.000000000000000e+00 1634890835
1.377737 -0.542399 -2.278727 0.000000000000000e+00 1634890835
1.252481 -0.682154 -2.278727 0.000000000000000e+00 1634890835
1.188066 -0.748354 -2.278727 0.000000000000000e+00 1634890835
1.412523 -0.458999 -2.278728 0.000000000000000e+00 1634890835
1.352088 -0.531649 -2.278727 0.000000000000000e+00 1634890835
1.227744 -0.669414 -2.278727 0.000000000000000e+00 1634890835
1.163801 -0.734634 -2.278727 0.000000000000000e+00 1634890835
1.386714 -0.449370 -2.278727 0.000000000000000e+00 1634890835
1.326717 -0.521017 -2.278727 0.000000000000000e+00 1634890835
1.203275 -0.656813 -2.278727 0.000000000000000e+00 1634890835
1.139799 -0.721064 -2.278727 0.000000000000000e+00 1634890835
1.361181 -0.439844 -2.278727 0.000000000000000e+00 1634890835
1.301617 -0.510498 -2.278727 0.000000000000000e+00 1634890835
1.179067 -0.644345 -2.278728 0.000000000000000e+00 1634890835
1.116052 -0.707638 -2.278727 0.000000000000000e+00 1634890835
1.335915 -0.430417 -2.278727 0.000000000000000e+00 1634890835
1.276779 -0.500089 -2.278727 0.000000000000000e+00 1634890835
1.155110 -0.632009 -2.278727 0.000000000000000e+00 1634890835
1.092553 -0.694350 -2.278727 0.000000000000000e+00 1634890835
1.310909 -0.421088 -2.278727 0.000000000000000e+00 1634890835
1.252196 -0.489786 -2.278727 0.000000000000000e+00 1634890835
1.131398 -0.619797 -2.278727 0.000000000000000e+00 1634890835
1.069293 -0.681201 -2.278727 0.000000000000000e+00 1634890835
1.286156 -0.411854 -2.278727 0.000000000000000e+00 1634890835
1.227860 -0.479588 -2.278727 0.000000000000000e+00 1634890835
1.107924 -0.607707 -2.278727 0.000000000000000e+00 1634890835
1.046266 -0.668181 -2.278727 0.000000000000000e+00 1634890835
1.261648 -0.402710 -2.278727 0.000000000000000e+00 1634890835
1.203764 -0.469490 -2.278727 0.000000000000000e+00 1634890835
1.084680 -0.595737 -2.278727 0.000000000000000e+00 1634890835
1.023464 -0.655289 -2.278727 0.000000000000000e+00 1634890835
1.237376 -0.393657 -2.278727 0.000000000000000e+00 1634890835
1.179900 -0.459490 -2.278727 0.000000000000000e+00 1634890835
1.061659 -0.583882 -2.278727 0.000000000000000e+00 1634890835
1.000881 -0.642522 -2.278727 0.000000000000000e+00 1634890835
1.213337 -0.384688 -2.278727 0.000000000000000e+00 1634890835
1.156262 -0.449584 -2.278727 0.000000000000000e+00 1634890835
1.038855 -0.572138 -2.278727 0.000000000000000e+00 1634890835
0.978510 -0.629874 -2.278727 0.000000000000000e+00 1634890835
1.189520 -0.375803 -2.278727 0.000000000000000e+00 1634890835
1.132844 -0.439770 -2.278727 0.000000000000000e+00 1634890835
1.016261 -0.560501 -2.278727 0.000000000000000e+00 1634890835
0.956344 -0.617343 -2.278727 0.000000000000000e+00 1634890835
1.165921 -0.366999 -2.278727 0.000000000000000e+00 1634890835
1.109637 -0.430046 -2.278727 0.000000000000000e+00 1634890835
0.993869 -0.548971 -2.278727 0.000000000000000e+00 1634890835
0.934377 -0.604923 -2.278727 0.000000000000000e+00 1634890835
1.142533 -0.358274 -2.278727 0.000000000000000e+00 1634890835
1.086638 -0.420407 -2.278728 0.000000000000000e+00 1634890835
0.971676 -0.537541 -2.278727 0.000000000000000e+00 1634890835
0.912604 -0.592614 -2.278727 0.000000000000000e+00 1634890835
1.119349 -0.349626 -2.278727 0.000000000000000e+00 1634890835
1.063839 -0.410853 -2.278727 0.000000000000000e+00 1634890835
0.949675 -0.526211 -2.278727 0.000000000000000e+00 1634890835
0.891018 -0.580411 -2.278727 0.000000000000000e+00 1634890835
1.096364 -0.341051 -2.278727 0.000000000000000e+00 1634890835
1.041233 -0.401379 -2.278727 0.000000000000000e+00 1634890835
0.927858 -0.514976 -2.278727 0.000000000000000e+00 1634890835
0.869613 -0.568309 -2.278727 0.000000000000000e+00 1634890835
1.073572 -0.332549 -2.278728 0.000000000000000e+00 1634890835
1.018817 -0.391985 -2.278727 0.000000000000000e+00 1634890835
0.906222 -0.503834 -2.278727 0.000000000000000e+00 1634890835
0.848384 -0.556308 -2.278727 0.000000000000000e+00 1634890835
1.050966 -0.324117 -2.278727 0.000000000000000e+00 1634890835
0.996583 -0.382668 -2.278727 0.000000000000000e+00 1634890835
0.884761 -0.492782 -2.278727 0.000000000000000e+00 1634890835
0.827326 -0.544404 -2.278727 0.000000000000000e+00 1634890835
1.028542 -0.315752 -2.278727 0.000000000000000e+00 1634890835
0.974527 -0.373425 -2.278727 0.000000000000000e+00 1634890835
0.863469 -0.481816 -2.278727 0.000000000000000e+00 1634890835
0.451010 -0.297860 -1.274412 0.000000000000000e+00 1936876886
1.006295 -0.307453 -2.278727 0.000000000000000e+00 1634890835
0.952641 -0.364254 -2.278727 0.000000000000000e+00 1634890835
0.842340 -0.470936 -2.278727 0.000000000000000e+00 1634890835
0.433313 -0.287261 -1.256715 0.000000000000000e+00 1936876886
0.984217 -0.299218 -2.278727 0.000000000000000e+00 1634890835
0.930923 -0.355153 -2.278727 0.000000000000000e+00 1634890835
0.821371 -0.460137 -2.278727 0.000000000000000e+00 1634890835
0.421236 -0.280360 -1.254546 0.000000000000000e+00 1936876886
0.962305 -0.291044 -2.278727 0.000000000000000e+00 1634890835
0.909366 -0.346119 -2.278727 0.000000000000000e+00 1634890835
0.445942 -0.250344 -1.269344 0.000000000000000e+00 1936876886
0.335124 -0.223969 -1.025463 0.000000000000000e+00 1953264973
0.940553 -0.282931 -2.278727 0.000000000000000e+00 1634890835
0.887966 -0.337151 -2.278727 0.000000000000000e+00 1634890835
0.428906 -0.241307 -1.253205 0.000000000000000e+00 1936876886
0.306469 -0.205702 -0.964037 0.000000000000000e+00 1953264973
0.495093 -0.148090 -1.227675 0.000000000000000e+00 1936876886
0.866717 -0.328247 -2.278727 0.000000000000000e+00 1634890835
0.358551 -0.202187 -1.075951 0.000000000000000e+00 1953264973
0.281220 -0.189606 -0.909912 0.000000000000000e+00 1953264973
0.483540 -0.143780 -1.227676 0.000000000000000e+00 1936876886
0.845615 -0.319403 -2.278727 0.000000000000000e+00 1634890835
0.326692 -0.184662 -1.007387 0.000000000000000e+00 1953264973
0.258799 -0.175314 -0.861849 0.000000000000000e+00 1953264973
0.472064 -0.139500 -1.227675 0.000000000000000e+00 1936876886
0.824655 -0.310620 -2.278727 0.000000000000000e+00 1634890835
0.299051 -0.169462 -0.948135 0.000000000000000e+00 1953264973
0.238754 -0.162536 -0.818878 0.000000000000000e+00 1953264973
