# .PCD v0.7 - Point Cloud Data file format
VERSION 0.7
FIELDS x y z rgb label
SIZE 4 4 4 4 4
TYPE F F F F U
COUNT 1 1 1 1 1
WIDTH 541
HEIGHT 1
VIEWPOINT 0 0 0 1 0 0 0
POINTS 541
DATA ascii
44.536560 -18.834515 10.351074 0.000000000000000e+00 1954047316
35.181782 -13.089949 -1.915875 0.000000000000000e+00 1851878480
33.421375 -13.984899 -1.724824 0.000000000000000e+00 1851878480
30.731005 -15.853703 -1.355374 0.000000000000000e+00 1851878480
29.946356 -16.992466 -1.178183 0.000000000000000e+00 1851878480
31.339941 -11.651702 -1.991159 0.000000000000000e+00 1851878480
30.425800 -12.726962 -1.854825 0.000000000000000e+00 1851878480
28.977907 -14.953915 -1.566990 0.000000000000000e+00 1851878480
28.234545 -16.030582 -1.402114 0.000000000000000e+00 1851878480
29.042742 -10.789451 -2.109049 0.000000000000000e+00 1851878480
28.620193 -11.967514 -2.012686 0.000000000000000e+00 1851878480
27.509857 -14.200738 -1.762186 0.000000000000000e+00 1851878480
26.251059 -14.913223 -1.574733 0.000000000000000e+00 1851878480
27.004440 -10.024593 -2.206578 0.000000000000000e+00 1851878480
26.632540 -11.132460 -2.122475 0.000000000000000e+00 1851878480
25.839518 -13.342631 -1.913403 0.000000000000000e+00 1851878480
24.698399 -14.039427 -1.737011 0.000000000000000e+00 1851878480
24.461407 -9.073668 -2.221443 0.000000000000000e+00 1851878480
24.643339 -10.297352 -2.195142 0.000000000000000e+00 1851878480
23.864557 -12.326642 -2.005954 0.000000000000000e+00 1851878480
23.121597 -13.150901 -1.865577 0.000000000000000e+00 1851878480
22.312365 -8.270202 -2.229617 0.000000000000000e+00 1851878480
22.428495 -9.368581 -2.208532 0.000000000000000e+00 1851878480
21.846643 -11.287852 -2.055263 0.000000000000000e+00 1851878480
21.481916 -12.225527 -1.956111 0.000000000000000e+00 1851878480
20.471067 -7.581934 -2.232425 0.000000000000000e+00 1851878480
20.554642 -8.582826 -2.217366 0.000000000000000e+00 1851878480
20.346161 -10.515831 -2.118324 0.000000000000000e+00 1851878480
19.842421 -11.299178 -2.013006 0.000000000000000e+00 1851878480
18.934910 -7.007623 -2.237949 0.000000000000000e+00 1851878480
18.976736 -7.921160 -2.225939 0.000000000000000e+00 1851878480
19.154795 -9.903168 -2.186896 0.000000000000000e+00 1851878480
18.729387 -10.671696 -2.095089 0.000000000000000e+00 1851878480
17.578802 -6.500756 -2.238582 0.000000000000000e+00 1851878480
17.667883 -7.372218 -2.239163 0.000000000000000e+00 1851878480
17.682453 -9.144809 -2.196954 0.000000000000000e+00 1851878480
17.828979 -10.164707 -2.180380 0.000000000000000e+00 1851878480
16.431379 -6.071771 -2.243146 0.000000000000000e+00 1851878480
16.454123 -6.863330 -2.240925 0.000000000000000e+00 1851878480
16.508167 -8.540177 -2.217733 0.000000000000000e+00 1851878480
16.502554 -9.414094 -2.190730 0.000000000000000e+00 1851878480
15.356686 -5.670289 -2.237528 0.000000000000000e+00 1851878480
15.422251 -6.430628 -2.246516 0.000000000000000e+00 1851878480
15.461395 -8.001154 -2.233567 0.000000000000000e+00 1851878480
15.388471 -8.783800 -2.204133 0.000000000000000e+00 1851878480
14.501532 -5.350399 -2.246444 0.000000000000000e+00 1851878480
14.471115 -6.031886 -2.245378 0.000000000000000e+00 1851878480
14.518904 -7.515782 -2.244692 0.000000000000000e+00 1851878480
14.464635 -8.261417 -2.223814 0.000000000000000e+00 1851878480
13.668106 -5.039011 -2.243461 0.000000000000000e+00 1851878480
13.649652 -5.687458 -2.247832 0.000000000000000e+00 1851878480
13.619374 -7.052360 -2.244133 0.000000000000000e+00 1851878480
13.606865 -7.776174 -2.235322 0.000000000000000e+00 1851878480
12.919848 -4.759461 -2.240145 0.000000000000000e+00 1851878480
12.843166 -5.349499 -2.237563 0.000000000000000e+00 1851878480
12.846158 -6.654075 -2.247734 0.000000000000000e+00 1851878480
12.836404 -7.340282 -2.244410 0.000000000000000e+00 1851878480
12.286674 -4.522690 -2.244296 0.000000000000000e+00 1851878480
12.240017 -5.096451 -2.249581 0.000000000000000e+00 1851878480
12.148459 -6.294675 -2.249912 0.000000000000000e+00 1851878480
12.083140 -6.913723 -2.240794 0.000000000000000e+00 1851878480
11.676165 -4.294614 -2.241341 0.000000000000000e+00 1851878480
11.641814 -4.845629 -2.251323 0.000000000000000e+00 1851878480
11.490618 -5.955706 -2.245963 0.000000000000000e+00 1851878480
11.433448 -6.545938 -2.241901 0.000000000000000e+00 1851878480
11.172789 -4.106251 -2.248888 0.000000000000000e+00 1851878480
11.060028 -4.601810 -2.245232 0.000000000000000e+00 1851878480
10.915026 -5.659168 -2.245799 0.000000000000000e+00 1851878480
10.848570 -6.214857 -2.242981 0.000000000000000e+00 1851878480
10.585534 -3.887370 -2.229677 0.000000000000000e+00 1851878480
10.606797 -4.411636 -2.255596 0.000000000000000e+00 1851878480
10.349491 -5.367665 -2.236320 0.000000000000000e+00 1851878480
10.273253 -5.888863 -2.234046 0.000000000000000e+00 1851878480
10.238722 -3.757051 -2.252679 0.000000000000000e+00 1851878480
10.097060 -4.198096 -2.244970 0.000000000000000e+00 1851878480
9.915091 -5.144024 -2.245218 0.000000000000000e+00 1851878480
9.786634 -5.613357 -2.233421 0.000000000000000e+00 1851878480
9.737893 -3.570449 -2.234140 0.000000000000000e+00 1851878480
9.697060 -4.030319 -2.250251 0.000000000000000e+00 1851878480
9.519866 -4.940567 -2.254752 0.000000000000000e+00 1851878480
9.390939 -5.389708 -2.244453 0.000000000000000e+00 1851878480
9.404927 -3.445632 -2.246571 0.000000000000000e+00 1851878480
9.303468 -3.865320 -2.249632 0.000000000000000e+00 1851878480
9.119561 -4.734348 -2.255176 0.000000000000000e+00 1851878480
8.961021 -5.146140 -2.238789 0.000000000000000e+00 1851878480
9.005787 -3.296772 -2.236584 0.000000000000000e+00 1851878480
8.895058 -3.694278 -2.237932 0.000000000000000e+00 1851878480
8.764217 -4.551348 -2.259196 0.000000000000000e+00 1851878480
8.614024 -4.949926 -2.245819 0.000000000000000e+00 1851878480
8.692184 -3.179432 -2.241396 0.000000000000000e+00 1851878480
8.576056 -3.560480 -2.241935 0.000000000000000e+00 1851878480
8.378634 -4.352528 -2.248023 0.000000000000000e+00 1851878480
8.242043 -4.739120 -2.238907 0.000000000000000e+00 1851878480
8.380621 -3.063009 -2.241095 0.000000000000000e+00 1851878480
8.289069 -3.440059 -2.248681 0.000000000000000e+00 1851878480
8.072393 -4.194817 -2.251226 0.000000000000000e+00 1851878480
7.987556 -4.595664 -2.257465 0.000000000000000e+00 1851878480
8.089872 -2.954359 -2.240923 0.000000000000000e+00 1851878480
7.981947 -3.311370 -2.244437 0.000000000000000e+00 1851878480
7.746708 -4.026893 -2.242696 0.000000000000000e+00 1851878480
7.599626 -4.375209 -2.231652 0.000000000000000e+00 1851878480
7.839013 -2.860424 -2.246921 0.000000000000000e+00 1851878480
7.748563 -3.213350 -2.255905 0.000000000000000e+00 1851878480
7.514262 -3.907355 -2.255605 0.000000000000000e+00 1851878480
7.375311 -4.248744 -2.247531 0.000000000000000e+00 1851878480
7.588159 -2.766637 -2.248407 0.000000000000000e+00 1851878480
7.466242 -3.095108 -2.248330 0.000000000000000e+00 1851878480
7.243069 -3.767586 -2.251884 0.000000000000000e+00 1851878480
7.071109 -4.076085 -2.233605 0.000000000000000e+00 1851878480
7.368124 -2.684214 -2.254794 0.000000000000000e+00 1851878480
7.220280 -2.992018 -2.246762 0.000000000000000e+00 1851878480
6.991061 -3.637711 -2.248893 0.000000000000000e+00 1851878480
6.876423 -3.966381 -2.249117 0.000000000000000e+00 1851878480
7.116658 -2.590479 -2.247307 0.000000000000000e+00 1851878480
6.965246 -2.885241 -2.237681 0.000000000000000e+00 1851878480
6.777199 -3.527612 -2.253535 0.000000000000000e+00 1851878480
6.628591 -3.825877 -2.242696 0.000000000000000e+00 1851878480
6.872425 -2.499509 -2.237586 0.000000000000000e+00 1851878480
6.810478 -2.820055 -2.257018 0.000000000000000e+00 1851878480
6.515086 -3.392319 -2.237353 0.000000000000000e+00 1851878480
6.419598 -3.707637 -2.244674 0.000000000000000e+00 1851878480
6.681934 -2.428208 -2.241428 0.000000000000000e+00 1851878480
6.559894 -2.715255 -2.240835 0.000000000000000e+00 1851878480
6.352105 -3.308581 -2.250968 0.000000000000000e+00 1851878480
6.272189 -3.624843 -2.264562 0.000000000000000e+00 1851878480
6.473767 -2.350595 -2.235740 0.000000000000000e+00 1851878480
6.375701 -2.637998 -2.243245 0.000000000000000e+00 1851878480
6.148863 -3.203809 -2.246690 0.000000000000000e+00 1851878480
6.024926 -3.484214 -2.244312 0.000000000000000e+00 1851878480
6.321536 -2.293395 -2.246132 0.000000000000000e+00 1851878480
6.228390 -2.576050 -2.255586 0.000000000000000e+00 1851878480
6.036774 -3.146484 -2.272635 0.000000000000000e+00 1851878480
5.862242 -3.392353 -2.251282 0.000000000000000e+00 1851878480
6.165406 -2.234862 -2.252404 0.000000000000000e+00 1851878480
6.024107 -2.490586 -2.244025 0.000000000000000e+00 1851878480
5.843569 -3.046830 -2.265056 0.000000000000000e+00 1851878480
5.709799 -3.306314 -2.258971 0.000000000000000e+00 1851878480
5.956196 -2.157192 -2.235961 0.000000000000000e+00 1851878480
5.860919 -2.422171 -2.244317 0.000000000000000e+00 1851878480
5.702724 -2.974424 -2.274442 0.000000000000000e+00 1851878480
5.510548 -3.193048 -2.244474 0.000000000000000e+00 1851878480
5.809526 -2.102273 -2.239751 0.000000000000000e+00 1851878480
5.705054 -2.356828 -2.244445 0.000000000000000e+00 1851878480
5.462058 -2.849891 -2.240131 0.000000000000000e+00 1851878480
5.315764 -3.082238 -2.227613 0.000000000000000e+00 1851878480
5.712668 -2.065444 -2.260623 0.000000000000000e+00 1851878480
5.558378 -2.295323 -2.245374 0.000000000000000e+00 1851878480
5.345908 -2.790268 -2.253256 0.000000000000000e+00 1851878480
5.231437 -3.035379 -2.254180 0.000000000000000e+00 1851878480
5.557809 -2.007713 -2.256325 0.000000000000000e+00 1851878480
5.445298 -2.247727 -2.257498 0.000000000000000e+00 1851878480
5.211669 -2.721164 -2.256314 0.000000000000000e+00 1851878480
5.062403 -2.939291 -2.241672 0.000000000000000e+00 1851878480
5.406849 -1.951478 -2.250825 0.000000000000000e+00 1851878480
5.304028 -2.188536 -2.255603 0.000000000000000e+00 1851878480
5.046401 -2.635811 -2.242913 0.000000000000000e+00 1851878480
4.924338 -2.861075 -2.239643 0.000000000000000e+00 1851878480
5.294440 -1.909228 -2.259008 0.000000000000000e+00 1851878480
5.165771 -2.130626 -2.252370 0.000000000000000e+00 1851878480
4.930517 -2.576205 -2.248627 0.000000000000000e+00 1851878480
4.783479 -2.781141 -2.233420 0.000000000000000e+00 1851878480
5.126243 -1.846939 -2.240827 0.000000000000000e+00 1851878480
5.050058 -2.082052 -2.256606 0.000000000000000e+00 1851878480
4.794108 -2.505836 -2.242461 0.000000000000000e+00 1851878480
4.681859 -2.723937 -2.243016 0.000000000000000e+00 1851878480
4.967232 -1.788056 -2.223595 0.000000000000000e+00 1851878480
4.882171 -2.012008 -2.234828 0.000000000000000e+00 1851878480
4.732832 -2.474703 -2.269542 0.000000000000000e+00 1851878480
4.564757 -2.657656 -2.242965 0.000000000000000e+00 1851878480
4.918400 -1.768892 -2.253858 0.000000000000000e+00 1851878480
4.743941 -1.954235 -2.223660 0.000000000000000e+00 1851878480
4.586472 -2.399054 -2.253793 0.000000000000000e+00 1851878480
4.518665 -2.632665 -2.276243 0.000000000000000e+00 1851878480
4.773793 -1.715329 -2.238545 0.000000000000000e+00 1851878480
4.696214 -1.933769 -2.253253 0.000000000000000e+00 1851878480
4.489384 -2.349137 -2.259789 0.000000000000000e+00 1851878480
4.363433 -2.544019 -2.252495 0.000000000000000e+00 1851878480
4.691977 -1.684395 -2.250624 0.000000000000000e+00 1851878480
4.546641 -1.871392 -2.232176 0.000000000000000e+00 1851878480
4.425794 -2.316725 -2.281150 0.000000000000000e+00 1851878480
4.266177 -2.489088 -2.255969 0.000000000000000e+00 1851878480
4.593708 -1.647602 -2.253246 0.000000000000000e+00 1851878480
4.498101 -1.850631 -2.258880 0.000000000000000e+00 1851878480
4.278631 -2.240531 -2.257322 0.000000000000000e+00 1851878480
4.161716 -2.429886 -2.253545 0.000000000000000e+00 1851878480
4.473503 -1.603006 -2.243114 0.000000000000000e+00 1851878480
4.390547 -1.805610 -2.254584 0.000000000000000e+00 1851878480
4.144582 -2.171154 -2.237418 0.000000000000000e+00 1851878480
4.058897 -2.371571 -2.249830 0.000000000000000e+00 1851878480
4.378948 -1.567657 -2.243875 0.000000000000000e+00 1851878480
4.274842 -1.757268 -2.243967 0.000000000000000e+00 1851878480
4.105571 -2.151538 -2.267135 0.000000000000000e+00 1851878480
3.947583 -2.308216 -2.239120 0.000000000000000e+00 1851878480
4.336580 -1.551030 -2.270254 0.000000000000000e+00 1851878480
4.198170 -1.725003 -2.252040 0.000000000000000e+00 1851878480
3.993851 -2.093797 -2.255274 0.000000000000000e+00 1851878480
3.871007 -2.265111 -2.246145 0.000000000000000e+00 1851878480
4.227610 -1.510617 -2.260472 0.000000000000000e+00 1851878480
4.133500 -1.697686 -2.265326 0.000000000000000e+00 1851878480
3.944626 -2.068793 -2.277139 0.000000000000000e+00 1851878480
3.758843 -2.201113 -2.230518 0.000000000000000e+00 1851878480
4.117197 -1.469756 -2.247851 0.000000000000000e+00 1851878480
3.996471 -1.640683 -2.237017 0.000000000000000e+00 1851878480
3.823625 -2.006119 -2.255871 0.000000000000000e+00 1851878480
3.700835 -2.168773 -2.245255 0.000000000000000e+00 1851878480
4.066996 -1.450431 -2.266688 0.000000000000000e+00 1851878480
3.919511 -1.608372 -2.240232 0.000000000000000e+00 1851878480
3.790440 -1.989494 -2.284910 0.000000000000000e+00 1851878480
3.631865 -2.129968 -2.252127 0.000000000000000e+00 1851878480
4.046525 -1.441723 -2.301693 0.000000000000000e+00 1634890835
3.847048 -1.577927 -2.244663 0.000000000000000e+00 1851878480
3.685760 -1.935323 -2.269537 0.000000000000000e+00 1851878480
3.551164 -2.084233 -2.250193 0.000000000000000e+00 1851878480
3.917370 -1.394331 -2.273565 0.000000000000000e+00 1634890835
3.820349 -1.566265 -2.275035 0.000000000000000e+00 1851878480
3.543130 -1.861177 -2.228047 0.000000000000000e+00 1851878480
3.476749 -2.042135 -2.250623 0.000000000000000e+00 1851878480
3.857108 -1.371516 -2.283635 0.000000000000000e+00 1634890835
3.741270 -1.533142 -2.273365 0.000000000000000e+00 1851878480
3.548617 -1.864818 -2.278370 0.000000000000000e+00 1851878480
3.382770 -1.988484 -2.236565 0.000000000000000e+00 1851878480
3.757490 -1.334753 -2.268947 0.000000000000000e+00 1634890835
3.621165 -1.483239 -2.244770 0.000000000000000e+00 1851878480
3.418941 -1.797413 -2.240737 0.000000000000000e+00 1851878480
3.332325 -1.960376 -2.249784 0.000000000000000e+00 1851878480
3.717155 -1.319085 -2.288824 0.000000000000000e+00 1634890835
3.576308 -1.464182 -2.261230 0.000000000000000e+00 1851878480
3.326571 -1.749578 -2.225055 0.000000000000000e+00 1851878480
3.228119 -1.900588 -2.225035 0.000000000000000e+00 1851878480
3.670000 -1.301017 -2.303885 0.000000000000000e+00 1634890835
3.455575 -1.414082 -2.228093 0.000000000000000e+00 1851878480
3.337548 -1.756087 -2.277884 0.000000000000000e+00 1851878480
3.183729 -1.875960 -2.239915 0.000000000000000e+00 1851878480
3.546893 -1.256073 -2.269642 0.000000000000000e+00 1634890835
3.515129 -1.437767 -2.310886 0.000000000000000e+00 1634890835
3.208375 -1.688836 -2.233924 0.000000000000000e+00 1851878480
3.186865 -1.879337 -2.288156 0.000000000000000e+00 1851878480
3.498350 -1.237583 -2.281458 0.000000000000000e+00 1634890835
3.449305 -1.410162 -2.311628 0.000000000000000e+00 1634890835
3.183129 -1.676265 -2.260688 0.000000000000000e+00 1851878480
3.113072 -1.837330 -2.280660 0.000000000000000e+00 1851878480
3.423313 -1.209758 -2.274914 0.000000000000000e+00 1634890835
3.334418 -1.362529 -2.277635 0.000000000000000e+00 1634890835
3.113302 -1.640203 -2.254956 0.000000000000000e+00 1851878480
3.033825 -1.792049 -2.267453 0.000000000000000e+00 1851878480
3.404864 -1.201951 -2.305260 0.000000000000000e+00 1634890835
3.258833 -1.330988 -2.268487 0.000000000000000e+00 1634890835
3.078415 -1.622535 -2.273559 0.000000000000000e+00 1851878480
2.932822 -1.733846 -2.235841 0.000000000000000e+00 1851878480
3.319644 -1.170596 -2.289547 0.000000000000000e+00 1634890835
3.284082 -1.340631 -2.329348 0.000000000000000e+00 1634890835
3.043140 -1.604653 -2.291387 0.000000000000000e+00 1851878480
2.886198 -1.707735 -2.244004 0.000000000000000e+00 1851878480
3.245707 -1.143272 -2.280051 0.000000000000000e+00 1634890835
3.168381 -1.292748 -2.289512 0.000000000000000e+00 1634890835
2.950589 -1.556548 -2.264756 0.000000000000000e+00 1851878480
2.830144 -1.676012 -2.243815 0.000000000000000e+00 1851878480
3.169542 -1.115206 -2.267521 0.000000000000000e+00 1634890835
3.094960 -1.262146 -2.278180 0.000000000000000e+00 1634890835
2.911522 -1.536635 -2.277776 0.000000000000000e+00 1851878480
2.777510 -1.646278 -2.245212 0.000000000000000e+00 1851878480
3.115736 -1.095044 -2.269762 0.000000000000000e+00 1634890835
3.049920 -1.243138 -2.286623 0.000000000000000e+00 1634890835
2.862582 -1.511502 -2.282301 0.000000000000000e+00 1851878480
2.736538 -1.623424 -2.255130 0.000000000000000e+00 1851878480
3.089618 -1.084632 -2.291598 0.000000000000000e+00 1634890835
3.032098 -1.235226 -2.315107 0.000000000000000e+00 1634890835
2.800329 -1.479317 -2.275081 0.000000000000000e+00 1851878480
0.841228 -0.499497 -0.706645 0.000000000000000e+00 1886740808
3.021973 -1.059664 -2.281861 0.000000000000000e+00 1634890835
2.955064 -1.203207 -2.297567 0.000000000000000e+00 1634890835
2.736854 -1.446467 -2.265502 0.000000000000000e+00 1851878480
0.831672 -0.494269 -0.712049 0.000000000000000e+00 1886740808
2.952018 -1.033930 -2.269013 0.000000000000000e+00 1634890835
2.883539 -1.173457 -2.282733 0.000000000000000e+00 1634890835
0.872837 -0.461527 -0.736082 0.000000000000000e+00 1886740808
0.842385 -0.501096 -0.735012 0.000000000000000e+00 1886740808
2.916569 -1.020309 -2.281742 0.000000000000000e+00 1634890835
2.809234 -1.142596 -2.264135 0.000000000000000e+00 1634890835
0.853385 -0.451459 -0.733122 0.000000000000000e+00 1886740808
0.806218 -0.480028 -0.716836 0.000000000000000e+00 1886740808
2.865130 -1.001116 -2.281257 0.000000000000000e+00 1634890835
2.820480 -1.146539 -2.314103 0.000000000000000e+00 1634890835
0.853576 -0.451781 -0.746916 0.000000000000000e+00 1886740808
0.786333 -0.468629 -0.712393 0.000000000000000e+00 1886740808
2.823913 -0.985520 -2.288122 0.000000000000000e+00 1634890835
2.748917 -1.116827 -2.295775 0.000000000000000e+00 1634890835
0.815942 -0.432077 -0.727198 0.000000000000000e+00 1886740808
0.786944 -0.469442 -0.726386 0.000000000000000e+00 1886740808
2.791748 -0.973096 -2.301797 0.000000000000000e+00 1634890835
0.850807 -0.345469 -0.723223 0.000000000000000e+00 1886740808
0.803988 -0.425961 -0.729748 0.000000000000000e+00 1886740808
0.793909 -0.474056 -0.746574 0.000000000000000e+00 1886740808
0.837713 -0.291631 -0.702774 0.000000000000000e+00 1886740808
0.845968 -0.343308 -0.731874 0.000000000000000e+00 1886740808
0.772245 -0.409352 -0.713801 0.000000000000000e+00 1886740808
0.758062 -0.453096 -0.726197 0.000000000000000e+00 1886740808
0.839329 -0.291825 -0.716396 0.000000000000000e+00 1886740808
0.827199 -0.335496 -0.728289 0.000000000000000e+00 1886740808
0.780781 -0.414091 -0.734891 0.000000000000000e+00 1886740808
0.768039 -0.459517 -0.749471 0.000000000000000e+00 1886740808
0.845783 -0.293692 -0.734432 0.000000000000000e+00 1886740808
0.791770 -0.320937 -0.709378 0.000000000000000e+00 1886740808
0.794054 -0.421351 -0.761009 0.000000000000000e+00 1886740808
0.809087 -0.484566 -0.804200 0.000000000000000e+00 1886740808
0.799254 -0.277174 -0.706031 0.000000000000000e+00 1886740808
0.779748 -0.315876 -0.710875 0.000000000000000e+00 1886740808
0.784043 -0.416261 -0.765075 0.000000000000000e+00 1886740808
0.757483 -0.454126 -0.766865 0.000000000000000e+00 1886740808
0.810350 -0.280652 -0.728173 0.000000000000000e+00 1886740808
0.774849 -0.313700 -0.718776 0.000000000000000e+00 1886740808
0.777450 -0.412984 -0.772396 0.000000000000000e+00 1886740808
0.767829 -0.460809 -0.791713 0.000000000000000e+00 1886740808
0.743364 -0.257106 -0.679462 0.000000000000000e+00 1886740808
0.787097 -0.318463 -0.742886 0.000000000000000e+00 1886740808
0.818086 -0.434809 -0.827471 0.000000000000000e+00 1886740808
0.781658 -0.469605 -0.820846 0.000000000000000e+00 1886740808
0.818220 -0.282612 -0.760706 0.000000000000000e+00 1886740808
0.777513 -0.314388 -0.746623 0.000000000000000e+00 1886740808
0.749737 -0.398704 -0.772030 0.000000000000000e+00 1886740808
0.739809 -0.444941 -0.791211 0.000000000000000e+00 1886740808
0.746504 -0.257485 -0.705904 0.000000000000000e+00 1886740808
0.780197 -0.315273 -0.762224 0.000000000000000e+00 1886740808
0.733195 -0.390128 -0.768605 0.000000000000000e+00 1886740808
2.115171 -1.273513 -2.303755 0.000000000000000e+00 1634890835
0.767560 -0.264375 -0.738206 0.000000000000000e+00 1886740808
0.782694 -0.316077 -0.777933 0.000000000000000e+00 1886740808
0.765939 -0.407786 -0.817386 0.000000000000000e+00 1886740808
2.054965 -1.238639 -2.279316 0.000000000000000e+00 1634890835
0.780759 -0.268537 -0.763700 0.000000000000000e+00 1886740808
0.721571 -0.291202 -0.729609 0.000000000000000e+00 1886740808
2.137608 -1.138728 -2.322213 0.000000000000000e+00 1634890835
2.012092 -1.214169 -2.272752 0.000000000000000e+00 1634890835
0.760763 -0.261280 -0.756807 0.000000000000000e+00 1886740808
0.770375 -0.310690 -0.792437 0.000000000000000e+00 1886740808
2.086553 -1.112194 -2.307489 0.000000000000000e+00 1634890835
0.790406 -0.477508 -0.909192 0.000000000000000e+00 1886740808
0.775699 -0.266016 -0.784785 0.000000000000000e+00 1886740808
0.785993 -0.316775 -0.822485 0.000000000000000e+00 1886740808
2.091035 -1.115258 -2.353992 0.000000000000000e+00 1634890835
0.816752 -0.494002 -0.956744 0.000000000000000e+00 1886740808
0.774259 -0.265123 -0.796636 0.000000000000000e+00 1886740808
0.761261 -0.306595 -0.810371 0.000000000000000e+00 1886740808
2.012842 -1.074214 -2.306676 0.000000000000000e+00 1634890835
0.772860 -0.468010 -0.921953 0.000000000000000e+00 1886740808
0.770826 -0.263544 -0.806572 0.000000000000000e+00 1886740808
2.113971 -0.850794 -2.289230 0.000000000000000e+00 1634890835
0.826685 -0.441463 -0.964391 0.000000000000000e+00 1886740808
0.775087 -0.469927 -0.941598 0.000000000000000e+00 1886740808
0.718414 -0.245242 -0.764491 0.000000000000000e+00 1886740808
2.078423 -0.835890 -2.289625 0.000000000000000e+00 1634890835
0.807863 -0.431687 -0.959380 0.000000000000000e+00 1886740808
0.756886 -0.459459 -0.936398 0.000000000000000e+00 1886740808
0.743465 -0.253391 -0.804580 0.000000000000000e+00 1886740808
2.047196 -0.822732 -2.294206 0.000000000000000e+00 1634890835
0.816077 -0.436360 -0.986577 0.000000000000000e+00 1886740808
1.850581 -1.124786 -2.331644 0.000000000000000e+00 1634890835
2.063110 -0.702021 -2.270624 0.000000000000000e+00 1634890835
2.041993 -0.820032 -2.327952 0.000000000000000e+00 1634890835
0.809460 -0.433109 -0.996213 0.000000000000000e+00 1886740808
1.813352 -1.103569 -2.326874 0.000000000000000e+00 1634890835
2.032289 -0.690395 -2.274717 0.000000000000000e+00 1634890835
1.988660 -0.798010 -2.306399 0.000000000000000e+00 1634890835
0.786442 -0.421077 -0.985353 0.000000000000000e+00 1886740808
0.799518 -0.487206 -1.044891 0.000000000000000e+00 1886740808
2.021241 -0.685489 -2.300837 0.000000000000000e+00 1634890835
1.930111 -0.773919 -2.277296 0.000000000000000e+00 1634890835
0.760239 -0.407327 -0.969747 0.000000000000000e+00 1886740808
1.748814 -1.067101 -2.327854 0.000000000000000e+00 1634890835
1.955264 -0.661978 -2.263643 0.000000000000000e+00 1634890835
0.812296 -0.325452 -0.975049 0.000000000000000e+00 1886740808
1.783512 -0.956257 -2.316245 0.000000000000000e+00 1634890835
1.709598 -1.044589 -2.317907 0.000000000000000e+00 1634890835
1.925324 -0.650703 -2.267003 0.000000000000000e+00 1634890835
0.807084 -0.323104 -0.985641 0.000000000000000e+00 1886740808
0.765022 -0.410472 -1.011583 0.000000000000000e+00 1886740808
1.673303 -1.023829 -2.310944 0.000000000000000e+00 1634890835
1.906446 -0.643175 -2.283139 0.000000000000000e+00 1634890835
0.797250 -0.318907 -0.990600 0.000000000000000e+00 1886740808
1.737785 -0.933086 -2.339728 0.000000000000000e+00 1634890835
1.638018 -1.003656 -2.304475 0.000000000000000e+00 1634890835
0.803497 -0.270582 -0.978739 0.000000000000000e+00 1886740808
0.776327 -0.310278 -0.981455 0.000000000000000e+00 1886740808
1.702073 -0.914594 -2.333533 0.000000000000000e+00 1634890835
1.628047 -0.998987 -2.333391 0.000000000000000e+00 1634890835
0.811799 -0.272869 -1.005827 0.000000000000000e+00 1886740808
0.760932 -0.303866 -0.978847 0.000000000000000e+00 1886740808
1.658146 -0.891668 -2.315005 0.000000000000000e+00 1634890835
1.558850 -0.957939 -2.276269 0.000000000000000e+00 1634890835
0.791526 -0.265550 -0.997591 0.000000000000000e+00 1886740808
0.787085 -0.314037 -1.030283 0.000000000000000e+00 1886740808
1.635281 -0.880058 -2.325119 0.000000000000000e+00 1634890835
1.545260 -0.951018 -2.299078 0.000000000000000e+00 1634890835
0.769797 -0.257759 -0.986957 0.000000000000000e+00 1886740808
1.715826 -0.683983 -2.285593 0.000000000000000e+00 1634890835
1.587202 -0.854861 -2.298482 0.000000000000000e+00 1634890835
1.526766 -0.941084 -2.314701 0.000000000000000e+00 1634890835
0.762316 -0.254748 -0.994296 0.000000000000000e+00 1886740808
1.692633 -0.674125 -2.294599 0.000000000000000e+00 1634890835
1.565805 -0.844022 -2.309607 0.000000000000000e+00 1634890835
1.493821 -0.922228 -2.307976 0.000000000000000e+00 1634890835
0.764822 -0.255067 -1.014910 0.000000000000000e+00 1886740808
0.769749 -0.306283 -1.062042 0.000000000000000e+00 1886740808
1.514512 -0.817052 -2.275639 0.000000000000000e+00 1634890835
1.466292 -0.906691 -2.308910 0.000000000000000e+00 1634890835
1.712370 -0.569887 -2.311957 0.000000000000000e+00 1634890835
1.645966 -0.654307 -2.311507 0.000000000000000e+00 1634890835
1.515916 -0.818505 -2.320477 0.000000000000000e+00 1634890835
1.441909 -0.893085 -2.314328 0.000000000000000e+00 1634890835
0.742307 -0.246519 -1.019794 0.000000000000000e+00 1886740808
1.582830 -0.628597 -2.262691 0.000000000000000e+00 1634890835
1.498383 -0.809745 -2.336903 0.000000000000000e+00 1634890835
1.413253 -0.876816 -2.312369 0.000000000000000e+00 1634890835
1.645985 -0.545440 -2.301099 0.000000000000000e+00 1634890835
1.590968 -0.631199 -2.315299 0.000000000000000e+00 1634890835
1.438833 -0.778255 -2.286602 0.000000000000000e+00 1634890835
1.397599 -0.868604 -2.331431 0.000000000000000e+00 1634890835
1.602885 -0.529974 -2.280496 0.000000000000000e+00 1634890835
1.542965 -0.611531 -2.286111 0.000000000000000e+00 1634890835
1.447896 -0.783873 -2.344936 0.000000000000000e+00 1634890835
1.356169 -0.844350 -2.306819 0.000000000000000e+00 1634890835
1.594410 -0.525968 -2.308786 0.000000000000000e+00 1634890835
1.544599 -0.611538 -2.330214 0.000000000000000e+00 1634890835
1.384308 -0.750149 -2.285038 0.000000000000000e+00 1634890835
1.324327 -0.826025 -2.297286 0.000000000000000e+00 1634890835
1.558850 -0.513030 -2.297661 0.000000000000000e+00 1634890835
1.498708 -0.592732 -2.302405 0.000000000000000e+00 1634890835
1.378483 -0.747710 -2.319456 0.000000000000000e+00 1634890835
1.281856 -0.801025 -2.267997 0.000000000000000e+00 1634890835
1.511789 -0.496345 -2.268378 0.000000000000000e+00 1634890835
1.475951 -0.583089 -2.309248 0.000000000000000e+00 1634890835
1.354431 -0.735387 -2.323411 0.000000000000000e+00 1634890835
1.287516 -0.806102 -2.323843 0.000000000000000e+00 1634890835
1.507466 -0.493702 -2.302828 0.000000000000000e+00 1634890835
1.436986 -0.567055 -2.290010 0.000000000000000e+00 1634890835
1.345971 -0.731532 -2.354254 0.000000000000000e+00 1634890835
1.258629 -0.789566 -2.317790 0.000000000000000e+00 1634890835
1.461593 -0.477465 -2.273427 0.000000000000000e+00 1634890835
1.445333 -0.569689 -2.346358 0.000000000000000e+00 1634890835
1.296715 -0.705494 -2.313014 0.000000000000000e+00 1634890835
1.217912 -0.765567 -2.288709 0.000000000000000e+00 1634890835
1.433804 -0.467166 -2.271105 0.000000000000000e+00 1634890835
1.399909 -0.551128 -2.315399 0.000000000000000e+00 1634890835
1.310811 -0.713923 -2.384852 0.000000000000000e+00 1634890835
1.192345 -0.751049 -2.286934 0.000000000000000e+00 1634890835
1.425213 -0.463122 -2.299200 0.000000000000000e+00 1634890835
1.352310 -0.531737 -2.279102 0.000000000000000e+00 1634890835
1.235312 -0.673540 -2.292775 0.000000000000000e+00 1634890835
1.169102 -0.737980 -2.289106 0.000000000000000e+00 1634890835
1.407503 -0.456107 -2.312891 0.000000000000000e+00 1634890835
1.339201 -0.525920 -2.300169 0.000000000000000e+00 1634890835
1.241606 -0.677737 -2.351318 0.000000000000000e+00 1634890835
1.132487 -0.716439 -2.264108 0.000000000000000e+00 1634890835
1.390998 -0.449479 -2.328644 0.000000000000000e+00 1634890835
1.297536 -0.508897 -2.271582 0.000000000000000e+00 1634890835
1.202579 -0.657194 -2.324168 0.000000000000000e+00 1634890835
1.126259 -0.714109 -2.299566 0.000000000000000e+00 1634890835
1.356945 -0.437193 -2.314599 0.000000000000000e+00 1634890835
1.265249 -0.495573 -2.258150 0.000000000000000e+00 1634890835
1.179327 -0.645259 -2.326501 0.000000000000000e+00 1634890835
1.100528 -0.699419 -2.295361 0.000000000000000e+00 1634890835
1.346125 -0.432400 -2.339942 0.000000000000000e+00 1634890835
1.248486 -0.488335 -2.271976 0.000000000000000e+00 1634890835
1.157342 -0.634009 -2.330980 0.000000000000000e+00 1634890835
1.092917 -0.696250 -2.329071 0.000000000000000e+00 1634890835
1.288227 -0.412517 -2.282396 0.000000000000000e+00 1634890835
1.243843 -0.485831 -2.308389 0.000000000000000e+00 1634890835
1.126052 -0.617651 -2.316013 0.000000000000000e+00 1634890835
1.042464 -0.665753 -2.270447 0.000000000000000e+00 1634890835
1.274492 -0.406810 -2.301926 0.000000000000000e+00 1634890835
1.227063 -0.478577 -2.322832 0.000000000000000e+00 1634890835
1.104754 -0.606762 -2.320899 0.000000000000000e+00 1634890835
1.033063 -0.661435 -2.300099 0.000000000000000e+00 1634890835
1.231645 -0.391833 -2.268173 0.000000000000000e+00 1634890835
1.206881 -0.469997 -2.330836 0.000000000000000e+00 1634890835
1.087022 -0.597831 -2.333168 0.000000000000000e+00 1634890835
1.016974 -0.652853 -2.315368 0.000000000000000e+00 1634890835
1.231930 -0.390583 -2.313646 0.000000000000000e+00 1634890835
1.162796 -0.452125 -2.291603 0.000000000000000e+00 1634890835
1.047940 -0.577142 -2.298656 0.000000000000000e+00 1634890835
0.982707 -0.632575 -2.288500 0.000000000000000e+00 1634890835
1.215633 -0.384052 -2.328750 0.000000000000000e+00 1634890835
1.153702 -0.447868 -2.320684 0.000000000000000e+00 1634890835
1.025954 -0.565848 -2.300463 0.000000000000000e+00 1634890835
0.962989 -0.621633 -2.294563 0.000000000000000e+00 1634890835
1.173928 -0.369519 -2.294377 0.000000000000000e+00 1634890835
1.116723 -0.432792 -2.293278 0.000000000000000e+00 1634890835
1.037158 -0.572882 -2.377981 0.000000000000000e+00 1634890835
0.932099 -0.603449 -2.273172 0.000000000000000e+00 1634890835
1.128766 -0.353957 -2.251270 0.000000000000000e+00 1634890835
1.100806 -0.425888 -2.308438 0.000000000000000e+00 1634890835
0.986481 -0.545732 -2.313447 0.000000000000000e+00 1634890835
0.936873 -0.608373 -2.339326 0.000000000000000e+00 1634890835
1.108156 -0.346130 -2.255941 0.000000000000000e+00 1634890835
1.054269 -0.407157 -2.258228 0.000000000000000e+00 1634890835
0.969366 -0.537122 -2.325975 0.000000000000000e+00 1634890835
0.907644 -0.591241 -2.321246 0.000000000000000e+00 1634890835
1.093729 -0.340231 -2.273250 0.000000000000000e+00 1634890835
1.019422 -0.392972 -2.230994 0.000000000000000e+00 1634890835
0.946581 -0.525367 -2.324708 0.000000000000000e+00 1634890835
0.885279 -0.578548 -2.319779 0.000000000000000e+00 1634890835
1.063288 -0.329364 -2.256899 0.000000000000000e+00 1634890835
1.039762 -0.400044 -2.325574 0.000000000000000e+00 1634890835
0.932592 -0.518495 -2.345035 0.000000000000000e+00 1634890835
0.864748 -0.567038 -2.322679 0.000000000000000e+00 1634890835
1.058858 -0.326551 -2.295838 0.000000000000000e+00 1634890835
1.018095 -0.390929 -2.327915 0.000000000000000e+00 1634890835
0.909269 -0.506432 -2.341847 0.000000000000000e+00 1634890835
0.829741 -0.545993 -2.285377 0.000000000000000e+00 1634890835
1.029054 -0.315909 -2.279860 0.000000000000000e+00 1634890835
0.992622 -0.380359 -2.321040 0.000000000000000e+00 1634890835
0.880980 -0.491587 -2.324938 0.000000000000000e+00 1634890835
0.450929 -0.297807 -1.274183 0.000000000000000e+00 1936876886
1.007761 -0.307901 -2.282047 0.000000000000000e+00 1634890835
0.975617 -0.373039 -2.333684 0.000000000000000e+00 1634890835
0.872041 -0.487541 -2.359074 0.000000000000000e+00 1634890835
0.453054 -0.300348 -1.313969 0.000000000000000e+00 1936876886
0.987944 -0.300351 -2.287356 0.000000000000000e+00 1634890835
0.947780 -0.361584 -2.319990 0.000000000000000e+00 1634890835
0.845378 -0.473586 -2.345330 0.000000000000000e+00 1634890835
0.431569 -0.287238 -1.285321 0.000000000000000e+00 1936876886
0.954622 -0.288720 -2.260533 0.000000000000000e+00 1634890835
0.929566 -0.353807 -2.329346 0.000000000000000e+00 1634890835
0.453183 -0.254409 -1.289957 0.000000000000000e+00 1936876886
0.352648 -0.235680 -1.079085 0.000000000000000e+00 1953264973
0.943189 -0.283724 -2.285114 0.000000000000000e+00 1634890835
0.892945 -0.339041 -2.291505 0.000000000000000e+00 1634890835
0.421817 -0.237319 -1.232492 0.000000000000000e+00 1936876886
0.318130 -0.213529 -1.000716 0.000000000000000e+00 1953264973
0.509533 -0.152409 -1.263482 0.000000000000000e+00 1936876886
0.884766 -0.335082 -2.326180 0.000000000000000e+00 1634890835
0.364325 -0.205443 -1.093278 0.000000000000000e+00 1953264973
0.292321 -0.197091 -0.945828 0.000000000000000e+00 1953264973
0.497855 -0.148037 -1.264022 0.000000000000000e+00 1936876886
0.844143 -0.318847 -2.274759 0.000000000000000e+00 1634890835
0.349940 -0.197803 -1.079075 0.000000000000000e+00 1953264973
0.267118 -0.180949 -0.889550 0.000000000000000e+00 1953264973
0.482471 -0.142576 -1.254742 0.000000000000000e+00 1936876886
0.844741 -0.318186 -2.334230 0.000000000000000e+00 1634890835
0.299604 -0.169775 -0.949886 0.000000000000000e+00 1953264973
0.236536 -0.161026 -0.811271 0.000000000000000e+00 1953264973
