# .PCD v0.7 - Point Cloud Data file format
VERSION 0.7
FIELDS x y z rgb label
SIZE 4 4 4 4 4
TYPE F F F F U
COUNT 1 1 1 1 1
WIDTH 530
HEIGHT 1
VIEWPOINT 0 0 0 1 0 0 0
POINTS 530
DATA ascii
33.924988 -18.873394 10.360771 0.000000000000000e+00 1954047316
30.779995 -11.434845 -2.235207 0.000000000000000e+00 1851878480
31.927370 -13.350409 -2.245261 0.000000000000000e+00 1851878480
26.960468 -10.008271 -2.202984 0.000000000000000e+00 1851878480
26.537977 -11.092933 -2.114939 0.000000000000000e+00 1851878480
25.961187 -13.405457 -1.922412 0.000000000000000e+00 1851878480
25.330891 -14.398956 -1.781494 0.000000000000000e+00 1851878480
24.237957 -8.990783 -2.201151 0.000000000000000e+00 1851878480
24.364950 -10.181026 -2.170344 0.000000000000000e+00 1851878480
23.581493 -12.180431 -1.982161 0.000000000000000e+00 1851878480
22.959066 -13.058457 -1.852463 0.000000000000000e+00 1851878480
22.116938 -8.197766 -2.210089 0.000000000000000e+00 1851878480
22.197819 -9.272225 -2.185817 0.000000000000000e+00 1851878480
21.703037 -11.213654 -2.041754 0.000000000000000e+00 1851878480
21.328373 -12.138144 -1.942129 0.000000000000000e+00 1851878480
20.370384 -7.544642 -2.221444 0.000000000000000e+00 1851878480
20.430658 -8.531054 -2.203991 0.000000000000000e+00 1851878480
20.412445 -10.550091 -2.125225 0.000000000000000e+00 1851878480
19.935993 -11.352465 -2.022499 0.000000000000000e+00 1851878480
18.880205 -6.987377 -2.231483 0.000000000000000e+00 1851878480
18.883003 -7.882034 -2.214945 0.000000000000000e+00 1851878480
19.132479 -9.891631 -2.184349 0.000000000000000e+00 1851878480
18.897041 -10.767221 -2.113843 0.000000000000000e+00 1851878480
17.603638 -6.509940 -2.241745 0.000000000000000e+00 1851878480
17.599266 -7.343586 -2.230466 0.000000000000000e+00 1851878480
17.768942 -9.189538 -2.207700 0.000000000000000e+00 1851878480
17.879990 -10.193789 -2.186618 0.000000000000000e+00 1851878480
16.360558 -6.045600 -2.233477 0.000000000000000e+00 1851878480
16.454554 -6.863511 -2.240983 0.000000000000000e+00 1851878480
16.557537 -8.565718 -2.224365 0.000000000000000e+00 1851878480
16.691263 -9.521747 -2.215782 0.000000000000000e+00 1851878480
15.407802 -5.689163 -2.244977 0.000000000000000e+00 1851878480
15.420449 -6.429876 -2.246253 0.000000000000000e+00 1851878480
15.501534 -8.021925 -2.239366 0.000000000000000e+00 1851878480
15.591147 -8.899488 -2.233162 0.000000000000000e+00 1851878480
14.488453 -5.345573 -2.244418 0.000000000000000e+00 1851878480
14.418064 -6.009773 -2.237146 0.000000000000000e+00 1851878480
14.513141 -7.512799 -2.243801 0.000000000000000e+00 1851878480
14.520841 -8.293519 -2.232456 0.000000000000000e+00 1851878480
13.650411 -5.032487 -2.240556 0.000000000000000e+00 1851878480
13.634139 -5.680994 -2.245277 0.000000000000000e+00 1851878480
13.650694 -7.068579 -2.249293 0.000000000000000e+00 1851878480
13.595187 -7.769500 -2.233404 0.000000000000000e+00 1851878480
12.961615 -4.774847 -2.247387 0.000000000000000e+00 1851878480
12.862896 -5.357717 -2.241000 0.000000000000000e+00 1851878480
12.886266 -6.674850 -2.254752 0.000000000000000e+00 1851878480
12.847295 -7.346510 -2.246313 0.000000000000000e+00 1851878480
12.283978 -4.521698 -2.243803 0.000000000000000e+00 1851878480
12.214395 -5.085783 -2.244872 0.000000000000000e+00 1851878480
12.130075 -6.285148 -2.246507 0.000000000000000e+00 1851878480
12.097949 -6.922195 -2.243540 0.000000000000000e+00 1851878480
11.679535 -4.295854 -2.241988 0.000000000000000e+00 1851878480
11.572464 -4.816764 -2.237911 0.000000000000000e+00 1851878480
11.505912 -5.963633 -2.248952 0.000000000000000e+00 1851878480
11.425453 -6.541361 -2.240334 0.000000000000000e+00 1851878480
11.181459 -4.109438 -2.250634 0.000000000000000e+00 1851878480
11.097726 -4.617495 -2.252885 0.000000000000000e+00 1851878480
10.910420 -5.656780 -2.244851 0.000000000000000e+00 1851878480
10.822737 -6.200058 -2.237640 0.000000000000000e+00 1851878480
10.644347 -3.908968 -2.242065 0.000000000000000e+00 1851878480
10.542862 -4.385043 -2.242000 0.000000000000000e+00 1851878480
10.384193 -5.385664 -2.243819 0.000000000000000e+00 1851878480
10.311784 -5.910950 -2.242425 0.000000000000000e+00 1851878480
10.192726 -3.740172 -2.242559 0.000000000000000e+00 1851878480
10.119274 -4.207333 -2.249909 0.000000000000000e+00 1851878480
9.934054 -5.153862 -2.249512 0.000000000000000e+00 1851878480
9.843731 -5.646107 -2.246452 0.000000000000000e+00 1851878480
9.771617 -3.582814 -2.241878 0.000000000000000e+00 1851878480
9.710115 -4.035746 -2.253281 0.000000000000000e+00 1851878480
9.430466 -4.894170 -2.233578 0.000000000000000e+00 1851878480
9.401170 -5.395579 -2.246898 0.000000000000000e+00 1851878480
9.378181 -3.435833 -2.240182 0.000000000000000e+00 1851878480
9.228336 -3.834105 -2.231465 0.000000000000000e+00 1851878480
9.074222 -4.710810 -2.243964 0.000000000000000e+00 1851878480
8.954476 -5.142381 -2.237154 0.000000000000000e+00 1851878480
9.044987 -3.311122 -2.246320 0.000000000000000e+00 1851878480
8.898113 -3.695548 -2.238701 0.000000000000000e+00 1851878480
8.705006 -4.520599 -2.243933 0.000000000000000e+00 1851878480
8.617931 -4.952172 -2.246837 0.000000000000000e+00 1851878480
8.704136 -3.183804 -2.244478 0.000000000000000e+00 1851878480
8.598292 -3.569712 -2.247747 0.000000000000000e+00 1851878480
8.377022 -4.351691 -2.247591 0.000000000000000e+00 1851878480
8.270788 -4.755648 -2.246715 0.000000000000000e+00 1851878480
8.357578 -3.054587 -2.234933 0.000000000000000e+00 1851878480
8.303901 -3.446214 -2.252704 0.000000000000000e+00 1851878480
8.027252 -4.171359 -2.238637 0.000000000000000e+00 1851878480
7.930901 -4.563067 -2.241453 0.000000000000000e+00 1851878480
8.095767 -2.956511 -2.242556 0.000000000000000e+00 1851878480
8.030096 -3.331345 -2.257976 0.000000000000000e+00 1851878480
7.792153 -4.050516 -2.255852 0.000000000000000e+00 1851878480
7.620539 -4.387249 -2.237794 0.000000000000000e+00 1851878480
7.848568 -2.863910 -2.249659 0.000000000000000e+00 1851878480
7.726515 -3.204206 -2.249486 0.000000000000000e+00 1851878480
7.470147 -3.884415 -2.242363 0.000000000000000e+00 1851878480
7.362155 -4.241166 -2.243522 0.000000000000000e+00 1851878480
7.547398 -2.751775 -2.236330 0.000000000000000e+00 1851878480
7.479294 -3.100518 -2.252260 0.000000000000000e+00 1851878480
7.215397 -3.753192 -2.243280 0.000000000000000e+00 1851878480
7.089065 -4.086436 -2.239277 0.000000000000000e+00 1851878480
7.348864 -2.677198 -2.248899 0.000000000000000e+00 1851878480
7.222356 -2.992879 -2.247408 0.000000000000000e+00 1851878480
7.014172 -3.649736 -2.256328 0.000000000000000e+00 1851878480
6.888576 -3.973390 -2.253092 0.000000000000000e+00 1851878480
7.100962 -2.584765 -2.242350 0.000000000000000e+00 1851878480
6.973418 -2.888626 -2.240306 0.000000000000000e+00 1851878480
6.790116 -3.534335 -2.257830 0.000000000000000e+00 1851878480
6.615857 -3.818527 -2.238388 0.000000000000000e+00 1851878480
6.890215 -2.505979 -2.243379 0.000000000000000e+00 1851878480
6.775196 -2.805445 -2.245325 0.000000000000000e+00 1851878480
6.551871 -3.411473 -2.249985 0.000000000000000e+00 1851878480
6.382200 -3.686038 -2.231598 0.000000000000000e+00 1851878480
6.668094 -2.423178 -2.236786 0.000000000000000e+00 1851878480
6.531234 -2.703392 -2.231045 0.000000000000000e+00 1851878480
6.328301 -3.296183 -2.242533 0.000000000000000e+00 1851878480
6.231743 -3.601469 -2.249959 0.000000000000000e+00 1851878480
6.520613 -2.367605 -2.251918 0.000000000000000e+00 1851878480
6.401967 -2.648865 -2.252487 0.000000000000000e+00 1851878480
6.149649 -3.204218 -2.246977 0.000000000000000e+00 1851878480
6.001959 -3.470932 -2.235756 0.000000000000000e+00 1851878480
6.317407 -2.291897 -2.244665 0.000000000000000e+00 1851878480
6.201470 -2.564917 -2.245838 0.000000000000000e+00 1851878480
6.006205 -3.130551 -2.261127 0.000000000000000e+00 1851878480
5.819110 -3.367393 -2.234719 0.000000000000000e+00 1851878480
6.174449 -2.238140 -2.255708 0.000000000000000e+00 1851878480
6.060325 -2.505560 -2.257517 0.000000000000000e+00 1851878480
5.803004 -3.025679 -2.249332 0.000000000000000e+00 1851878480
5.663349 -3.279417 -2.240594 0.000000000000000e+00 1851878480
5.989585 -2.169284 -2.248495 0.000000000000000e+00 1851878480
5.850768 -2.417976 -2.240430 0.000000000000000e+00 1851878480
5.606406 -2.924187 -2.236027 0.000000000000000e+00 1851878480
5.549750 -3.215764 -2.260442 0.000000000000000e+00 1851878480
5.809049 -2.102101 -2.239567 0.000000000000000e+00 1851878480
5.728578 -2.366545 -2.253699 0.000000000000000e+00 1851878480
5.520041 -2.880144 -2.263911 0.000000000000000e+00 1851878480
5.411094 -3.137514 -2.267562 0.000000000000000e+00 1851878480
5.657528 -2.045507 -2.238803 0.000000000000000e+00 1851878480
5.571006 -2.300537 -2.250475 0.000000000000000e+00 1851878480
5.359088 -2.797148 -2.258812 0.000000000000000e+00 1851878480
5.248537 -3.045301 -2.261549 0.000000000000000e+00 1851878480
5.549887 -2.004851 -2.253109 0.000000000000000e+00 1851878480
5.381172 -2.221257 -2.230912 0.000000000000000e+00 1851878480
5.210436 -2.720520 -2.255780 0.000000000000000e+00 1851878480
5.078474 -2.948622 -2.248788 0.000000000000000e+00 1851878480
5.386945 -1.944294 -2.242539 0.000000000000000e+00 1851878480
5.265795 -2.172761 -2.239344 0.000000000000000e+00 1851878480
5.056836 -2.641261 -2.247551 0.000000000000000e+00 1851878480
4.926002 -2.862042 -2.240400 0.000000000000000e+00 1851878480
5.264847 -1.898556 -2.246382 0.000000000000000e+00 1851878480
5.149232 -2.123805 -2.245159 0.000000000000000e+00 1851878480
4.946621 -2.584620 -2.255972 0.000000000000000e+00 1851878480
4.788735 -2.784197 -2.235875 0.000000000000000e+00 1851878480
5.143827 -1.853275 -2.248514 0.000000000000000e+00 1851878480
5.049982 -2.082021 -2.256572 0.000000000000000e+00 1851878480
4.871194 -2.546129 -2.278518 0.000000000000000e+00 1851878480
4.695270 -2.731739 -2.249441 0.000000000000000e+00 1851878480
5.025847 -1.809156 -2.249834 0.000000000000000e+00 1851878480
4.938201 -2.035100 -2.260477 0.000000000000000e+00 1851878480
4.751921 -2.484685 -2.278695 0.000000000000000e+00 1851878480
4.624926 -2.692687 -2.272529 0.000000000000000e+00 1851878480
4.977128 -1.790013 -2.280770 0.000000000000000e+00 1851878480
4.770565 -1.965203 -2.236140 0.000000000000000e+00 1851878480
4.638069 -2.426043 -2.279148 0.000000000000000e+00 1851878480
4.469392 -2.603957 -2.251422 0.000000000000000e+00 1851878480
4.806256 -1.726994 -2.253767 0.000000000000000e+00 1851878480
4.673902 -1.924581 -2.242548 0.000000000000000e+00 1851878480
4.463973 -2.335840 -2.246998 0.000000000000000e+00 1851878480
4.343449 -2.532368 -2.242179 0.000000000000000e+00 1851878480
4.702970 -1.688342 -2.255898 0.000000000000000e+00 1851878480
4.573754 -1.882552 -2.245487 0.000000000000000e+00 1851878480
4.392633 -2.299366 -2.264059 0.000000000000000e+00 1851878480
4.283948 -2.499457 -2.265367 0.000000000000000e+00 1851878480
4.556025 -1.634086 -2.234762 0.000000000000000e+00 1851878480
4.486137 -1.845708 -2.252872 0.000000000000000e+00 1851878480
4.261665 -2.231647 -2.248371 0.000000000000000e+00 1851878480
4.138988 -2.416616 -2.241237 0.000000000000000e+00 1851878480
4.476958 -1.604244 -2.244846 0.000000000000000e+00 1851878480
4.423108 -1.819000 -2.271304 0.000000000000000e+00 1851878480
4.207267 -2.203992 -2.271259 0.000000000000000e+00 1851878480
4.038950 -2.359916 -2.238774 0.000000000000000e+00 1851878480
4.382218 -1.568828 -2.245551 0.000000000000000e+00 1851878480
4.339897 -1.784011 -2.278116 0.000000000000000e+00 1851878480
4.092874 -2.144884 -2.260124 0.000000000000000e+00 1851878480
3.919042 -2.291527 -2.222931 0.000000000000000e+00 1851878480
4.297097 -1.536909 -2.249584 0.000000000000000e+00 1851878480
4.187021 -1.720422 -2.246059 0.000000000000000e+00 1851878480
3.967086 -2.079766 -2.240160 0.000000000000000e+00 1851878480
3.900500 -2.282368 -2.263258 0.000000000000000e+00 1851878480
4.166860 -1.488910 -2.227989 0.000000000000000e+00 1851878480
4.075592 -1.673903 -2.233590 0.000000000000000e+00 1851878480
3.924521 -2.058249 -2.265533 0.000000000000000e+00 1851878480
3.797133 -2.223535 -2.253239 0.000000000000000e+00 1851878480
4.109093 -1.466863 -2.243427 0.000000000000000e+00 1851878480
3.982620 -1.634997 -2.229264 0.000000000000000e+00 1851878480
3.823794 -2.006208 -2.255971 0.000000000000000e+00 1851878480
3.744787 -2.194530 -2.271920 0.000000000000000e+00 1851878480
4.086624 -1.457431 -2.277627 0.000000000000000e+00 1634890835
3.937965 -1.615945 -2.250780 0.000000000000000e+00 1851878480
3.719926 -1.952483 -2.242403 0.000000000000000e+00 1851878480
3.674682 -2.155079 -2.278678 0.000000000000000e+00 1851878480
4.032365 -1.436678 -2.293639 0.000000000000000e+00 1634890835
3.886432 -1.594081 -2.267642 0.000000000000000e+00 1851878480
3.674469 -1.929394 -2.262584 0.000000000000000e+00 1851878480
3.511447 -2.060922 -2.225026 0.000000000000000e+00 1851878480
3.968973 -1.412698 -2.303514 0.000000000000000e+00 1634890835
3.750067 -1.537451 -2.233181 0.000000000000000e+00 1851878480
3.588093 -1.884796 -2.256321 0.000000000000000e+00 1851878480
3.490778 -2.050375 -2.259705 0.000000000000000e+00 1851878480
3.856301 -1.371229 -2.283157 0.000000000000000e+00 1634890835
3.740568 -1.532854 -2.272938 0.000000000000000e+00 1851878480
3.518888 -1.849196 -2.259283 0.000000000000000e+00 1851878480
3.418766 -2.009644 -2.260365 0.000000000000000e+00 1851878480
3.778333 -1.342157 -2.281533 0.000000000000000e+00 1634890835
3.649998 -1.495049 -2.262644 0.000000000000000e+00 1851878480
3.455431 -1.816596 -2.264652 0.000000000000000e+00 1851878480
3.285472 -1.932813 -2.218152 0.000000000000000e+00 1851878480
3.694601 -1.311081 -2.274936 0.000000000000000e+00 1634890835
3.359684 -1.766994 -2.247203 0.000000000000000e+00 1851878480
3.258606 -1.918538 -2.246049 0.000000000000000e+00 1851878480
3.665158 -1.299301 -2.300846 0.000000000000000e+00 1634890835
3.618216 -1.480637 -2.332961 0.000000000000000e+00 1634890835
3.299292 -1.735958 -2.251773 0.000000000000000e+00 1851878480
3.204094 -1.887960 -2.254242 0.000000000000000e+00 1851878480
3.615781 -1.280468 -2.313723 0.000000000000000e+00 1634890835
3.498743 -1.431065 -2.300113 0.000000000000000e+00 1634890835
3.238517 -1.704703 -2.254912 0.000000000000000e+00 1851878480
3.145695 -1.855058 -2.258597 0.000000000000000e+00 1851878480
3.473514 -1.228797 -2.265262 0.000000000000000e+00 1634890835
3.442321 -1.407307 -2.306947 0.000000000000000e+00 1634890835
3.175249 -1.672115 -2.255091 0.000000000000000e+00 1851878480
3.071815 -1.812981 -2.250435 0.000000000000000e+00 1851878480
3.436050 -1.214259 -2.283378 0.000000000000000e+00 1634890835
3.343134 -1.366091 -2.283588 0.000000000000000e+00 1634890835
3.145904 -1.657379 -2.278570 0.000000000000000e+00 1851878480
3.021034 -1.784494 -2.257894 0.000000000000000e+00 1851878480
3.420570 -1.207495 -2.315894 0.000000000000000e+00 1634890835
3.295816 -1.346093 -2.294231 0.000000000000000e+00 1634890835
3.074237 -1.620333 -2.270473 0.000000000000000e+00 1851878480
2.958632 -1.749105 -2.255517 0.000000000000000e+00 1851878480
3.339994 -1.177772 -2.303582 0.000000000000000e+00 1634890835
3.236213 -1.321090 -2.295395 0.000000000000000e+00 1634890835
3.020447 -1.592687 -2.274300 0.000000000000000e+00 1851878480
2.883376 -1.706066 -2.241811 0.000000000000000e+00 1851878480
3.246644 -1.143602 -2.280709 0.000000000000000e+00 1634890835
3.144124 -1.282850 -2.271983 0.000000000000000e+00 1634890835
2.961956 -1.562545 -2.273480 0.000000000000000e+00 1851878480
2.844950 -1.684780 -2.255554 0.000000000000000e+00 1851878480
3.159962 -1.111835 -2.260668 0.000000000000000e+00 1634890835
3.106920 -1.267024 -2.286984 0.000000000000000e+00 1634890835
2.908853 -1.535226 -2.275688 0.000000000000000e+00 1851878480
2.753968 -1.632324 -2.226182 0.000000000000000e+00 1851878480
3.147565 -1.106230 -2.292949 0.000000000000000e+00 1634890835
3.081586 -1.256045 -2.310364 0.000000000000000e+00 1634890835
2.815157 -1.486460 -2.244489 0.000000000000000e+00 1851878480
2.727363 -1.617981 -2.247569 0.000000000000000e+00 1851878480
3.080925 -1.081580 -2.285149 0.000000000000000e+00 1634890835
3.008529 -1.225625 -2.297112 0.000000000000000e+00 1634890835
2.781472 -1.469355 -2.259760 0.000000000000000e+00 1851878480
0.859564 -0.510384 -0.722049 0.000000000000000e+00 1886740808
3.024029 -1.060385 -2.283414 0.000000000000000e+00 1634890835
2.960660 -1.205486 -2.301919 0.000000000000000e+00 1634890835
2.767014 -1.462407 -2.290468 0.000000000000000e+00 1634890835
0.841094 -0.499869 -0.720116 0.000000000000000e+00 1886740808
2.984740 -1.045391 -2.294164 0.000000000000000e+00 1634890835
2.959809 -1.204495 -2.343112 0.000000000000000e+00 1634890835
0.870324 -0.460198 -0.733962 0.000000000000000e+00 1886740808
0.807270 -0.480208 -0.704373 0.000000000000000e+00 1886740808
2.910125 -1.018055 -2.276700 0.000000000000000e+00 1634890835
2.840754 -1.155416 -2.289539 0.000000000000000e+00 1634890835
0.835152 -0.441814 -0.717458 0.000000000000000e+00 1886740808
0.804027 -0.478723 -0.714888 0.000000000000000e+00 1886740808
2.921311 -1.020746 -2.325989 0.000000000000000e+00 1634890835
2.792839 -1.135303 -2.291424 0.000000000000000e+00 1634890835
0.824143 -0.436203 -0.721161 0.000000000000000e+00 1886740808
0.788456 -0.469895 -0.714317 0.000000000000000e+00 1886740808
2.781248 -0.970630 -2.253552 0.000000000000000e+00 1634890835
2.777262 -1.128343 -2.319447 0.000000000000000e+00 1634890835
0.844360 -0.447126 -0.752525 0.000000000000000e+00 1886740808
0.779484 -0.464992 -0.719500 0.000000000000000e+00 1886740808
2.772969 -0.966551 -2.286314 0.000000000000000e+00 1634890835
0.855249 -0.347273 -0.726999 0.000000000000000e+00 1886740808
0.830987 -0.440265 -0.754253 0.000000000000000e+00 1886740808
0.759384 -0.453441 -0.714107 0.000000000000000e+00 1886740808
0.871327 -0.303333 -0.730975 0.000000000000000e+00 1886740808
0.856134 -0.347433 -0.740669 0.000000000000000e+00 1886740808
0.813674 -0.431313 -0.752095 0.000000000000000e+00 1886740808
0.740634 -0.442679 -0.709502 0.000000000000000e+00 1886740808
0.807773 -0.280853 -0.689462 0.000000000000000e+00 1886740808
0.818309 -0.331890 -0.720463 0.000000000000000e+00 1886740808
0.764935 -0.405687 -0.719977 0.000000000000000e+00 1886740808
0.746519 -0.446642 -0.728472 0.000000000000000e+00 1886740808
0.812895 -0.282272 -0.705874 0.000000000000000e+00 1886740808
0.799139 -0.323924 -0.715979 0.000000000000000e+00 1886740808
0.796959 -0.422893 -0.763793 0.000000000000000e+00 1886740808
0.780651 -0.467535 -0.775936 0.000000000000000e+00 1886740808
0.793270 -0.275099 -0.700745 0.000000000000000e+00 1886740808
0.817787 -0.331285 -0.745554 0.000000000000000e+00 1886740808
0.760823 -0.403933 -0.742416 0.000000000000000e+00 1886740808
0.777711 -0.466253 -0.787343 0.000000000000000e+00 1886740808
0.789784 -0.273529 -0.709693 0.000000000000000e+00 1886740808
0.773573 -0.313183 -0.717592 0.000000000000000e+00 1886740808
0.768174 -0.408057 -0.763180 0.000000000000000e+00 1886740808
0.773709 -0.464338 -0.797776 0.000000000000000e+00 1886740808
0.814257 -0.281626 -0.744261 0.000000000000000e+00 1886740808
0.774979 -0.313560 -0.731448 0.000000000000000e+00 1886740808
0.759059 -0.403437 -0.767767 0.000000000000000e+00 1886740808
0.787731 -0.473253 -0.827223 0.000000000000000e+00 1886740808
0.739058 -0.255269 -0.687108 0.000000000000000e+00 1886740808
0.745707 -0.301527 -0.716081 0.000000000000000e+00 1886740808
0.784380 -0.417127 -0.807703 0.000000000000000e+00 1886740808
0.793407 -0.477176 -0.848533 0.000000000000000e+00 1886740808
0.746127 -0.257355 -0.705547 0.000000000000000e+00 1886740808
0.789259 -0.318935 -0.771077 0.000000000000000e+00 1886740808
0.739561 -0.393516 -0.775279 0.000000000000000e+00 1886740808
2.125098 -1.279490 -2.314565 0.000000000000000e+00 1634890835
0.776651 -0.267506 -0.746950 0.000000000000000e+00 1886740808
0.753646 -0.304347 -0.749061 0.000000000000000e+00 1886740808
0.802978 -0.427506 -0.856912 0.000000000000000e+00 1886740808
2.079382 -1.253356 -2.306398 0.000000000000000e+00 1634890835
0.787964 -0.271016 -0.770747 0.000000000000000e+00 1886740808
0.785223 -0.316890 -0.793970 0.000000000000000e+00 1886740808
2.121419 -1.130104 -2.304626 0.000000000000000e+00 1634890835
2.038425 -1.230059 -2.302496 0.000000000000000e+00 1634890835
0.757137 -0.260034 -0.753199 0.000000000000000e+00 1886740808
0.747522 -0.301474 -0.768930 0.000000000000000e+00 1886740808
2.110213 -1.124806 -2.333655 0.000000000000000e+00 1634890835
0.810549 -0.489676 -0.932361 0.000000000000000e+00 1886740808
0.726167 -0.249030 -0.734673 0.000000000000000e+00 1886740808
0.756630 -0.304940 -0.791758 0.000000000000000e+00 1886740808
2.061203 -1.099346 -2.320408 0.000000000000000e+00 1634890835
0.781429 -0.472637 -0.915367 0.000000000000000e+00 1886740808
0.727271 -0.249033 -0.748290 0.000000000000000e+00 1886740808
0.758774 -0.305593 -0.807724 0.000000000000000e+00 1886740808
2.020202 -1.078142 -2.315111 0.000000000000000e+00 1634890835
0.749713 -0.453993 -0.894341 0.000000000000000e+00 1886740808
0.728734 -0.249153 -0.762528 0.000000000000000e+00 1886740808
2.120075 -0.853251 -2.295840 0.000000000000000e+00 1634890835
0.815365 -0.435418 -0.951185 0.000000000000000e+00 1886740808
0.806351 -0.488883 -0.979579 0.000000000000000e+00 1886740808
0.760049 -0.259454 -0.808796 0.000000000000000e+00 1886740808
2.096775 -0.843271 -2.309842 0.000000000000000e+00 1634890835
0.848499 -0.453401 -1.007637 0.000000000000000e+00 1886740808
0.796927 -0.483765 -0.985935 0.000000000000000e+00 1886740808
0.786687 -0.268122 -0.851356 0.000000000000000e+00 1886740808
2.034987 -0.817825 -2.280524 0.000000000000000e+00 1634890835
0.809148 -0.432655 -0.978200 0.000000000000000e+00 1886740808
1.850375 -1.124661 -2.331385 0.000000000000000e+00 1634890835
2.081198 -0.708176 -2.290532 0.000000000000000e+00 1634890835
2.018044 -0.810414 -2.300650 0.000000000000000e+00 1634890835
0.799021 -0.427524 -0.983365 0.000000000000000e+00 1886740808
1.806587 -1.099453 -2.318193 0.000000000000000e+00 1634890835
2.043878 -0.694332 -2.287688 0.000000000000000e+00 1634890835
1.978519 -0.793941 -2.294638 0.000000000000000e+00 1634890835
0.778528 -0.416839 -0.975437 0.000000000000000e+00 1886740808
0.767668 -0.467797 -1.003266 0.000000000000000e+00 1886740808
2.034706 -0.690055 -2.316164 0.000000000000000e+00 1634890835
1.959026 -0.785513 -2.311412 0.000000000000000e+00 1634890835
0.796927 -0.426984 -1.016546 0.000000000000000e+00 1886740808
1.726961 -1.053767 -2.298764 0.000000000000000e+00 1634890835
1.999996 -0.677122 -2.315429 0.000000000000000e+00 1634890835
0.826256 -0.331045 -0.991806 0.000000000000000e+00 1886740808
1.803206 -0.966817 -2.341822 0.000000000000000e+00 1634890835
1.654170 -1.010722 -2.242757 0.000000000000000e+00 1634890835
1.966932 -0.664765 -2.315995 0.000000000000000e+00 1634890835
0.830541 -0.332495 -1.014288 0.000000000000000e+00 1886740808
0.767885 -0.412008 -1.015370 0.000000000000000e+00 1886740808
1.661775 -1.016775 -2.295022 0.000000000000000e+00 1634890835
1.903505 -0.642183 -2.279617 0.000000000000000e+00 1634890835
0.780913 -0.312372 -0.970301 0.000000000000000e+00 1886740808
1.721955 -0.924587 -2.318415 0.000000000000000e+00 1634890835
1.643087 -1.006762 -2.311606 0.000000000000000e+00 1634890835
0.821661 -0.276698 -1.000864 0.000000000000000e+00 1886740808
0.800549 -0.319959 -1.012078 0.000000000000000e+00 1886740808
1.652312 -0.887855 -2.265311 0.000000000000000e+00 1634890835
1.611417 -0.988783 -2.309556 0.000000000000000e+00 1634890835
0.795226 -0.267299 -0.985293 0.000000000000000e+00 1886740808
0.775829 -0.309815 -0.998010 0.000000000000000e+00 1886740808
1.669951 -0.898016 -2.331486 0.000000000000000e+00 1634890835
1.583844 -0.973298 -2.312766 0.000000000000000e+00 1634890835
0.800542 -0.268575 -1.008954 0.000000000000000e+00 1886740808
0.793575 -0.316626 -1.038777 0.000000000000000e+00 1886740808
1.644401 -0.884966 -2.338086 0.000000000000000e+00 1634890835
1.532768 -0.943330 -2.280493 0.000000000000000e+00 1634890835
0.781117 -0.261550 -1.001471 0.000000000000000e+00 1886740808
1.722648 -0.686703 -2.294680 0.000000000000000e+00 1634890835
1.565597 -0.843224 -2.267195 0.000000000000000e+00 1634890835
1.504642 -0.927447 -2.281159 0.000000000000000e+00 1634890835
0.773434 -0.258464 -1.008798 0.000000000000000e+00 1886740808
1.716559 -0.683654 -2.327034 0.000000000000000e+00 1634890835
1.547317 -0.834056 -2.282337 0.000000000000000e+00 1634890835
1.475817 -0.911113 -2.280160 0.000000000000000e+00 1634890835
0.734599 -0.244988 -0.974804 0.000000000000000e+00 1886740808
0.750931 -0.298796 -1.036079 0.000000000000000e+00 1886740808
1.535457 -0.828352 -2.307109 0.000000000000000e+00 1634890835
1.467268 -0.907295 -2.310447 0.000000000000000e+00 1634890835
1.710928 -0.569407 -2.310010 0.000000000000000e+00 1634890835
1.653336 -0.657237 -2.321858 0.000000000000000e+00 1634890835
1.487357 -0.803085 -2.276760 0.000000000000000e+00 1634890835
1.424838 -0.882512 -2.286928 0.000000000000000e+00 1634890835
0.743148 -0.246799 -1.020949 0.000000000000000e+00 1886740808
1.607867 -0.638541 -2.298483 0.000000000000000e+00 1634890835
1.486887 -0.803533 -2.318973 0.000000000000000e+00 1634890835
1.402916 -0.870403 -2.295455 0.000000000000000e+00 1634890835
1.648836 -0.546385 -2.305084 0.000000000000000e+00 1634890835
1.581374 -0.627392 -2.301336 0.000000000000000e+00 1634890835
1.451749 -0.785242 -2.307128 0.000000000000000e+00 1634890835
1.380930 -0.858244 -2.303625 0.000000000000000e+00 1634890835
1.599029 -0.528699 -2.275010 0.000000000000000e+00 1634890835
1.543843 -0.611879 -2.287411 0.000000000000000e+00 1634890835
1.405811 -0.761089 -2.276778 0.000000000000000e+00 1634890835
1.348991 -0.839881 -2.294610 0.000000000000000e+00 1634890835
1.564407 -0.516070 -2.265339 0.000000000000000e+00 1634890835
1.529286 -0.605475 -2.307111 0.000000000000000e+00 1634890835
1.408644 -0.763336 -2.325209 0.000000000000000e+00 1634890835
1.342638 -0.837446 -2.329051 0.000000000000000e+00 1634890835
1.551287 -0.510541 -2.286514 0.000000000000000e+00 1634890835
1.489684 -0.589163 -2.288542 0.000000000000000e+00 1634890835
1.381151 -0.749157 -2.323946 0.000000000000000e+00 1634890835
1.290620 -0.806501 -2.283502 0.000000000000000e+00 1634890835
1.535153 -0.504016 -2.303435 0.000000000000000e+00 1634890835
1.459504 -0.576592 -2.283515 0.000000000000000e+00 1634890835
1.364576 -0.740895 -2.340814 0.000000000000000e+00 1634890835
1.274435 -0.797912 -2.300233 0.000000000000000e+00 1634890835
1.482158 -0.485414 -2.264168 0.000000000000000e+00 1634890835
1.432435 -0.565259 -2.282757 0.000000000000000e+00 1634890835
1.339751 -0.728152 -2.343375 0.000000000000000e+00 1634890835
1.249474 -0.783823 -2.300932 0.000000000000000e+00 1634890835
1.465091 -0.478608 -2.278867 0.000000000000000e+00 1634890835
1.395350 -0.549988 -2.265214 0.000000000000000e+00 1634890835
1.316105 -0.716043 -2.347600 0.000000000000000e+00 1634890835
1.206466 -0.758372 -2.267199 0.000000000000000e+00 1634890835
1.454515 -0.473915 -2.303912 0.000000000000000e+00 1634890835
1.428155 -0.562248 -2.362117 0.000000000000000e+00 1634890835
1.301742 -0.708984 -2.368351 0.000000000000000e+00 1634890835
1.208935 -0.761499 -2.318754 0.000000000000000e+00 1634890835
1.409279 -0.457944 -2.273494 0.000000000000000e+00 1634890835
1.373316 -0.539997 -2.314504 0.000000000000000e+00 1634890835
1.244705 -0.678662 -2.310209 0.000000000000000e+00 1634890835
1.146227 -0.723541 -2.244318 0.000000000000000e+00 1634890835
1.408303 -0.456367 -2.314204 0.000000000000000e+00 1634890835
1.360518 -0.534291 -2.336782 0.000000000000000e+00 1634890835
1.220543 -0.666239 -2.311428 0.000000000000000e+00 1634890835
1.141206 -0.721955 -2.281540 0.000000000000000e+00 1634890835
1.370208 -0.442761 -2.293839 0.000000000000000e+00 1634890835
1.295453 -0.508080 -2.267935 0.000000000000000e+00 1634890835
1.198055 -0.654722 -2.315426 0.000000000000000e+00 1634890835
1.129110 -0.715917 -2.305387 0.000000000000000e+00 1634890835
1.342639 -0.432583 -2.290195 0.000000000000000e+00 1634890835
1.262220 -0.494386 -2.252743 0.000000000000000e+00 1634890835
1.158754 -0.634003 -2.285917 0.000000000000000e+00 1634890835
1.108003 -0.704169 -2.310950 0.000000000000000e+00 1634890835
1.332980 -0.428177 -2.317092 0.000000000000000e+00 1634890835
1.257132 -0.491717 -2.287709 0.000000000000000e+00 1634890835
1.150340 -0.630174 -2.316879 0.000000000000000e+00 1634890835
1.060855 -0.675825 -2.260746 0.000000000000000e+00 1634890835
1.295741 -0.414923 -2.295709 0.000000000000000e+00 1634890835
1.240690 -0.484599 -2.302539 0.000000000000000e+00 1634890835
1.142152 -0.626482 -2.349125 0.000000000000000e+00 1634890835
1.047904 -0.669228 -2.282296 0.000000000000000e+00 1634890835
1.254171 -0.400324 -2.265223 0.000000000000000e+00 1634890835
1.223625 -0.477236 -2.316324 0.000000000000000e+00 1634890835
1.123382 -0.616993 -2.360034 0.000000000000000e+00 1634890835
1.022555 -0.654707 -2.276701 0.000000000000000e+00 1634890835
1.267340 -0.403189 -2.333908 0.000000000000000e+00 1634890835
1.196877 -0.466101 -2.311516 0.000000000000000e+00 1634890835
1.086189 -0.597373 -2.331379 0.000000000000000e+00 1634890835
1.012770 -0.650154 -2.305797 0.000000000000000e+00 1634890835
1.218582 -0.386350 -2.288577 0.000000000000000e+00 1634890835
1.166145 -0.453427 -2.298204 0.000000000000000e+00 1634890835
1.055086 -0.581077 -2.314331 0.000000000000000e+00 1634890835
0.966277 -0.622000 -2.250241 0.000000000000000e+00 1634890835
1.183463 -0.373889 -2.267123 0.000000000000000e+00 1634890835
1.158254 -0.449635 -2.329840 0.000000000000000e+00 1634890835
1.020126 -0.562633 -2.287394 0.000000000000000e+00 1634890835
0.957667 -0.618197 -2.281880 0.000000000000000e+00 1634890835
1.161770 -0.365692 -2.270614 0.000000000000000e+00 1634890835
1.101054 -0.426720 -2.261101 0.000000000000000e+00 1634890835
1.000568 -0.552671 -2.294087 0.000000000000000e+00 1634890835
0.931439 -0.603021 -2.271562 0.000000000000000e+00 1634890835
1.144975 -0.359039 -2.283597 0.000000000000000e+00 1634890835
1.112498 -0.430412 -2.332956 0.000000000000000e+00 1634890835
0.990531 -0.547972 -2.322945 0.000000000000000e+00 1634890835
0.926304 -0.601510 -2.312935 0.000000000000000e+00 1634890835
1.118171 -0.349258 -2.276328 0.000000000000000e+00 1634890835
1.087225 -0.419884 -2.328820 0.000000000000000e+00 1634890835
0.967173 -0.535907 -2.320714 0.000000000000000e+00 1634890835
0.917894 -0.597918 -2.347462 0.000000000000000e+00 1634890835
1.111108 -0.345637 -2.309371 0.000000000000000e+00 1634890835
1.048347 -0.404122 -2.294296 0.000000000000000e+00 1634890835
0.949560 -0.527021 -2.332023 0.000000000000000e+00 1634890835
0.870371 -0.568804 -2.280712 0.000000000000000e+00 1634890835
1.051125 -0.325596 -2.231082 0.000000000000000e+00 1634890835
1.015072 -0.390545 -2.270352 0.000000000000000e+00 1634890835
0.915664 -0.509084 -2.302469 0.000000000000000e+00 1634890835
0.843865 -0.553345 -2.266589 0.000000000000000e+00 1634890835
1.064076 -0.328160 -2.307152 0.000000000000000e+00 1634890835
1.002724 -0.385026 -2.292769 0.000000000000000e+00 1634890835
0.887519 -0.494318 -2.285831 0.000000000000000e+00 1634890835
0.838334 -0.551647 -2.309046 0.000000000000000e+00 1634890835
1.042234 -0.319956 -2.309061 0.000000000000000e+00 1634890835
0.988351 -0.378722 -2.311051 0.000000000000000e+00 1634890835
0.898288 -0.501245 -2.370614 0.000000000000000e+00 1634890835
0.456429 -0.301439 -1.289723 0.000000000000000e+00 1936876886
1.034003 -0.315919 -2.341471 0.000000000000000e+00 1634890835
0.963353 -0.368350 -2.304349 0.000000000000000e+00 1634890835
0.841364 -0.470390 -2.276085 0.000000000000000e+00 1634890835
0.435572 -0.288758 -1.263267 0.000000000000000e+00 1936876886
0.974449 -0.296249 -2.256111 0.000000000000000e+00 1634890835
0.944090 -0.360176 -2.310957 0.000000000000000e+00 1634890835
0.842115 -0.471758 -2.336277 0.000000000000000e+00 1634890835
0.434996 -0.289519 -1.295527 0.000000000000000e+00 1936876886
0.968320 -0.292863 -2.292970 0.000000000000000e+00 1634890835
0.939664 -0.357650 -2.354648 0.000000000000000e+00 1634890835
0.458578 -0.257437 -1.305311 0.000000000000000e+00 1936876886
0.343657 -0.229671 -1.051572 0.000000000000000e+00 1953264973
0.943019 -0.283673 -2.284702 0.000000000000000e+00 1634890835
0.893519 -0.339259 -2.292979 0.000000000000000e+00 1634890835
0.424419 -0.238783 -1.240096 0.000000000000000e+00 1936876886
0.311711 -0.209220 -0.980526 0.000000000000000e+00 1953264973
0.500872 -0.149819 -1.242005 0.000000000000000e+00 1936876886
0.880170 -0.333342 -2.314097 0.000000000000000e+00 1634890835
0.375955 -0.212001 -1.128179 0.000000000000000e+00 1953264973
0.293034 -0.197571 -0.948135 0.000000000000000e+00 1953264973
0.492149 -0.146340 -1.249536 0.000000000000000e+00 1936876886
0.864188 -0.326418 -2.328777 0.000000000000000e+00 1634890835
0.346755 -0.196003 -1.069254 0.000000000000000e+00 1953264973
0.274290 -0.185808 -0.913437 0.000000000000000e+00 1953264973
0.477874 -0.141217 -1.242786 0.000000000000000e+00 1936876886
0.856765 -0.322714 -2.367454 0.000000000000000e+00 1634890835
0.335230 -0.189963 -1.062839 0.000000000000000e+00 1953264973
0.258711 -0.176122 -0.887327 0.000000000000000e+00 1953264973
