# .PCD v0.7 - Point Cloud Data file format
VERSION 0.7
FIELDS x y z rgb label
SIZE 4 4 4 4 4
TYPE F F F F U
COUNT 1 1 1 1 1
WIDTH 538
HEIGHT 1
VIEWPOINT 0 0 0 1 0 0 0
POINTS 538
DATA ascii
39.641476 -16.776678 9.993754 0.000000000000000e+00 1954047316
37.063072 -20.657772 10.115446 0.000000000000000e+00 1954047316
34.598396 -12.863146 -2.198183 0.000000000000000e+00 1851878480
37.070087 -15.506233 -2.259877 0.000000000000000e+00 1851878480
30.455793 -15.716572 -1.646907 0.000000000000000e+00 1851878480
29.146709 -16.548477 -1.447412 0.000000000000000e+00 1851878480
29.184130 -10.841977 -2.119318 0.000000000000000e+00 1851878480
28.539911 -11.933944 -2.007041 0.000000000000000e+00 1851878480
26.885029 -13.878199 -1.722162 0.000000000000000e+00 1851878480
25.922499 -14.726568 -1.555025 0.000000000000000e+00 1851878480
26.557243 -9.858585 -2.170036 0.000000000000000e+00 1851878480
26.128046 -10.921581 -2.082271 0.000000000000000e+00 1851878480
24.933292 -12.874687 -1.846297 0.000000000000000e+00 1851878480
24.285332 -13.804626 -1.707961 0.000000000000000e+00 1851878480
24.135475 -8.952767 -2.191844 0.000000000000000e+00 1851878480
24.271374 -10.141925 -2.162009 0.000000000000000e+00 1851878480
23.392567 -12.082846 -1.966280 0.000000000000000e+00 1851878480
23.139688 -13.161190 -1.867037 0.000000000000000e+00 1851878480
22.199249 -8.228276 -2.218314 0.000000000000000e+00 1851878480
22.307398 -9.317998 -2.196608 0.000000000000000e+00 1851878480
22.082014 -11.409464 -2.077406 0.000000000000000e+00 1851878480
21.849590 -12.434772 -1.989591 0.000000000000000e+00 1851878480
20.519638 -7.599922 -2.237721 0.000000000000000e+00 1851878480
20.628857 -8.613814 -2.225373 0.000000000000000e+00 1851878480
20.751320 -10.725237 -2.160507 0.000000000000000e+00 1851878480
20.459429 -11.650532 -2.075601 0.000000000000000e+00 1851878480
19.002211 -7.032530 -2.245903 0.000000000000000e+00 1851878480
19.022381 -7.940212 -2.231294 0.000000000000000e+00 1851878480
19.480446 -10.071532 -2.224076 0.000000000000000e+00 1851878480
19.154388 -10.913855 -2.142630 0.000000000000000e+00 1851878480
17.625650 -6.518081 -2.244549 0.000000000000000e+00 1851878480
17.665451 -7.371203 -2.238855 0.000000000000000e+00 1851878480
17.863440 -9.238408 -2.219441 0.000000000000000e+00 1851878480
17.993624 -10.258574 -2.200515 0.000000000000000e+00 1851878480
16.445507 -6.076991 -2.245075 0.000000000000000e+00 1851878480
16.482067 -6.874987 -2.244730 0.000000000000000e+00 1851878480
16.593731 -8.584441 -2.229227 0.000000000000000e+00 1851878480
16.691772 -9.522037 -2.215849 0.000000000000000e+00 1851878480
15.409181 -5.689672 -2.245177 0.000000000000000e+00 1851878480
15.413887 -6.427141 -2.245298 0.000000000000000e+00 1851878480
15.484044 -8.012875 -2.236839 0.000000000000000e+00 1851878480
15.483103 -8.837815 -2.217687 0.000000000000000e+00 1851878480
14.503922 -5.351280 -2.246815 0.000000000000000e+00 1851878480
14.420869 -6.010942 -2.237582 0.000000000000000e+00 1851878480
14.488326 -7.499953 -2.239965 0.000000000000000e+00 1851878480
14.437605 -8.245979 -2.219659 0.000000000000000e+00 1851878480
13.640451 -5.028815 -2.238922 0.000000000000000e+00 1851878480
13.609520 -5.670736 -2.241223 0.000000000000000e+00 1851878480
13.595954 -7.040233 -2.240273 0.000000000000000e+00 1851878480
13.565614 -7.752600 -2.228545 0.000000000000000e+00 1851878480
12.940931 -4.767228 -2.243801 0.000000000000000e+00 1851878480
12.874846 -5.362694 -2.243082 0.000000000000000e+00 1851878480
12.810455 -6.635581 -2.241487 0.000000000000000e+00 1851878480
12.785771 -7.311328 -2.235556 0.000000000000000e+00 1851878480
12.284060 -4.521728 -2.243818 0.000000000000000e+00 1851878480
12.252596 -5.101689 -2.251893 0.000000000000000e+00 1851878480
12.109651 -6.274566 -2.242724 0.000000000000000e+00 1851878480
12.130703 -6.940937 -2.249614 0.000000000000000e+00 1851878480
11.705606 -4.305443 -2.246992 0.000000000000000e+00 1851878480
11.629573 -4.840534 -2.248955 0.000000000000000e+00 1851878480
11.547363 -5.985118 -2.257054 0.000000000000000e+00 1851878480
11.413317 -6.534414 -2.237954 0.000000000000000e+00 1851878480
11.092428 -4.076717 -2.232713 0.000000000000000e+00 1851878480
11.070474 -4.606157 -2.247353 0.000000000000000e+00 1851878480
10.935818 -5.669948 -2.250077 0.000000000000000e+00 1851878480
10.849138 -6.215183 -2.243098 0.000000000000000e+00 1851878480
10.619894 -3.899988 -2.236915 0.000000000000000e+00 1851878480
10.597325 -4.407696 -2.253582 0.000000000000000e+00 1851878480
10.391471 -5.389438 -2.245391 0.000000000000000e+00 1851878480
10.275435 -5.890114 -2.234520 0.000000000000000e+00 1851878480
10.209436 -3.746304 -2.246236 0.000000000000000e+00 1851878480
10.072968 -4.188080 -2.239613 0.000000000000000e+00 1851878480
5.688390 -2.951180 -1.288105 1.880790849211783e-38 1684957512
5.647074 -3.239014 -1.288726 1.880790849211783e-38 1684957512
5.621057 -2.060990 -1.289625 1.880790849211783e-38 1684957512
5.524190 -2.295980 -1.281916 1.880790849211783e-38 1684957512
5.399221 -2.802057 -1.278790 1.880790849211783e-38 1684957512
5.381586 -3.088634 -1.286210 1.880790849211783e-38 1684957512
5.361515 -1.964269 -1.280714 1.880790849211783e-38 1684957512
5.347787 -2.221850 -1.293126 1.880790849211783e-38 1684957512
5.157459 -2.677454 -1.275388 1.880790849211783e-38 1684957512
5.127081 -2.944383 -1.280932 1.880790849211783e-38 1684957512
5.159217 -1.888648 -1.281290 1.880790849211783e-38 1684957512
5.095213 -2.116134 -1.281919 1.880790849211783e-38 1684957512
5.032735 -2.613551 -1.297313 1.880790849211783e-38 1684957512
4.916284 -2.825073 -1.281757 1.880790849211783e-38 1684957512
4.963163 -1.815428 -1.279818 1.880790849211783e-38 1684957512
4.945957 -2.053389 -1.292962 1.880790849211783e-38 1684957512
4.828072 -2.508084 -1.295392 1.880790849211783e-38 1684957512
4.711967 -2.709350 -1.279981 1.880790849211783e-38 1684957512
4.785069 -1.748881 -1.279594 1.880790849211783e-38 1684957512
4.758961 -1.975023 -1.291024 1.880790849211783e-38 1684957512
4.643298 -2.412889 -1.294921 1.880790849211783e-38 1684957512
4.574095 -2.631719 -1.292743 1.880790849211783e-38 1684957512
4.604963 -1.681697 -1.275591 1.880790849211783e-38 1684957512
4.563349 -1.893140 -1.283164 1.880790849211783e-38 1684957512
4.439703 -2.307846 -1.285308 1.880790849211783e-38 1684957512
4.378461 -2.520740 -1.285748 1.880790849211783e-38 1684957512
4.453179 -1.624947 -1.276428 1.880790849211783e-38 1684957512
4.375687 -1.814609 -1.273931 1.880790849211783e-38 1684957512
4.292923 -2.232285 -1.288635 1.880790849211783e-38 1684957512
4.199214 -2.419069 -1.279656 1.880790849211783e-38 1684957512
4.355460 -1.587997 -1.290543 1.880790849211783e-38 1684957512
4.260305 -1.766096 -1.282917 1.880790849211783e-38 1684957512
4.164945 -2.166456 -1.294889 1.880790849211783e-38 1684957512
4.056470 -2.338320 -1.281348 1.880790849211783e-38 1684957512
4.243167 -1.545790 -1.298494 1.880790849211783e-38 1684957512
4.152025 -1.720561 -1.292001 1.880790849211783e-38 1684957512
3.999828 -2.081260 -1.286670 1.880790849211783e-38 1684957512
3.963993 -2.286465 -1.296529 1.880790849211783e-38 1684957512
4.034177 -1.468449 -1.273917 1.880790849211783e-38 1684957512
4.032869 -1.670551 -1.295614 1.880790849211783e-38 1684957512
3.916394 -2.038529 -1.302268 1.880790849211783e-38 1684957512
3.804782 -2.196037 -1.287298 1.880790849211783e-38 1684957512
4.041229 -1.469800 -1.315780 1.880790849211783e-38 1684957512
3.889140 -1.610399 -1.288875 1.880790849211783e-38 1684957512
3.720624 -1.937280 -1.277704 1.880790849211783e-38 1684957512
3.687665 -2.129810 -1.289428 1.880790849211783e-38 1684957512
3.999618 -1.453457 -1.341656 1.880790849211783e-38 1684957512
3.764691 -1.558272 -1.286004 1.880790849211783e-38 1684957512
3.660974 -1.906869 -1.297324 1.880790849211783e-38 1684957512
3.681925 -2.127870 -1.329352 1.880790849211783e-38 1684957512
3.983476 -1.446382 -1.375708 1.880790849211783e-38 1684957512
3.734221 -1.545064 -1.313859 1.880790849211783e-38 1684957512
3.689266 -1.922259 -1.347995 1.880790849211783e-38 1684957512
3.678459 -2.127252 -1.370242 1.880790849211783e-38 1684957512
3.976844 -1.442762 -1.413029 1.880790849211783e-38 1684957512
3.689792 -1.526091 -1.336244 1.880790849211783e-38 1684957512
3.697362 -1.927137 -1.391928 1.880790849211783e-38 1684957512
3.694187 -2.137746 -1.418682 1.880790849211783e-38 1684957512
4.030658 -1.461049 -1.472518 1.880790849211783e-38 1684957512
3.685107 -1.523558 -1.372730 1.880790849211783e-38 1684957512
3.725832 -1.942644 -1.444189 1.880790849211783e-38 1684957512
3.689408 -2.136387 -1.459643 1.880790849211783e-38 1684957512
3.960684 -1.434465 -1.486844 1.880790849211783e-38 1684957512
3.647316 -1.507345 -1.396664 1.880790849211783e-38 1684957512
3.709630 -1.934868 -1.479528 1.880790849211783e-38 1684957512
3.662732 -2.122344 -1.491850 1.880790849211783e-38 1684957512
4.008851 -1.450669 -1.545535 1.880790849211783e-38 1684957512
3.679087 -1.519876 -1.447402 1.880790849211783e-38 1684957512
3.717105 -1.939442 -1.524481 1.880790849211783e-38 1684957512
3.713559 -2.153232 -1.556196 1.880790849211783e-38 1684957512
3.994623 -1.444276 -1.580757 1.880790849211783e-38 1684957512
3.717695 -1.535216 -1.501808 1.880790849211783e-38 1684957512
3.709350 -1.936076 -1.563461 1.880790849211783e-38 1684957512
3.701287 -2.147557 -1.594852 1.880790849211783e-38 1684957512
3.999734 -1.444871 -1.623787 1.880790849211783e-38 1684957512
3.677485 -1.518004 -1.524603 1.880790849211783e-38 1684957512
3.715422 -1.939930 -1.608536 1.880790849211783e-38 1684957512
3.696916 -2.146473 -1.637023 1.880790849211783e-38 1684957512
4.020408 -1.451074 -1.673662 1.880790849211783e-38 1684957512
3.692223 -1.523477 -1.570163 1.880790849211783e-38 1684957512
3.700575 -1.932866 -1.644750 1.880790849211783e-38 1684957512
3.704627 -2.152415 -1.684905 1.880790849211783e-38 1684957512
3.978637 -1.434736 -1.697587 1.880790849211783e-38 1684957512
3.663279 -1.510922 -1.597256 1.880790849211783e-38 1684957512
3.694406 -1.930334 -1.684883 1.880790849211783e-38 1684957512
3.669067 -2.133216 -1.713098 1.880790849211783e-38 1684957512
3.988201 -1.436913 -1.743356 1.880790849211783e-38 1684957512
3.719842 -1.533627 -1.662202 1.880790849211783e-38 1684957512
3.597946 -1.880613 -1.682952 1.880790849211783e-38 1684957512
3.687154 -2.145211 -1.766466 1.880790849211783e-38 1684957512
4.017897 -1.446324 -1.798623 1.880790849211783e-38 1684957512
3.642430 -1.501095 -1.667333 1.880790849211783e-38 1684957512
3.714643 -1.942313 -1.781288 1.880790849211783e-38 1684957512
3.703790 -2.156391 -1.819915 1.880790849211783e-38 1684957512
4.017186 -1.444772 -1.840876 1.880790849211783e-38 1684957512
3.681654 -1.516633 -1.725727 1.880790849211783e-38 1684957512
3.721105 -1.946405 -1.828552 1.880790849211783e-38 1684957512
3.638995 -2.120151 -1.833116 1.880790849211783e-38 1684957512
4.023648 -1.445785 -1.886784 1.880790849211783e-38 1684957512
3.712846 -1.528846 -1.781432 1.880790849211783e-38 1684957512
3.677326 -1.924215 -1.851029 1.880790849211783e-38 1684957512
3.680166 -2.145653 -1.899779 1.880790849211783e-38 1684957512
4.001351 -1.436464 -1.919348 1.880790849211783e-38 1684957512
3.699347 -1.522647 -1.816196 1.880790849211783e-38 1684957512
3.697996 -1.935752 -1.906028 1.880790849211783e-38 1684957512
3.682271 -2.148411 -1.947198 1.880790849211783e-38 1684957512
4.001658 -1.435254 -1.962842 1.880790849211783e-38 1684957512
3.652675 -1.502801 -1.834319 1.880790849211783e-38 1684957512
3.686362 -1.930386 -1.944852 1.880790849211783e-38 1684957512
3.680857 -2.149129 -1.993162 1.880790849211783e-38 1684957512
4.008886 -1.436518 -2.010145 1.880790849211783e-38 1684957512
3.729240 -1.533647 -1.914997 1.880790849211783e-38 1684957512
3.751137 -1.965047 -2.025020 1.880790849211783e-38 1684957512
3.702844 -2.163533 -2.052471 1.880790849211783e-38 1684957512
4.017129 -1.438127 -2.058470 1.880790849211783e-38 1684957512
3.685996 -1.515210 -1.934868 1.880790849211783e-38 1684957512
3.727172 -1.953237 -2.058180 1.880790849211783e-38 1684957512
3.678880 -2.151101 -2.086708 1.880790849211783e-38 1684957512
4.032137 -1.442142 -2.110874 1.880790849211783e-38 1684957512
3.725982 -1.530984 -1.998743 1.880790849211783e-38 1684957512
3.681924 -1.930268 -2.079133 1.880790849211783e-38 1684957512
3.637494 -2.128471 -2.110649 1.880790849211783e-38 1684957512
4.055163 -1.448998 -2.168265 1.880790849211783e-38 1684957512
3.665089 -1.505303 -2.008618 1.880790849211783e-38 1684957512
3.675765 -1.927787 -2.121932 1.880790849211783e-38 1684957512
3.644799 -2.134331 -2.162843 1.880790849211783e-38 1684957512
4.053358 -1.446967 -2.212998 1.880790849211783e-38 1684957512
3.678607 -1.510190 -2.059094 1.880790849211783e-38 1684957512
3.726570 -1.955198 -2.198611 1.880790849211783e-38 1684957512
3.691249 -2.163156 -2.239439 1.880790849211783e-38 1684957512
4.052061 -1.445105 -2.258364 0.000000000000000e+00 1851878480
3.685408 -1.512308 -2.106429 1.880790849211783e-38 1684957512
3.727545 -1.956482 -2.246996 1.880790849211783e-38 1684957512
3.602428 -2.112705 -2.233873 0.000000000000000e+00 1851878480
4.022978 -1.433333 -2.288299 0.000000000000000e+00 1634890835
3.732828 -1.531078 -2.178018 1.880790849211783e-38 1684957512
3.650331 -1.916720 -2.247721 0.000000000000000e+00 1851878480
3.534735 -2.074590 -2.239783 0.000000000000000e+00 1851878480
3.907858 -1.390945 -2.268044 0.000000000000000e+00 1634890835
3.629937 -1.488200 -2.161644 1.880790849211783e-38 1684957512
3.564106 -1.872195 -2.241237 0.000000000000000e+00 1851878480
3.444225 -2.023030 -2.229569 0.000000000000000e+00 1851878480
3.840133 -1.365480 -2.273585 0.000000000000000e+00 1634890835
3.718613 -1.523857 -2.259597 1.880790849211783e-38 1684957512
3.531401 -1.855772 -2.267317 0.000000000000000e+00 1851878480
3.369385 -1.980616 -2.227716 0.000000000000000e+00 1851878480
3.761954 -1.336338 -2.271643 0.000000000000000e+00 1634890835
3.626883 -1.485581 -2.248314 0.000000000000000e+00 1851878480
3.442796 -1.809954 -2.256371 0.000000000000000e+00 1851878480
3.317609 -1.951719 -2.239848 0.000000000000000e+00 1851878480
3.692460 -1.310321 -2.273618 0.000000000000000e+00 1634890835
3.534158 -1.446924 -2.234578 0.000000000000000e+00 1851878480
3.391615 -1.783787 -2.268561 0.000000000000000e+00 1851878480
3.274147 -1.927687 -2.256761 0.000000000000000e+00 1851878480
3.624521 -1.284894 -2.275335 0.000000000000000e+00 1634890835
3.508953 -1.435925 -2.262510 0.000000000000000e+00 1851878480
3.323974 -1.748945 -2.268619 0.000000000000000e+00 1851878480
3.222401 -1.898747 -2.267122 0.000000000000000e+00 1851878480
3.601713 -1.275486 -2.304721 0.000000000000000e+00 1634890835
3.534650 -1.445752 -2.323720 0.000000000000000e+00 1634890835
3.265761 -1.719044 -2.273881 0.000000000000000e+00 1851878480
3.180709 -1.875706 -2.283736 0.000000000000000e+00 1851878480
3.499816 -1.238102 -2.282414 0.000000000000000e+00 1634890835
3.397355 -1.388924 -2.276812 0.000000000000000e+00 1634890835
3.212088 -1.691515 -2.281255 0.000000000000000e+00 1851878480
3.104650 -1.832360 -2.274490 0.000000000000000e+00 1851878480
3.395991 -1.200103 -2.256758 0.000000000000000e+00 1634890835
3.374037 -1.378719 -2.304698 0.000000000000000e+00 1634890835
3.155912 -1.662652 -2.285819 0.000000000000000e+00 1851878480
3.009242 -1.777528 -2.249080 0.000000000000000e+00 1851878480
3.389602 -1.196563 -2.294927 0.000000000000000e+00 1634890835
3.288341 -1.343040 -2.289028 0.000000000000000e+00 1634890835
3.054343 -1.609847 -2.255780 0.000000000000000e+00 1851878480
2.942936 -1.739825 -2.243551 0.000000000000000e+00 1851878480
3.297491 -1.162785 -2.274268 0.000000000000000e+00 1634890835
3.230443 -1.318734 -2.291302 0.000000000000000e+00 1634890835
3.011479 -1.587958 -2.267547 0.000000000000000e+00 1851878480
2.894167 -1.712450 -2.250201 0.000000000000000e+00 1851878480
3.245426 -1.143173 -2.279854 0.000000000000000e+00 1634890835
3.150433 -1.285424 -2.276542 0.000000000000000e+00 1634890835
2.941673 -1.551844 -2.257912 0.000000000000000e+00 1851878480
2.819597 -1.669765 -2.235453 0.000000000000000e+00 1851878480
3.222080 -1.133691 -2.305107 0.000000000000000e+00 1634890835
3.133289 -1.277777 -2.306394 0.000000000000000e+00 1634890835
2.862217 -1.510613 -2.239203 0.000000000000000e+00 1851878480
2.763868 -1.638192 -2.234184 0.000000000000000e+00 1851878480
3.105028 -1.091281 -2.261962 0.000000000000000e+00 1634890835
3.071430 -1.251905 -2.302750 0.000000000000000e+00 1634890835
2.805733 -1.481484 -2.236975 0.000000000000000e+00 1851878480
2.723666 -1.615788 -2.244523 0.000000000000000e+00 1851878480
3.117354 -1.094369 -2.312169 0.000000000000000e+00 1634890835
2.998088 -1.221371 -2.289140 0.000000000000000e+00 1634890835
2.810678 -1.484783 -2.283488 0.000000000000000e+00 1851878480
0.831921 -0.493970 -0.698827 0.000000000000000e+00 1886740808
3.037789 -1.065211 -2.293804 0.000000000000000e+00 1634890835
2.930513 -1.193211 -2.278479 0.000000000000000e+00 1634890835
2.701127 -1.427585 -2.235928 0.000000000000000e+00 1851878480
0.847664 -0.503774 -0.725741 0.000000000000000e+00 1886740808
2.978360 -1.043156 -2.289261 0.000000000000000e+00 1634890835
2.914074 -1.185883 -2.306906 0.000000000000000e+00 1634890835
0.883279 -0.467048 -0.744888 0.000000000000000e+00 1886740808
0.801589 -0.476828 -0.699415 0.000000000000000e+00 1886740808
2.968033 -1.038313 -2.322004 0.000000000000000e+00 1634890835
2.818365 -1.146310 -2.271495 0.000000000000000e+00 1634890835
0.869825 -0.460156 -0.747244 0.000000000000000e+00 1886740808
0.785233 -0.467533 -0.698178 0.000000000000000e+00 1886740808
2.851392 -0.996316 -2.270319 0.000000000000000e+00 1634890835
2.794012 -1.135780 -2.292387 0.000000000000000e+00 1634890835
0.835216 -0.442064 -0.730850 0.000000000000000e+00 1886740808
0.823105 -0.490544 -0.745707 0.000000000000000e+00 1886740808
2.822801 -0.985132 -2.287221 0.000000000000000e+00 1634890835
2.722698 -1.106174 -2.273878 0.000000000000000e+00 1634890835
0.807859 -0.427797 -0.719994 0.000000000000000e+00 1886740808
0.782284 -0.466662 -0.722084 0.000000000000000e+00 1886740808
2.778823 -0.968591 -2.291141 0.000000000000000e+00 1634890835
0.866161 -0.351704 -0.736275 0.000000000000000e+00 1886740808
0.791595 -0.419395 -0.718499 0.000000000000000e+00 1886740808
0.751043 -0.448460 -0.706264 0.000000000000000e+00 1886740808
0.842796 -0.293401 -0.707039 0.000000000000000e+00 1886740808
0.823354 -0.334131 -0.712310 0.000000000000000e+00 1886740808
0.825652 -0.437662 -0.763166 0.000000000000000e+00 1886740808
0.721929 -0.431499 -0.691584 0.000000000000000e+00 1886740808
0.825560 -0.287038 -0.704643 0.000000000000000e+00 1886740808
0.846968 -0.343514 -0.745694 0.000000000000000e+00 1886740808
0.777988 -0.412610 -0.732263 0.000000000000000e+00 1886740808
0.750605 -0.449087 -0.732459 0.000000000000000e+00 1886740808
0.797254 -0.276841 -0.692292 0.000000000000000e+00 1886740808
0.835123 -0.338510 -0.748220 0.000000000000000e+00 1886740808
0.778992 -0.413359 -0.746574 0.000000000000000e+00 1886740808
0.745588 -0.446536 -0.741085 0.000000000000000e+00 1886740808
0.804956 -0.279151 -0.711068 0.000000000000000e+00 1886740808
0.784281 -0.317712 -0.715007 0.000000000000000e+00 1886740808
0.765956 -0.406658 -0.747425 0.000000000000000e+00 1886740808
0.753788 -0.451911 -0.763124 0.000000000000000e+00 1886740808
0.838394 -0.290364 -0.753373 0.000000000000000e+00 1886740808
0.800404 -0.324046 -0.742481 0.000000000000000e+00 1886740808
0.763976 -0.405827 -0.759010 0.000000000000000e+00 1886740808
0.739364 -0.443726 -0.762363 0.000000000000000e+00 1886740808
0.776173 -0.268454 -0.709451 0.000000000000000e+00 1886740808
0.776888 -0.314332 -0.733250 0.000000000000000e+00 1886740808
0.745109 -0.396022 -0.753657 0.000000000000000e+00 1886740808
0.753671 -0.452791 -0.791455 0.000000000000000e+00 1886740808
0.766251 -0.264662 -0.712390 0.000000000000000e+00 1886740808
0.742400 -0.300190 -0.712905 0.000000000000000e+00 1886740808
0.785893 -0.417932 -0.809261 0.000000000000000e+00 1886740808
0.753565 -0.453214 -0.805923 0.000000000000000e+00 1886740808
0.780948 -0.269365 -0.738475 0.000000000000000e+00 1886740808
0.763293 -0.308442 -0.745710 0.000000000000000e+00 1886740808
0.760045 -0.404415 -0.796752 0.000000000000000e+00 1886740808
2.120794 -1.276899 -2.309879 0.000000000000000e+00 1634890835
0.737676 -0.254082 -0.709465 0.000000000000000e+00 1886740808
0.754472 -0.304680 -0.749882 0.000000000000000e+00 1886740808
0.747818 -0.398138 -0.798047 0.000000000000000e+00 1886740808
2.062731 -1.243320 -2.287930 0.000000000000000e+00 1634890835
0.729165 -0.250792 -0.713233 0.000000000000000e+00 1886740808
0.747502 -0.301667 -0.755828 0.000000000000000e+00 1886740808
2.124730 -1.131868 -2.308223 0.000000000000000e+00 1634890835
2.015779 -1.216393 -2.276916 0.000000000000000e+00 1634890835
0.793271 -0.272444 -0.789145 0.000000000000000e+00 1886740808
0.776967 -0.313349 -0.799218 0.000000000000000e+00 1886740808
2.102840 -1.120875 -2.325501 0.000000000000000e+00 1634890835
0.801101 -0.483969 -0.921494 0.000000000000000e+00 1886740808
0.741582 -0.254316 -0.750269 0.000000000000000e+00 1886740808
0.761821 -0.307032 -0.797190 0.000000000000000e+00 1886740808
2.071934 -1.105070 -2.332489 0.000000000000000e+00 1634890835
0.809641 -0.489700 -0.948414 0.000000000000000e+00 1886740808
0.755371 -0.258655 -0.777202 0.000000000000000e+00 1886740808
0.766965 -0.308892 -0.816443 0.000000000000000e+00 1886740808
1.998183 -1.066391 -2.289877 0.000000000000000e+00 1634890835
0.775687 -0.469722 -0.925326 0.000000000000000e+00 1886740808
0.765851 -0.261843 -0.801366 0.000000000000000e+00 1886740808
2.112759 -0.850307 -2.287917 0.000000000000000e+00 1634890835
0.827537 -0.441918 -0.965384 0.000000000000000e+00 1886740808
0.784011 -0.475338 -0.952440 0.000000000000000e+00 1886740808
0.758523 -0.258933 -0.807172 0.000000000000000e+00 1886740808
2.090506 -0.840750 -2.302936 0.000000000000000e+00 1634890835
0.814444 -0.435204 -0.967195 0.000000000000000e+00 1886740808
0.782967 -0.475291 -0.968665 0.000000000000000e+00 1886740808
0.771043 -0.262790 -0.834426 0.000000000000000e+00 1886740808
2.030275 -0.815931 -2.275242 0.000000000000000e+00 1634890835
0.778759 -0.416406 -0.941463 0.000000000000000e+00 1886740808
1.788550 -1.087084 -2.253488 0.000000000000000e+00 1634890835
2.082071 -0.708473 -2.291493 0.000000000000000e+00 1634890835
2.036225 -0.817715 -2.321377 0.000000000000000e+00 1634890835
0.828015 -0.443037 -1.019048 0.000000000000000e+00 1886740808
1.762549 -1.072652 -2.261685 0.000000000000000e+00 1634890835
2.036468 -0.691815 -2.279394 0.000000000000000e+00 1634890835
1.964666 -0.788382 -2.278572 0.000000000000000e+00 1634890835
0.775801 -0.415379 -0.972020 0.000000000000000e+00 1886740808
0.773838 -0.471557 -1.011329 0.000000000000000e+00 1886740808
1.986633 -0.673752 -2.261441 0.000000000000000e+00 1634890835
1.938244 -0.777180 -2.286892 0.000000000000000e+00 1634890835
0.748474 -0.401024 -0.954740 0.000000000000000e+00 1886740808
1.719391 -1.049148 -2.288688 0.000000000000000e+00 1634890835
1.966837 -0.665896 -2.277041 0.000000000000000e+00 1634890835
0.793053 -0.317742 -0.951950 0.000000000000000e+00 1886740808
1.770555 -0.949310 -2.299418 0.000000000000000e+00 1634890835
1.712866 -1.046585 -2.322337 0.000000000000000e+00 1634890835
1.920252 -0.648989 -2.261031 0.000000000000000e+00 1634890835
0.802745 -0.321367 -0.980341 0.000000000000000e+00 1886740808
0.768941 -0.412574 -1.016765 0.000000000000000e+00 1886740808
1.668115 -1.020654 -2.303778 0.000000000000000e+00 1634890835
1.908112 -0.643737 -2.285133 0.000000000000000e+00 1634890835
0.804542 -0.321824 -0.999661 0.000000000000000e+00 1886740808
1.716330 -0.921566 -2.310841 0.000000000000000e+00 1634890835
1.625339 -0.995888 -2.286637 0.000000000000000e+00 1634890835
0.787177 -0.265086 -0.958859 0.000000000000000e+00 1886740808
0.785335 -0.313878 -0.992844 0.000000000000000e+00 1886740808
1.687100 -0.906549 -2.313006 0.000000000000000e+00 1634890835
1.583162 -0.971445 -2.269060 0.000000000000000e+00 1634890835
0.764684 -0.257033 -0.947452 0.000000000000000e+00 1886740808
0.808643 -0.322919 -1.040221 0.000000000000000e+00 1886740808
1.646473 -0.885391 -2.298708 0.000000000000000e+00 1634890835
1.577108 -0.969158 -2.302929 0.000000000000000e+00 1634890835
0.778424 -0.261154 -0.981078 0.000000000000000e+00 1886740808
0.797697 -0.318271 -1.044173 0.000000000000000e+00 1886740808
1.639747 -0.882461 -2.331469 0.000000000000000e+00 1634890835
1.563133 -0.962018 -2.325670 0.000000000000000e+00 1634890835
0.788614 -0.264060 -1.011082 0.000000000000000e+00 1886740808
1.731014 -0.690037 -2.305823 0.000000000000000e+00 1634890835
1.600044 -0.861778 -2.317080 0.000000000000000e+00 1634890835
1.505777 -0.928147 -2.282880 0.000000000000000e+00 1634890835
0.751394 -0.251099 -0.980051 0.000000000000000e+00 1886740808
1.716273 -0.683540 -2.326646 0.000000000000000e+00 1634890835
1.584529 -0.854115 -2.337226 0.000000000000000e+00 1634890835
1.483484 -0.915846 -2.292006 0.000000000000000e+00 1634890835
0.793809 -0.264734 -1.053374 0.000000000000000e+00 1886740808
0.762850 -0.303538 -1.052524 0.000000000000000e+00 1886740808
1.531983 -0.826478 -2.301890 0.000000000000000e+00 1634890835
1.435125 -0.887419 -2.259833 0.000000000000000e+00 1634890835
1.686941 -0.561423 -2.277623 0.000000000000000e+00 1634890835
1.636408 -0.650508 -2.298085 0.000000000000000e+00 1634890835
1.495048 -0.807238 -2.288533 0.000000000000000e+00 1634890835
1.456178 -0.901923 -2.337230 0.000000000000000e+00 1634890835
0.771500 -0.256214 -1.059900 0.000000000000000e+00 1886740808
1.601009 -0.635817 -2.288679 0.000000000000000e+00 1634890835
1.465158 -0.791790 -2.285084 0.000000000000000e+00 1634890835
1.405257 -0.871856 -2.299287 0.000000000000000e+00 1634890835
1.665995 -0.552071 -2.329072 0.000000000000000e+00 1634890835
1.627223 -0.645583 -2.368060 0.000000000000000e+00 1634890835
1.480787 -0.800948 -2.353276 0.000000000000000e+00 1634890835
1.361755 -0.846327 -2.271639 0.000000000000000e+00 1634890835
1.629280 -0.538701 -2.318049 0.000000000000000e+00 1634890835
1.568840 -0.621786 -2.324447 0.000000000000000e+00 1634890835
1.429726 -0.774036 -2.315509 0.000000000000000e+00 1634890835
1.347564 -0.838993 -2.292183 0.000000000000000e+00 1634890835
1.544792 -0.509599 -2.236936 0.000000000000000e+00 1634890835
1.520635 -0.602050 -2.294061 0.000000000000000e+00 1634890835
1.393345 -0.755046 -2.299955 0.000000000000000e+00 1634890835
1.304815 -0.813855 -2.263439 0.000000000000000e+00 1634890835
1.550395 -0.510248 -2.285199 0.000000000000000e+00 1634890835
1.513941 -0.598756 -2.325807 0.000000000000000e+00 1634890835
1.419204 -0.769798 -2.387974 0.000000000000000e+00 1634890835
1.285160 -0.803090 -2.273843 0.000000000000000e+00 1634890835
1.500322 -0.492580 -2.251172 0.000000000000000e+00 1634890835
1.487682 -0.587724 -2.327602 0.000000000000000e+00 1634890835
1.330209 -0.722236 -2.281861 0.000000000000000e+00 1634890835
1.252873 -0.784412 -2.261316 0.000000000000000e+00 1634890835
1.494043 -0.489306 -2.282323 0.000000000000000e+00 1634890835
1.415315 -0.558503 -2.255473 0.000000000000000e+00 1634890835
1.344970 -0.730988 -2.352503 0.000000000000000e+00 1634890835
1.247483 -0.782573 -2.297265 0.000000000000000e+00 1634890835
1.478220 -0.482897 -2.299289 0.000000000000000e+00 1634890835
1.426930 -0.562435 -2.316481 0.000000000000000e+00 1634890835
1.305017 -0.710010 -2.327823 0.000000000000000e+00 1634890835
1.195555 -0.751513 -2.246695 0.000000000000000e+00 1634890835
1.446546 -0.471318 -2.291289 0.000000000000000e+00 1634890835
1.398518 -0.550580 -2.313098 0.000000000000000e+00 1634890835
1.278366 -0.696252 -2.325823 0.000000000000000e+00 1634890835
1.207678 -0.760707 -2.316342 0.000000000000000e+00 1634890835
1.427605 -0.463899 -2.303058 0.000000000000000e+00 1634890835
1.355502 -0.532992 -2.284481 0.000000000000000e+00 1634890835
1.248457 -0.680707 -2.317173 0.000000000000000e+00 1634890835
1.171687 -0.739611 -2.294167 0.000000000000000e+00 1634890835
1.362484 -0.441519 -2.238913 0.000000000000000e+00 1634890835
1.300769 -0.510827 -2.234159 0.000000000000000e+00 1634890835
1.216223 -0.663882 -2.303249 0.000000000000000e+00 1634890835
1.167016 -0.738283 -2.333140 0.000000000000000e+00 1634890835
1.357029 -0.438503 -2.271777 0.000000000000000e+00 1634890835
1.318890 -0.517272 -2.308966 0.000000000000000e+00 1634890835
1.215400 -0.664201 -2.348948 0.000000000000000e+00 1634890835
1.134690 -0.719455 -2.316782 0.000000000000000e+00 1634890835
1.334003 -0.429801 -2.275465 0.000000000000000e+00 1634890835
1.297969 -0.508388 -2.316546 0.000000000000000e+00 1634890835
1.151075 -0.629802 -2.270769 0.000000000000000e+00 1634890835
1.105529 -0.702597 -2.305790 0.000000000000000e+00 1634890835
1.315395 -0.422529 -2.286525 0.000000000000000e+00 1634890835
1.299222 -0.508180 -2.364305 0.000000000000000e+00 1634890835
1.154976 -0.632713 -2.326216 0.000000000000000e+00 1634890835
1.077456 -0.686401 -2.296124 0.000000000000000e+00 1634890835
1.290553 -0.413262 -2.286517 0.000000000000000e+00 1634890835
1.244340 -0.486025 -2.309312 0.000000000000000e+00 1634890835
1.139325 -0.624931 -2.343312 0.000000000000000e+00 1634890835
1.058449 -0.675961 -2.305261 0.000000000000000e+00 1634890835
1.275912 -0.407263 -2.304490 0.000000000000000e+00 1634890835
1.221053 -0.476233 -2.311456 0.000000000000000e+00 1634890835
1.120183 -0.615236 -2.353312 0.000000000000000e+00 1634890835
1.037804 -0.664470 -2.310653 0.000000000000000e+00 1634890835
1.252180 -0.398366 -2.305990 0.000000000000000e+00 1634890835
1.207030 -0.470055 -2.331124 0.000000000000000e+00 1634890835
1.068387 -0.587582 -2.293169 0.000000000000000e+00 1634890835
1.003685 -0.644322 -2.285112 0.000000000000000e+00 1634890835
1.212321 -0.384366 -2.276819 0.000000000000000e+00 1634890835
1.179060 -0.458449 -2.323657 0.000000000000000e+00 1634890835
1.066717 -0.587483 -2.339843 0.000000000000000e+00 1634890835
0.981417 -0.631745 -2.285497 0.000000000000000e+00 1634890835
1.170234 -0.369709 -2.241781 0.000000000000000e+00 1634890835
1.145300 -0.444606 -2.303783 0.000000000000000e+00 1634890835
1.015614 -0.560144 -2.277276 0.000000000000000e+00 1634890835
0.970070 -0.626204 -2.311433 0.000000000000000e+00 1634890835
1.182821 -0.372319 -2.311758 0.000000000000000e+00 1634890835
1.122327 -0.434964 -2.304786 0.000000000000000e+00 1634890835
1.015040 -0.560665 -2.327268 0.000000000000000e+00 1634890835
0.947380 -0.613341 -2.310438 0.000000000000000e+00 1634890835
1.148606 -0.360178 -2.290841 0.000000000000000e+00 1634890835
1.053534 -0.407599 -2.209306 0.000000000000000e+00 1634890835
0.993550 -0.549642 -2.330024 0.000000000000000e+00 1634890835
0.922654 -0.599140 -2.303823 0.000000000000000e+00 1634890835
1.143775 -0.357255 -2.328451 0.000000000000000e+00 1634890835
1.090000 -0.420956 -2.334763 0.000000000000000e+00 1634890835
0.971060 -0.538060 -2.330040 0.000000000000000e+00 1634890835
0.908248 -0.591635 -2.322793 0.000000000000000e+00 1634890835
1.102933 -0.343094 -2.292380 0.000000000000000e+00 1634890835
1.059655 -0.408481 -2.319043 0.000000000000000e+00 1634890835
0.952190 -0.528481 -2.338484 0.000000000000000e+00 1634890835
0.888513 -0.580661 -2.328252 0.000000000000000e+00 1634890835
1.070238 -0.331517 -2.271652 0.000000000000000e+00 1634890835
1.034699 -0.398096 -2.314249 0.000000000000000e+00 1634890835
0.931892 -0.518106 -2.343274 0.000000000000000e+00 1634890835
0.860187 -0.564047 -2.310428 0.000000000000000e+00 1634890835
1.060822 -0.327157 -2.300097 0.000000000000000e+00 1634890835
1.000706 -0.384252 -2.288156 0.000000000000000e+00 1634890835
0.886875 -0.493959 -2.284172 0.000000000000000e+00 1634890835
0.835488 -0.549775 -2.301207 0.000000000000000e+00 1634890835
1.032289 -0.316902 -2.287028 0.000000000000000e+00 1634890835
0.987009 -0.378208 -2.307915 0.000000000000000e+00 1634890835
0.897430 -0.500767 -2.368351 0.000000000000000e+00 1634890835
0.452413 -0.298787 -1.278377 0.000000000000000e+00 1936876886
1.014827 -0.310060 -2.298048 0.000000000000000e+00 1634890835
0.963303 -0.368331 -2.304229 0.000000000000000e+00 1634890835
0.877902 -0.490819 -2.374931 0.000000000000000e+00 1634890835
0.450756 -0.298824 -1.307305 0.000000000000000e+00 1936876886
0.977991 -0.297325 -2.264312 0.000000000000000e+00 1634890835
0.935308 -0.356826 -2.289460 0.000000000000000e+00 1634890835
0.823286 -0.461210 -2.284039 0.000000000000000e+00 1634890835
0.420922 -0.280151 -1.253610 0.000000000000000e+00 1936876886
0.964791 -0.291796 -2.284614 0.000000000000000e+00 1634890835
0.915496 -0.348452 -2.294089 0.000000000000000e+00 1634890835
0.477180 -0.267881 -1.358263 0.000000000000000e+00 1936876886
0.352786 -0.235773 -1.079508 0.000000000000000e+00 1953264973
0.941966 -0.283356 -2.282151 0.000000000000000e+00 1634890835
0.907532 -0.344580 -2.328938 0.000000000000000e+00 1634890835
0.445842 -0.250836 -1.302691 0.000000000000000e+00 1936876886
0.317247 -0.212936 -0.997938 0.000000000000000e+00 1953264973
0.502083 -0.150181 -1.245008 0.000000000000000e+00 1936876886
0.890218 -0.337147 -2.340516 0.000000000000000e+00 1634890835
0.377525 -0.212886 -1.132890 0.000000000000000e+00 1953264973
0.281857 -0.190036 -0.911973 0.000000000000000e+00 1953264973
0.485728 -0.144431 -1.233232 0.000000000000000e+00 1936876886
0.869116 -0.328280 -2.342057 0.000000000000000e+00 1634890835
0.332184 -0.187766 -1.024322 0.000000000000000e+00 1953264973
0.273228 -0.185088 -0.909900 0.000000000000000e+00 1953264973
0.478297 -0.141342 -1.243885 0.000000000000000e+00 1936876886
0.840221 -0.316483 -2.321740 0.000000000000000e+00 1634890835
0.320721 -0.181742 -1.016839 0.000000000000000e+00 1953264973
0.254339 -0.173146 -0.872335 0.000000000000000e+00 1953264973
