# .PCD v0.7 - Point Cloud Data file format
VERSION 0.7
FIELDS x y z rgb label
SIZE 4 4 4 4 4
TYPE F F F F U
COUNT 1 1 1 1 1
WIDTH 534
HEIGHT 1
VIEWPOINT 0 0 0 1 0 0 0
POINTS 534
DATA ascii
36.674183 -18.730808 10.232163 0.000000000000000e+00 1954047316
35.473812 -13.188610 -2.253801 0.000000000000000e+00 1851878480
29.400436 -10.922335 -2.135025 0.000000000000000e+00 1851878480
29.123625 -12.178023 -2.048090 0.000000000000000e+00 1851878480
27.738453 -14.318740 -1.776829 0.000000000000000e+00 1851878480
26.642012 -15.135324 -1.598186 0.000000000000000e+00 1851878480
26.692356 -9.908743 -2.181076 0.000000000000000e+00 1851878480
26.278841 -10.984613 -2.094288 0.000000000000000e+00 1851878480
25.037975 -12.928742 -1.854048 0.000000000000000e+00 1851878480
24.325682 -13.827561 -1.710799 0.000000000000000e+00 1851878480
24.113777 -8.944719 -2.189872 0.000000000000000e+00 1851878480
24.329914 -10.166386 -2.167224 0.000000000000000e+00 1851878480
23.213970 -11.990598 -1.951269 0.000000000000000e+00 1851878480
22.699226 -12.910668 -1.831498 0.000000000000000e+00 1851878480
22.102585 -8.192447 -2.208655 0.000000000000000e+00 1851878480
22.190668 -9.269238 -2.185114 0.000000000000000e+00 1851878480
21.791943 -11.259588 -2.050118 0.000000000000000e+00 1851878480
21.413504 -12.186593 -1.949882 0.000000000000000e+00 1851878480
20.444347 -7.572037 -2.229511 0.000000000000000e+00 1851878480
20.485826 -8.554091 -2.209943 0.000000000000000e+00 1851878480
20.621292 -10.658032 -2.146969 0.000000000000000e+00 1851878480
20.323271 -11.572998 -2.061788 0.000000000000000e+00 1851878480
18.883600 -6.988634 -2.231884 0.000000000000000e+00 1851878480
18.994757 -7.928681 -2.228053 0.000000000000000e+00 1851878480
19.347982 -10.003049 -2.208952 0.000000000000000e+00 1851878480
19.143177 -10.907466 -2.141376 0.000000000000000e+00 1851878480
17.599463 -6.508396 -2.241213 0.000000000000000e+00 1851878480
17.680899 -7.377649 -2.240812 0.000000000000000e+00 1851878480
17.928194 -9.271898 -2.227486 0.000000000000000e+00 1851878480
17.994267 -10.258941 -2.200594 0.000000000000000e+00 1851878480
16.450680 -6.078903 -2.245781 0.000000000000000e+00 1851878480
16.506823 -6.885313 -2.248102 0.000000000000000e+00 1851878480
16.610739 -8.593241 -2.231512 0.000000000000000e+00 1851878480
16.758165 -9.559912 -2.224663 0.000000000000000e+00 1851878480
15.369308 -5.674950 -2.239368 0.000000000000000e+00 1851878480
15.394421 -6.419023 -2.242462 0.000000000000000e+00 1851878480
15.437344 -7.988707 -2.230093 0.000000000000000e+00 1851878480
15.598900 -8.903913 -2.234273 0.000000000000000e+00 1851878480
14.451010 -5.331758 -2.238618 0.000000000000000e+00 1851878480
14.476254 -6.034028 -2.246175 0.000000000000000e+00 1851878480
14.489100 -7.500355 -2.240085 0.000000000000000e+00 1851878480
14.483023 -8.271919 -2.226641 0.000000000000000e+00 1851878480
13.608952 -5.017202 -2.233751 0.000000000000000e+00 1851878480
13.593760 -5.664169 -2.238628 0.000000000000000e+00 1851878480
13.618657 -7.051989 -2.244015 0.000000000000000e+00 1851878480
13.576568 -7.758860 -2.230345 0.000000000000000e+00 1851878480
12.887360 -4.747492 -2.234512 0.000000000000000e+00 1851878480
12.895824 -5.371432 -2.246737 0.000000000000000e+00 1851878480
12.906927 -6.685552 -2.258367 0.000000000000000e+00 1851878480
12.786675 -7.311847 -2.235715 0.000000000000000e+00 1851878480
12.243991 -4.506979 -2.236499 0.000000000000000e+00 1851878480
12.165462 -5.065408 -2.235878 0.000000000000000e+00 1851878480
12.122295 -6.281118 -2.245066 0.000000000000000e+00 1851878480
12.103364 -6.925294 -2.244544 0.000000000000000e+00 1851878480
11.688252 -4.299060 -2.243661 0.000000000000000e+00 1851878480
11.583970 -4.821553 -2.240137 0.000000000000000e+00 1851878480
11.508293 -5.964867 -2.249418 0.000000000000000e+00 1851878480
11.371644 -6.510554 -2.229783 0.000000000000000e+00 1851878480
11.139328 -4.093954 -2.242154 0.000000000000000e+00 1851878480
11.034813 -4.591319 -2.240113 0.000000000000000e+00 1851878480
10.943255 -5.673804 -2.251607 0.000000000000000e+00 1851878480
10.865013 -6.224277 -2.246380 0.000000000000000e+00 1851878480
10.628224 -3.903047 -2.238669 0.000000000000000e+00 1851878480
10.524084 -4.377233 -2.238006 0.000000000000000e+00 1851878480
10.452415 -5.421046 -2.258560 0.000000000000000e+00 1851878480
10.256699 -5.879375 -2.230446 0.000000000000000e+00 1851878480
10.161657 -3.728772 -2.235724 0.000000000000000e+00 1851878480
10.116133 -4.206027 -2.249211 0.000000000000000e+00 1851878480
9.943497 -5.158762 -2.251651 0.000000000000000e+00 1851878480
9.862229 -5.656716 -2.250673 0.000000000000000e+00 1851878480
9.801781 -3.593874 -2.248798 0.000000000000000e+00 1851878480
9.687822 -4.026480 -2.248108 0.000000000000000e+00 1851878480
9.469652 -4.914507 -2.242859 0.000000000000000e+00 1851878480
9.392658 -5.390694 -2.244864 0.000000000000000e+00 1851878480
9.368451 -3.432269 -2.237858 0.000000000000000e+00 1851878480
9.242306 -3.839909 -2.234843 0.000000000000000e+00 1851878480
9.102246 -4.725359 -2.250894 0.000000000000000e+00 1851878480
8.932140 -5.129554 -2.231574 0.000000000000000e+00 1851878480
8.981559 -3.287903 -2.230568 0.000000000000000e+00 1851878480
8.926667 -3.707407 -2.245885 0.000000000000000e+00 1851878480
8.731540 -4.534378 -2.250772 0.000000000000000e+00 1851878480
8.659493 -4.976054 -2.257673 0.000000000000000e+00 1851878480
8.685086 -3.176836 -2.239565 0.000000000000000e+00 1851878480
8.588550 -3.565666 -2.245200 0.000000000000000e+00 1851878480
8.406827 -4.367174 -2.255587 0.000000000000000e+00 1851878480
8.265198 -4.752434 -2.245197 0.000000000000000e+00 1851878480
8.384234 -3.064329 -2.242061 0.000000000000000e+00 1851878480
8.323842 -3.454490 -2.258114 0.000000000000000e+00 1851878480
8.118185 -4.218613 -2.263996 0.000000000000000e+00 1851878480
7.988643 -4.596289 -2.257772 0.000000000000000e+00 1851878480
8.091424 -2.954925 -2.241353 0.000000000000000e+00 1851878480
7.984158 -3.312288 -2.245058 0.000000000000000e+00 1851878480
7.777405 -4.042850 -2.251583 0.000000000000000e+00 1851878480
7.647604 -4.402831 -2.245741 0.000000000000000e+00 1851878480
7.790630 -2.842769 -2.233052 0.000000000000000e+00 1851878480
7.745830 -3.212216 -2.255109 0.000000000000000e+00 1851878480
7.478468 -3.888742 -2.244860 0.000000000000000e+00 1851878480
7.328656 -4.221867 -2.233314 0.000000000000000e+00 1851878480
7.539575 -2.748923 -2.234012 0.000000000000000e+00 1851878480
7.436198 -3.082653 -2.239283 0.000000000000000e+00 1851878480
7.257366 -3.775023 -2.256328 0.000000000000000e+00 1851878480
7.106175 -4.096299 -2.244683 0.000000000000000e+00 1851878480
7.343885 -2.675384 -2.247376 0.000000000000000e+00 1851878480
7.207339 -2.986656 -2.242735 0.000000000000000e+00 1851878480
6.984121 -3.634099 -2.246661 0.000000000000000e+00 1851878480
3.920876 -2.261595 -1.282427 1.880790849211783e-38 1684957512
7.061511 -2.570405 -2.229892 0.000000000000000e+00 1851878480
7.029073 -2.911680 -2.258186 0.000000000000000e+00 1851878480
3.837255 -1.997337 -1.275953 1.880790849211783e-38 1684957512
3.779541 -2.181468 -1.278758 1.880790849211783e-38 1684957512
6.878656 -2.501775 -2.239615 0.000000000000000e+00 1851878480
3.858471 -1.597700 -1.278712 1.880790849211783e-38 1684957512
3.789943 -1.973373 -1.301508 1.880790849211783e-38 1684957512
3.667343 -2.118073 -1.282322 1.880790849211783e-38 1684957512
6.700672 -2.435017 -2.247714 0.000000000000000e+00 1851878480
3.766432 -1.558992 -1.286599 1.880790849211783e-38 1684957512
3.622260 -1.886704 -1.283605 1.880790849211783e-38 1684957512
3.580903 -2.069487 -1.292878 1.880790849211783e-38 1684957512
6.486114 -2.355078 -2.240004 0.000000000000000e+00 1851878480
3.668414 -1.517836 -1.290706 1.880790849211783e-38 1684957512
3.522697 -1.835469 -1.287133 1.880790849211783e-38 1684957512
3.449530 -1.994863 -1.284965 1.880790849211783e-38 1684957512
6.285893 -2.280464 -2.233468 0.000000000000000e+00 1851878480
3.549958 -1.468256 -1.285603 1.880790849211783e-38 1684957512
3.459136 -1.802969 -1.302244 1.880790849211783e-38 1684957512
3.345300 -1.935853 -1.284699 1.880790849211783e-38 1684957512
6.139213 -2.225367 -2.242835 0.000000000000000e+00 1851878480
3.472991 -1.435861 -1.293715 1.880790849211783e-38 1684957512
3.358119 -1.750920 -1.301658 1.880790849211783e-38 1684957512
3.269232 -1.893080 -1.293408 1.880790849211783e-38 1684957512
5.952095 -2.155706 -2.234421 0.000000000000000e+00 1851878480
3.499887 -1.446415 -1.340209 1.880790849211783e-38 1684957512
3.271319 -1.706254 -1.304715 1.880790849211783e-38 1684957512
3.124555 -1.810502 -1.272648 1.880790849211783e-38 1684957512
5.823249 -2.107239 -2.245042 0.000000000000000e+00 1851878480
3.507600 -1.449032 -1.379937 1.880790849211783e-38 1684957512
3.167360 -1.652606 -1.299016 1.880790849211783e-38 1684957512
3.047791 -1.767200 -1.277201 1.880790849211783e-38 1684957512
5.701241 -2.061312 -2.256101 0.000000000000000e+00 1851878480
3.574319 -1.476009 -1.443889 1.880790849211783e-38 1684957512
3.079665 -1.607415 -1.298054 1.880790849211783e-38 1684957512
2.977608 -1.727665 -1.283025 1.880790849211783e-38 1684957512
5.561692 -2.009116 -2.257901 0.000000000000000e+00 1851878480
3.543327 -1.462626 -1.468984 1.880790849211783e-38 1684957512
2.995253 -1.563909 -1.296750 1.880790849211783e-38 1684957512
2.927222 -1.699579 -1.296197 1.880790849211783e-38 1684957512
5.397934 -1.948260 -2.247114 0.000000000000000e+00 1851878480
3.571737 -1.473763 -1.518925 1.880790849211783e-38 1684957512
2.903685 -1.516638 -1.290566 1.880790849211783e-38 1684957512
2.829846 -1.644161 -1.287045 1.880790849211783e-38 1684957512
5.269700 -1.900306 -2.248452 0.000000000000000e+00 1851878480
3.535184 -1.458089 -1.541404 1.880790849211783e-38 1684957512
2.842624 -1.485277 -1.296416 1.880790849211783e-38 1684957512
2.756148 -1.602440 -1.286854 1.880790849211783e-38 1684957512
5.160648 -1.859335 -2.255867 0.000000000000000e+00 1851878480
3.508261 -1.446396 -1.567658 1.880790849211783e-38 1684957512
2.803391 -1.465307 -1.311296 1.880790849211783e-38 1684957512
2.698935 -1.570258 -1.293024 1.880790849211783e-38 1684957512
5.026578 -1.809419 -2.250162 0.000000000000000e+00 1851878480
3.554857 -1.465004 -1.627246 1.880790849211783e-38 1684957512
2.770066 -1.448412 -1.328333 1.880790849211783e-38 1684957512
2.558120 -1.489368 -1.256972 1.880790849211783e-38 1684957512
4.896389 -1.760975 -2.243772 0.000000000000000e+00 1851878480
3.471798 -1.430184 -1.627360 1.880790849211783e-38 1684957512
2.763795 -1.445664 -1.358130 1.880790849211783e-38 1684957512
2.567955 -1.496142 -1.293588 1.880790849211783e-38 1684957512
4.798363 -1.724158 -2.250066 0.000000000000000e+00 1851878480
3.524461 -1.451274 -1.691044 1.880790849211783e-38 1684957512
2.806635 -1.468613 -1.412756 1.880790849211783e-38 1684957512
2.472856 -1.441753 -1.276540 1.880790849211783e-38 1684957512
4.672633 -1.677451 -2.241346 0.000000000000000e+00 1851878480
3.520097 -1.448868 -1.728194 1.880790849211783e-38 1684957512
2.774163 -1.452163 -1.429864 1.880790849211783e-38 1684957512
2.522892 -1.471974 -1.334114 1.880790849211783e-38 1684957512
4.574995 -1.640890 -2.244067 0.000000000000000e+00 1851878480
3.546340 -1.459052 -1.780919 1.880790849211783e-38 1684957512
2.804150 -1.468410 -1.479414 1.880790849211783e-38 1684957512
2.464148 -1.438733 -1.334321 1.880790849211783e-38 1684957512
4.477611 -1.604478 -2.245174 0.000000000000000e+00 1851878480
3.492197 -1.436164 -1.793274 1.880790849211783e-38 1684957512
2.814544 -1.474409 -1.519408 1.880790849211783e-38 1684957512
2.507113 -1.464880 -1.389683 1.880790849211783e-38 1684957512
4.422046 -1.583086 -2.265959 0.000000000000000e+00 1851878480
3.525610 -1.449280 -1.850677 1.880790849211783e-38 1684957512
2.778388 -1.456024 -1.534252 1.880790849211783e-38 1684957512
2.482845 -1.451760 -1.408301 1.880790849211783e-38 1684957512
4.274068 -1.528672 -2.237528 0.000000000000000e+00 1851878480
3.546739 -1.457333 -1.902590 1.880790849211783e-38 1684957512
2.777579 -1.456160 -1.568462 1.880790849211783e-38 1684957512
2.491883 -1.458119 -1.445910 1.880790849211783e-38 1684957512
4.178550 -1.493087 -2.234240 0.000000000000000e+00 1851878480
3.550606 -1.458284 -1.945877 1.880790849211783e-38 1684957512
2.797341 -1.467090 -1.614839 1.880790849211783e-38 1684957512
2.516132 -1.473403 -1.493086 1.880790849211783e-38 1684957512
4.143090 -1.478999 -2.261989 0.000000000000000e+00 1851878480
3.515563 -1.443254 -1.967830 1.880790849211783e-38 1684957512
2.784833 -1.461102 -1.643003 1.880790849211783e-38 1684957512
2.482405 -1.454746 -1.506047 1.880790849211783e-38 1684957512
4.058656 -1.447457 -2.262040 0.000000000000000e+00 1851878480
3.559747 -1.460743 -2.034606 1.880790849211783e-38 1684957512
2.755733 -1.446405 -1.661179 1.880790849211783e-38 1684957512
2.440085 -1.431029 -1.513101 1.880790849211783e-38 1684957512
4.017704 -1.431455 -2.285300 0.000000000000000e+00 1634890835
3.495153 -1.433591 -2.039340 1.880790849211783e-38 1684957512
2.787899 -1.463874 -1.716672 1.880790849211783e-38 1684957512
2.494167 -1.463865 -1.580428 1.880790849211783e-38 1684957512
3.920090 -1.395299 -2.275144 0.000000000000000e+00 1634890835
3.483846 -1.428306 -2.074646 1.880790849211783e-38 1684957512
2.792397 -1.466823 -1.755959 1.880790849211783e-38 1684957512
2.483358 -1.458647 -1.607566 1.880790849211783e-38 1684957512
3.845937 -1.367544 -2.277022 0.000000000000000e+00 1634890835
3.519605 -1.442305 -2.138671 1.880790849211783e-38 1684957512
2.790066 -1.466196 -1.791347 1.880790849211783e-38 1684957512
2.493776 -1.465909 -1.648795 1.880790849211783e-38 1684957512
3.791423 -1.346806 -2.289437 0.000000000000000e+00 1634890835
3.553809 -1.455650 -2.203016 1.880790849211783e-38 1684957512
2.772814 -1.457729 -1.817272 1.880790849211783e-38 1684957512
2.460292 -1.447367 -1.661040 1.880790849211783e-38 1684957512
3.716673 -1.318914 -2.288527 0.000000000000000e+00 1634890835
3.533413 -1.446620 -2.234107 1.880790849211783e-38 1684957512
2.784330 -1.464392 -1.862364 1.880790849211783e-38 1684957512
2.475615 -1.457543 -1.706359 1.880790849211783e-38 1684957512
3.619926 -1.283266 -2.272451 0.000000000000000e+00 1634890835
3.567232 -1.459774 -2.300087 1.880790849211783e-38 1684957512
2.795403 -1.470831 -1.907868 1.880790849211783e-38 1684957512
2.442417 -1.439154 -1.718364 1.880790849211783e-38 1684957512
3.556137 -1.259346 -2.275558 0.000000000000000e+00 1634890835
3.496419 -1.430115 -2.298586 0.000000000000000e+00 1634890835
2.774970 -1.460700 -1.932154 1.880790849211783e-38 1684957512
2.454955 -1.447720 -1.762648 1.880790849211783e-38 1684957512
3.511406 -1.242202 -2.289973 0.000000000000000e+00 1634890835
3.429666 -1.402133 -2.298466 0.000000000000000e+00 1634890835
2.772433 -1.459989 -1.969008 1.880790849211783e-38 1684957512
2.441808 -1.441151 -1.788887 1.880790849211783e-38 1684957512
3.423709 -1.209898 -2.275177 0.000000000000000e+00 1634890835
3.390529 -1.385457 -2.315962 0.000000000000000e+00 1634890835
2.777142 -1.463102 -2.011476 1.880790849211783e-38 1684957512
2.493003 -1.472591 -1.863247 1.880790849211783e-38 1684957512
3.378838 -1.192763 -2.287639 0.000000000000000e+00 1634890835
3.304091 -1.349473 -2.299992 0.000000000000000e+00 1634890835
2.805085 -1.478471 -2.071692 1.880790849211783e-38 1684957512
2.476441 -1.464040 -1.887918 1.880790849211783e-38 1684957512
3.311176 -1.167611 -2.283707 0.000000000000000e+00 1634890835
3.235443 -1.320775 -2.294849 0.000000000000000e+00 1634890835
2.779422 -1.465594 -2.092816 1.880790849211783e-38 1684957512
2.458373 -1.454595 -1.911373 1.880790849211783e-38 1684957512
3.258608 -1.147816 -2.289114 0.000000000000000e+00 1634890835
3.181412 -1.298064 -2.298928 0.000000000000000e+00 1634890835
2.732615 -1.441559 -2.097447 1.880790849211783e-38 1684957512
2.429626 -1.438825 -1.926274 1.880790849211783e-38 1684957512
3.215310 -1.131309 -2.300264 0.000000000000000e+00 1634890835
3.186182 -1.299347 -2.345329 0.000000000000000e+00 1634890835
2.777275 -1.465782 -2.172750 1.880790849211783e-38 1684957512
2.467212 -1.462359 -1.994382 1.880790849211783e-38 1684957512
3.184554 -1.119230 -2.319895 0.000000000000000e+00 1634890835
3.042587 -1.240149 -2.281125 0.000000000000000e+00 1634890835
2.751816 -1.453015 -2.193989 1.880790849211783e-38 1684957512
2.456421 -1.457248 -2.024291 1.880790849211783e-38 1684957512
2.995934 -1.051744 -2.222111 0.000000000000000e+00 1634890835
2.989249 -1.217770 -2.282390 0.000000000000000e+00 1634890835
2.741390 -1.448181 -2.227196 1.880790849211783e-38 1684957512
0.901845 -0.535489 -0.757564 0.000000000000000e+00 1886740808
3.040709 -1.066234 -2.296009 0.000000000000000e+00 1634890835
2.935022 -1.195047 -2.281985 0.000000000000000e+00 1634890835
2.735366 -1.445680 -2.264270 0.000000000000000e+00 1851878480
0.854267 -0.507698 -0.731394 0.000000000000000e+00 1886740808
3.021945 -1.058422 -2.322761 0.000000000000000e+00 1634890835
2.895152 -1.178183 -2.291927 0.000000000000000e+00 1634890835
0.876201 -0.463306 -0.738919 0.000000000000000e+00 1886740808
0.840473 -0.499959 -0.733343 0.000000000000000e+00 1886740808
2.935247 -1.026844 -2.296354 0.000000000000000e+00 1634890835
2.836468 -1.153672 -2.286084 0.000000000000000e+00 1634890835
0.860550 -0.455249 -0.739276 0.000000000000000e+00 1886740808
0.807049 -0.480523 -0.717575 0.000000000000000e+00 1886740808
2.907727 -1.016000 -2.315174 0.000000000000000e+00 1634890835
2.802166 -1.139095 -2.299077 0.000000000000000e+00 1634890835
0.871908 -0.461484 -0.762958 0.000000000000000e+00 1886740808
0.748373 -0.446007 -0.678003 0.000000000000000e+00 1886740808
2.796915 -0.976098 -2.266248 0.000000000000000e+00 1634890835
2.764027 -1.122965 -2.308393 0.000000000000000e+00 1634890835
0.799991 -0.423630 -0.712981 0.000000000000000e+00 1886740808
0.778555 -0.464438 -0.718643 0.000000000000000e+00 1886740808
2.780669 -0.969235 -2.292663 0.000000000000000e+00 1634890835
0.808623 -0.328341 -0.687365 0.000000000000000e+00 1886740808
0.786870 -0.416892 -0.714210 0.000000000000000e+00 1886740808
0.767839 -0.458489 -0.722058 0.000000000000000e+00 1886740808
0.898150 -0.312671 -0.753476 0.000000000000000e+00 1886740808
0.870458 -0.353246 -0.753061 0.000000000000000e+00 1886740808
0.835881 -0.443084 -0.772621 0.000000000000000e+00 1886740808
0.749134 -0.447760 -0.717645 0.000000000000000e+00 1886740808
0.842489 -0.292924 -0.719093 0.000000000000000e+00 1886740808
0.797561 -0.323475 -0.702195 0.000000000000000e+00 1886740808
0.762008 -0.404134 -0.717221 0.000000000000000e+00 1886740808
0.777711 -0.465304 -0.758909 0.000000000000000e+00 1886740808
0.806631 -0.280097 -0.700434 0.000000000000000e+00 1886740808
0.807502 -0.327314 -0.723473 0.000000000000000e+00 1886740808
0.797438 -0.423147 -0.764252 0.000000000000000e+00 1886740808
0.793476 -0.475216 -0.788684 0.000000000000000e+00 1886740808
0.822021 -0.285070 -0.726143 0.000000000000000e+00 1886740808
0.786240 -0.318506 -0.716794 0.000000000000000e+00 1886740808
0.769426 -0.408501 -0.750811 0.000000000000000e+00 1886740808
0.748378 -0.448668 -0.757647 0.000000000000000e+00 1886740808
0.788971 -0.273247 -0.708962 0.000000000000000e+00 1886740808
0.772549 -0.312769 -0.716642 0.000000000000000e+00 1886740808
0.764543 -0.406128 -0.759573 0.000000000000000e+00 1886740808
0.753478 -0.452196 -0.776915 0.000000000000000e+00 1886740808
0.783243 -0.270899 -0.715913 0.000000000000000e+00 1886740808
0.743460 -0.300807 -0.701700 0.000000000000000e+00 1886740808
0.796178 -0.423165 -0.805312 0.000000000000000e+00 1886740808
0.765766 -0.460057 -0.804157 0.000000000000000e+00 1886740808
0.761182 -0.262911 -0.707677 0.000000000000000e+00 1886740808
0.734917 -0.297164 -0.705720 0.000000000000000e+00 1886740808
0.787840 -0.418967 -0.811266 0.000000000000000e+00 1886740808
0.767485 -0.461586 -0.820811 0.000000000000000e+00 1886740808
0.756215 -0.260834 -0.715086 0.000000000000000e+00 1886740808
0.744226 -0.300737 -0.727082 0.000000000000000e+00 1886740808
0.774146 -0.411918 -0.811534 0.000000000000000e+00 1886740808
2.118255 -1.275370 -2.307113 0.000000000000000e+00 1634890835
0.848757 -0.292342 -0.816298 0.000000000000000e+00 1886740808
0.811741 -0.327808 -0.806803 0.000000000000000e+00 1886740808
0.770754 -0.410350 -0.822524 0.000000000000000e+00 1886740808
2.075421 -1.250969 -2.302005 0.000000000000000e+00 1634890835
0.743946 -0.255876 -0.727691 0.000000000000000e+00 1886740808
0.774081 -0.312394 -0.782703 0.000000000000000e+00 1886740808
2.124171 -1.131570 -2.307616 0.000000000000000e+00 1634890835
2.014280 -1.215489 -2.275223 0.000000000000000e+00 1634890835
0.741723 -0.254740 -0.737866 0.000000000000000e+00 1886740808
0.724524 -0.292199 -0.745274 0.000000000000000e+00 1886740808
2.054554 -1.095137 -2.272102 0.000000000000000e+00 1634890835
0.808164 -0.488235 -0.929617 0.000000000000000e+00 1886740808
0.714857 -0.245151 -0.723230 0.000000000000000e+00 1886740808
0.773975 -0.311931 -0.809908 0.000000000000000e+00 1886740808
2.048156 -1.092388 -2.305721 0.000000000000000e+00 1634890835
0.789187 -0.477329 -0.924454 0.000000000000000e+00 1886740808
0.727005 -0.248942 -0.748016 0.000000000000000e+00 1886740808
0.774445 -0.311904 -0.824405 0.000000000000000e+00 1886740808
2.028641 -1.082646 -2.324782 0.000000000000000e+00 1634890835
0.774767 -0.469165 -0.924227 0.000000000000000e+00 1886740808
0.719060 -0.245845 -0.752405 0.000000000000000e+00 1886740808
2.126783 -0.855951 -2.303105 0.000000000000000e+00 1634890835
0.832298 -0.444460 -0.970938 0.000000000000000e+00 1886740808
0.785379 -0.476167 -0.954101 0.000000000000000e+00 1886740808
0.762657 -0.260345 -0.811571 0.000000000000000e+00 1886740808
2.120963 -0.852999 -2.336488 0.000000000000000e+00 1634890835
0.820306 -0.438336 -0.974156 0.000000000000000e+00 1886740808
0.785223 -0.476661 -0.971455 0.000000000000000e+00 1886740808
0.772669 -0.263344 -0.836185 0.000000000000000e+00 1886740808
2.048284 -0.823169 -2.295425 0.000000000000000e+00 1634890835
0.806946 -0.431478 -0.975539 0.000000000000000e+00 1886740808
1.814806 -1.103042 -2.286569 0.000000000000000e+00 1634890835
2.075165 -0.706123 -2.283891 0.000000000000000e+00 1634890835
2.056659 -0.825921 -2.344672 0.000000000000000e+00 1634890835
0.777671 -0.416100 -0.957089 0.000000000000000e+00 1886740808
1.810773 -1.102000 -2.323565 0.000000000000000e+00 1634890835
2.059988 -0.699805 -2.305719 0.000000000000000e+00 1634890835
1.995255 -0.800657 -2.314049 0.000000000000000e+00 1634890835
0.797191 -0.426832 -0.998820 0.000000000000000e+00 1886740808
0.765355 -0.466388 -1.000242 0.000000000000000e+00 1886740808
2.046000 -0.693886 -2.329021 0.000000000000000e+00 1634890835
1.946114 -0.780335 -2.296177 0.000000000000000e+00 1634890835
0.775012 -0.415242 -0.988591 0.000000000000000e+00 1886740808
1.745869 -1.065304 -2.323933 0.000000000000000e+00 1634890835
2.002788 -0.678067 -2.318662 0.000000000000000e+00 1634890835
0.817739 -0.327633 -0.981582 0.000000000000000e+00 1886740808
1.772788 -0.950508 -2.302318 0.000000000000000e+00 1634890835
1.714175 -1.047385 -2.324112 0.000000000000000e+00 1634890835
1.955436 -0.660880 -2.302460 0.000000000000000e+00 1634890835
0.826898 -0.331037 -1.009838 0.000000000000000e+00 1886740808
0.766363 -0.411191 -1.013357 0.000000000000000e+00 1886740808
1.670102 -1.021870 -2.306523 0.000000000000000e+00 1634890835
1.910551 -0.644560 -2.288054 0.000000000000000e+00 1634890835
0.796194 -0.318484 -0.989289 0.000000000000000e+00 1886740808
1.702394 -0.914083 -2.292077 0.000000000000000e+00 1634890835
1.609623 -0.986258 -2.264527 0.000000000000000e+00 1634890835
0.815294 -0.274554 -0.993109 0.000000000000000e+00 1886740808
0.783628 -0.313196 -0.990686 0.000000000000000e+00 1886740808
1.724747 -0.926778 -2.364619 0.000000000000000e+00 1634890835
1.620424 -0.994309 -2.322465 0.000000000000000e+00 1634890835
0.782170 -0.262910 -0.969117 0.000000000000000e+00 1886740808
0.831189 -0.331922 -1.069224 0.000000000000000e+00 1886740808
1.682577 -0.904806 -2.349114 0.000000000000000e+00 1634890835
1.590960 -0.977671 -2.323158 0.000000000000000e+00 1634890835
0.825652 -0.276999 -1.040602 0.000000000000000e+00 1886740808
0.764767 -0.305132 -1.001068 0.000000000000000e+00 1886740808
1.644124 -0.884817 -2.337692 0.000000000000000e+00 1634890835
1.554958 -0.956987 -2.313508 0.000000000000000e+00 1634890835
0.788271 -0.263945 -1.010643 0.000000000000000e+00 1886740808
1.732065 -0.690457 -2.307224 0.000000000000000e+00 1634890835
1.601913 -0.862784 -2.319786 0.000000000000000e+00 1634890835
1.508756 -0.929983 -2.287397 0.000000000000000e+00 1634890835
0.790919 -0.264307 -1.031604 0.000000000000000e+00 1886740808
1.734722 -0.690888 -2.351656 0.000000000000000e+00 1634890835
1.571714 -0.847207 -2.318324 0.000000000000000e+00 1634890835
1.502084 -0.927329 -2.320744 0.000000000000000e+00 1634890835
0.758953 -0.253110 -1.007121 0.000000000000000e+00 1886740808
0.756103 -0.300853 -1.043214 0.000000000000000e+00 1886740808
1.559951 -0.841566 -2.343914 0.000000000000000e+00 1634890835
1.462229 -0.904179 -2.302512 0.000000000000000e+00 1634890835
1.727826 -0.575030 -2.332824 0.000000000000000e+00 1634890835
1.643616 -0.653373 -2.308207 0.000000000000000e+00 1634890835
1.483945 -0.801243 -2.271537 0.000000000000000e+00 1634890835
1.424577 -0.882350 -2.286510 0.000000000000000e+00 1634890835
0.770053 -0.255734 -1.057912 0.000000000000000e+00 1886740808
1.595047 -0.633449 -2.280157 0.000000000000000e+00 1634890835
1.488115 -0.804196 -2.320888 0.000000000000000e+00 1634890835
1.411113 -0.875489 -2.308868 0.000000000000000e+00 1634890835
1.628718 -0.539718 -2.276959 0.000000000000000e+00 1634890835
1.576284 -0.625373 -2.293929 0.000000000000000e+00 1634890835
1.433994 -0.775638 -2.278912 0.000000000000000e+00 1634890835
1.413027 -0.878192 -2.357168 0.000000000000000e+00 1634890835
1.604841 -0.530621 -2.283279 0.000000000000000e+00 1634890835
1.546105 -0.612775 -2.290762 0.000000000000000e+00 1634890835
1.419042 -0.768252 -2.298207 0.000000000000000e+00 1634890835
1.318905 -0.821150 -2.243435 0.000000000000000e+00 1634890835
1.564525 -0.516109 -2.265511 0.000000000000000e+00 1634890835
1.510977 -0.598226 -2.279491 0.000000000000000e+00 1634890835
1.399584 -0.758427 -2.310254 0.000000000000000e+00 1634890835
1.313469 -0.819253 -2.278452 0.000000000000000e+00 1634890835
1.542802 -0.507749 -2.274007 0.000000000000000e+00 1634890835
1.485552 -0.587529 -2.282195 0.000000000000000e+00 1634890835
1.386883 -0.752266 -2.333590 0.000000000000000e+00 1634890835
1.281572 -0.800848 -2.267494 0.000000000000000e+00 1634890835
1.517675 -0.498278 -2.277210 0.000000000000000e+00 1634890835
1.489223 -0.588333 -2.330014 0.000000000000000e+00 1634890835
1.358639 -0.737672 -2.330630 0.000000000000000e+00 1634890835
1.287365 -0.806008 -2.323571 0.000000000000000e+00 1634890835
1.486049 -0.486688 -2.270112 0.000000000000000e+00 1634890835
1.431245 -0.564790 -2.280861 0.000000000000000e+00 1634890835
1.306977 -0.710339 -2.286048 0.000000000000000e+00 1634890835
1.273496 -0.798892 -2.345167 0.000000000000000e+00 1634890835
1.481984 -0.484127 -2.305144 0.000000000000000e+00 1634890835
1.415545 -0.557948 -2.297999 0.000000000000000e+00 1634890835
1.297982 -0.706183 -2.315274 0.000000000000000e+00 1634890835
1.213791 -0.762976 -2.280965 0.000000000000000e+00 1634890835
1.454592 -0.473939 -2.304033 0.000000000000000e+00 1634890835
1.373746 -0.540828 -2.272126 0.000000000000000e+00 1634890835
1.279628 -0.696940 -2.328120 0.000000000000000e+00 1634890835
1.171412 -0.737864 -2.246785 0.000000000000000e+00 1634890835
1.423800 -0.462663 -2.296920 0.000000000000000e+00 1634890835
1.362234 -0.535639 -2.295826 0.000000000000000e+00 1634890835
1.225196 -0.668024 -2.273999 0.000000000000000e+00 1634890835
1.153810 -0.728327 -2.259164 0.000000000000000e+00 1634890835
1.382494 -0.448003 -2.271793 0.000000000000000e+00 1634890835
1.333169 -0.523551 -2.289809 0.000000000000000e+00 1634890835
1.232122 -0.672560 -2.333357 0.000000000000000e+00 1634890835
1.146619 -0.725379 -2.292361 0.000000000000000e+00 1634890835
1.363815 -0.440696 -2.283138 0.000000000000000e+00 1634890835
1.314639 -0.515605 -2.301524 0.000000000000000e+00 1634890835
1.183313 -0.646666 -2.286936 0.000000000000000e+00 1634890835
1.142014 -0.724099 -2.331734 0.000000000000000e+00 1634890835
1.352626 -0.435801 -2.307232 0.000000000000000e+00 1634890835
1.307542 -0.512138 -2.333632 0.000000000000000e+00 1634890835
1.166649 -0.638323 -2.301491 0.000000000000000e+00 1634890835
1.097482 -0.697483 -2.289008 0.000000000000000e+00 1634890835
1.285981 -0.413081 -2.235394 0.000000000000000e+00 1634890835
1.275721 -0.498988 -2.321538 0.000000000000000e+00 1634890835
1.189271 -0.651500 -2.395289 0.000000000000000e+00 1634890835
1.078548 -0.687097 -2.298451 0.000000000000000e+00 1634890835
1.301267 -0.416693 -2.305500 0.000000000000000e+00 1634890835
1.251187 -0.488699 -2.322019 0.000000000000000e+00 1634890835
1.117691 -0.613065 -2.298816 0.000000000000000e+00 1634890835
1.060125 -0.677032 -2.308911 0.000000000000000e+00 1634890835
1.248337 -0.398461 -2.254685 0.000000000000000e+00 1634890835
1.232721 -0.480783 -2.333543 0.000000000000000e+00 1634890835
1.098171 -0.603147 -2.307070 0.000000000000000e+00 1634890835
1.027562 -0.657913 -2.287851 0.000000000000000e+00 1634890835
1.255122 -0.399302 -2.311407 0.000000000000000e+00 1634890835
1.215242 -0.473253 -2.346982 0.000000000000000e+00 1634890835
1.090427 -0.599704 -2.340476 0.000000000000000e+00 1634890835
1.013968 -0.650923 -2.308523 0.000000000000000e+00 1634890835
1.214255 -0.384979 -2.280452 0.000000000000000e+00 1634890835
1.176006 -0.457261 -2.317637 0.000000000000000e+00 1634890835
1.043532 -0.574714 -2.288986 0.000000000000000e+00 1634890835
0.976920 -0.628851 -2.275024 0.000000000000000e+00 1634890835
1.213204 -0.383285 -2.324097 0.000000000000000e+00 1634890835
1.138844 -0.442100 -2.290797 0.000000000000000e+00 1634890835
1.035899 -0.571333 -2.322762 0.000000000000000e+00 1634890835
0.989763 -0.638916 -2.358358 0.000000000000000e+00 1634890835
1.166307 -0.367120 -2.279483 0.000000000000000e+00 1634890835
1.107411 -0.429183 -2.274156 0.000000000000000e+00 1634890835
1.011380 -0.558643 -2.318877 0.000000000000000e+00 1634890835
0.956451 -0.619214 -2.332560 0.000000000000000e+00 1634890835
1.145990 -0.359358 -2.285622 0.000000000000000e+00 1634890835
1.105484 -0.427698 -2.318248 0.000000000000000e+00 1634890835
0.978524 -0.541330 -2.294787 0.000000000000000e+00 1634890835
0.925108 -0.600733 -2.309948 0.000000000000000e+00 1634890835
1.145103 -0.357670 -2.331156 0.000000000000000e+00 1634890835
1.071711 -0.413893 -2.295589 0.000000000000000e+00 1634890835
0.973161 -0.539224 -2.335081 0.000000000000000e+00 1634890835
0.905993 -0.590165 -2.317025 0.000000000000000e+00 1634890835
1.095781 -0.340870 -2.277515 0.000000000000000e+00 1634890835
1.031864 -0.397768 -2.258222 0.000000000000000e+00 1634890835
0.946895 -0.525542 -2.325480 0.000000000000000e+00 1634890835
0.874257 -0.571344 -2.290895 0.000000000000000e+00 1634890835
1.072186 -0.332120 -2.275788 0.000000000000000e+00 1634890835
1.039975 -0.400126 -2.326049 0.000000000000000e+00 1634890835
0.916391 -0.509488 -2.304298 0.000000000000000e+00 1634890835
0.851788 -0.558540 -2.287869 0.000000000000000e+00 1634890835
1.067036 -0.329073 -2.313570 0.000000000000000e+00 1634890835
1.006650 -0.386534 -2.301748 0.000000000000000e+00 1634890835
0.911131 -0.507469 -2.346645 0.000000000000000e+00 1634890835
0.844481 -0.555692 -2.325977 0.000000000000000e+00 1634890835
1.035133 -0.317776 -2.293329 0.000000000000000e+00 1634890835
0.999870 -0.383136 -2.337987 0.000000000000000e+00 1634890835
0.874345 -0.487885 -2.307429 0.000000000000000e+00 1634890835
0.455370 -0.300740 -1.286731 0.000000000000000e+00 1936876886
1.017858 -0.310986 -2.304913 0.000000000000000e+00 1634890835
0.969969 -0.370880 -2.320176 0.000000000000000e+00 1634890835
0.859294 -0.480415 -2.324591 0.000000000000000e+00 1634890835
0.447365 -0.296576 -1.297470 0.000000000000000e+00 1936876886
0.995242 -0.302570 -2.304252 0.000000000000000e+00 1634890835
0.935615 -0.356943 -2.290211 0.000000000000000e+00 1634890835
0.840041 -0.470597 -2.330524 0.000000000000000e+00 1634890835
0.438451 -0.291818 -1.305816 0.000000000000000e+00 1936876886
0.965878 -0.292125 -2.287187 0.000000000000000e+00 1634890835
0.931996 -0.354732 -2.335435 0.000000000000000e+00 1634890835
0.476485 -0.267490 -1.356282 0.000000000000000e+00 1936876886
0.336713 -0.225030 -1.030323 0.000000000000000e+00 1953264973
0.925896 -0.278522 -2.243215 0.000000000000000e+00 1634890835
0.895918 -0.340170 -2.299136 0.000000000000000e+00 1634890835
0.440031 -0.247567 -1.285711 0.000000000000000e+00 1936876886
0.300720 -0.201843 -0.945952 0.000000000000000e+00 1953264973
0.503697 -0.150664 -1.249009 0.000000000000000e+00 1936876886
0.872744 -0.330529 -2.294572 0.000000000000000e+00 1634890835
0.361444 -0.203818 -1.084633 0.000000000000000e+00 1953264973
0.280347 -0.189017 -0.907085 0.000000000000000e+00 1953264973
0.484640 -0.144107 -1.230469 0.000000000000000e+00 1936876886
0.843077 -0.318444 -2.271887 0.000000000000000e+00 1634890835
0.348879 -0.197203 -1.075805 0.000000000000000e+00 1953264973
0.260470 -0.176446 -0.867414 0.000000000000000e+00 1953264973
0.480159 -0.141892 -1.248729 0.000000000000000e+00 1936876886
0.827301 -0.311617 -2.286039 0.000000000000000e+00 1634890835
0.308135 -0.174609 -0.976934 0.000000000000000e+00 1953264973
0.229144 -0.155993 -0.785918 0.000000000000000e+00 1953264973
