# .PCD v0.7 - Point Cloud Data file format
VERSION 0.7
FIELDS x y z rgb label
SIZE 4 4 4 4 4
TYPE F F F F U
COUNT 1 1 1 1 1
WIDTH 540
HEIGHT 1
VIEWPOINT 0 0 0 1 0 0 0
POINTS 540
DATA ascii
40.703747 -20.809099 10.081388 0.000000000000000e+00 1954047316
39.774803 -22.196569 10.002728 0.000000000000000e+00 1954047316
31.278536 -16.136168 -1.379521 0.000000000000000e+00 1851878480
30.131220 -17.097363 -1.185458 0.000000000000000e+00 1851878480
31.774910 -11.813417 -2.018795 0.000000000000000e+00 1851878480
30.573683 -12.788820 -1.863841 0.000000000000000e+00 1851878480
28.575096 -14.746045 -1.545208 0.000000000000000e+00 1851878480
27.754837 -15.758221 -1.378292 0.000000000000000e+00 1851878480
28.868206 -10.724609 -2.096375 0.000000000000000e+00 1851878480
28.073820 -11.739049 -1.974263 0.000000000000000e+00 1851878480
27.029282 -13.952662 -1.731402 0.000000000000000e+00 1851878480
26.328590 -14.957269 -1.579385 0.000000000000000e+00 1851878480
26.690529 -9.908064 -2.180927 0.000000000000000e+00 1851878480
26.319376 -11.001557 -2.097519 0.000000000000000e+00 1851878480
25.685841 -13.263277 -1.902023 0.000000000000000e+00 1851878480
24.930202 -14.171193 -1.753313 0.000000000000000e+00 1851878480
24.428371 -9.061413 -2.218442 0.000000000000000e+00 1851878480
24.628714 -10.291241 -2.193839 0.000000000000000e+00 1851878480
23.908094 -12.349130 -2.009614 0.000000000000000e+00 1851878480
23.519880 -13.377433 -1.897713 0.000000000000000e+00 1851878480
22.307793 -8.268508 -2.229160 0.000000000000000e+00 1851878480
22.561178 -9.424004 -2.221597 0.000000000000000e+00 1851878480
22.178402 -11.459268 -2.086475 0.000000000000000e+00 1851878480
21.915112 -12.472061 -1.995557 0.000000000000000e+00 1851878480
20.480076 -7.585269 -2.233407 0.000000000000000e+00 1851878480
20.615341 -8.608171 -2.223914 0.000000000000000e+00 1851878480
20.593746 -10.643795 -2.144101 0.000000000000000e+00 1851878480
20.202991 -11.504504 -2.049586 0.000000000000000e+00 1851878480
18.925404 -7.004105 -2.236825 0.000000000000000e+00 1851878480
18.978252 -7.921793 -2.226117 0.000000000000000e+00 1851878480
19.196819 -9.924896 -2.191694 0.000000000000000e+00 1851878480
18.804726 -10.714622 -2.103516 0.000000000000000e+00 1851878480
17.577663 -6.500334 -2.238437 0.000000000000000e+00 1851878480
17.604689 -7.345850 -2.231154 0.000000000000000e+00 1851878480
17.716274 -9.162299 -2.201156 0.000000000000000e+00 1851878480
17.641640 -10.057899 -2.157470 0.000000000000000e+00 1851878480
16.396885 -6.059024 -2.238437 0.000000000000000e+00 1851878480
16.435862 -6.855713 -2.238437 0.000000000000000e+00 1851878480
16.472824 -8.521894 -2.212985 0.000000000000000e+00 1851878480
16.522484 -9.425463 -2.193376 0.000000000000000e+00 1851878480
8.776181 -3.240509 -1.278724 1.880790849211783e-38 1684957512
15.366795 -6.407504 -2.238437 0.000000000000000e+00 1851878480
15.391430 -7.964948 -2.223460 0.000000000000000e+00 1851878480
15.393373 -8.786597 -2.204835 0.000000000000000e+00 1851878480
8.254582 -3.045561 -1.278724 1.880790849211783e-38 1684957512
8.241179 -3.435108 -1.278724 1.880790849211783e-38 1684957512
14.465504 -7.488139 -2.236436 0.000000000000000e+00 1851878480
14.433331 -8.243538 -2.219002 0.000000000000000e+00 1851878480
7.790524 -2.872127 -1.278724 1.880790849211783e-38 1684957512
7.764875 -3.235423 -1.278724 1.880790849211783e-38 1684957512
13.584814 -7.034464 -2.238438 0.000000000000000e+00 1851878480
13.588267 -7.765546 -2.232267 0.000000000000000e+00 1851878480
7.432609 -2.738052 -1.288724 1.880790849211783e-38 1684957512
7.432608 -3.095866 -1.294924 1.880790849211783e-38 1684957512
12.793029 -6.626555 -2.238438 0.000000000000000e+00 1851878480
12.802253 -7.320754 -2.238438 0.000000000000000e+00 1851878480
7.432609 -2.735922 -1.357647 1.880790849211783e-38 1684957512
7.432609 -3.094761 -1.366032 1.880790849211783e-38 1684957512
12.086509 -6.262575 -2.238438 0.000000000000000e+00 1851878480
12.070438 -6.906456 -2.238438 0.000000000000000e+00 1851878480
7.432609 -2.733790 -1.426753 1.880790849211783e-38 1684957512
7.432609 -3.093647 -1.437336 1.880790849211783e-38 1684957512
11.452121 -5.935752 -2.238438 0.000000000000000e+00 1851878480
11.415787 -6.535828 -2.238438 0.000000000000000e+00 1851878480
7.432609 -2.731651 -1.496055 1.880790849211783e-38 1684957512
7.432608 -3.092529 -1.508850 1.880790849211783e-38 1684957512
10.879249 -5.640618 -2.238438 0.000000000000000e+00 1851878480
10.826599 -6.202271 -2.238438 0.000000000000000e+00 1851878480
7.432609 -2.729508 -1.565563 1.880790849211783e-38 1684957512
7.432608 -3.091410 -1.580586 1.880790849211783e-38 1684957512
10.359291 -5.372748 -2.238438 0.000000000000000e+00 1851878480
10.293452 -5.900442 -2.238439 0.000000000000000e+00 1851878480
7.432610 -2.727361 -1.635291 1.880790849211783e-38 1684957512
7.432608 -3.090286 -1.652559 1.880790849211783e-38 1684957512
9.885151 -5.128491 -2.238439 0.000000000000000e+00 1851878480
9.808617 -5.625966 -2.238438 0.000000000000000e+00 1851878480
7.432610 -2.725205 -1.705245 1.880790849211783e-38 1684957512
7.432609 -3.089163 -1.724774 1.880790849211783e-38 1684957512
9.450990 -4.904821 -2.238439 0.000000000000000e+00 1851878480
9.365773 -5.375264 -2.238438 0.000000000000000e+00 1851878480
7.432609 -2.723044 -1.775440 1.880790849211783e-38 1684957512
7.432609 -3.088032 -1.797248 1.880790849211783e-38 1684957512
9.051879 -4.699212 -2.238439 0.000000000000000e+00 1851878480
8.959617 -5.145333 -2.238439 0.000000000000000e+00 1851878480
7.432610 -2.720875 -1.845887 1.880790849211783e-38 1684957512
7.432609 -3.086897 -1.869990 1.880790849211783e-38 1684957512
8.683691 -4.509530 -2.238438 0.000000000000000e+00 1851878480
8.585716 -4.933659 -2.238438 0.000000000000000e+00 1851878480
7.432609 -2.718704 -1.916597 1.880790849211783e-38 1684957512
7.432609 -3.085761 -1.943017 1.880790849211783e-38 1684957512
8.342911 -4.333971 -2.238438 0.000000000000000e+00 1851878480
8.240318 -4.738128 -2.238438 0.000000000000000e+00 1851878480
7.432610 -2.716523 -1.987584 1.880790849211783e-38 1684957512
7.432608 -3.084617 -2.016337 1.880790849211783e-38 1684957512
8.026540 -4.170989 -2.238438 0.000000000000000e+00 1851878480
7.920237 -4.556931 -2.238439 0.000000000000000e+00 1851878480
7.432609 -2.714331 -2.058859 1.880790849211783e-38 1684957512
7.432608 -3.083473 -2.089968 1.880790849211783e-38 1684957512
7.732002 -4.019248 -2.238439 0.000000000000000e+00 1851878480
7.622733 -4.388512 -2.238438 0.000000000000000e+00 1851878480
7.432609 -2.712128 -2.130432 1.880790849211783e-38 1684957512
7.432609 -3.082323 -2.163918 1.880790849211783e-38 1684957512
7.457075 -3.877618 -2.238439 0.000000000000000e+00 1851878480
7.345472 -4.231555 -2.238438 0.000000000000000e+00 1851878480
7.432607 -2.709923 -2.202317 1.880790849211783e-38 1684957512
7.432608 -3.081165 -2.238202 1.880790849211783e-38 1684957512
7.199823 -3.745091 -2.238438 0.000000000000000e+00 1851878480
7.086410 -4.084905 -2.238439 0.000000000000000e+00 1851878480
7.314680 -2.664745 -2.238439 0.000000000000000e+00 1851878480
7.193532 -2.980934 -2.238438 0.000000000000000e+00 1851878480
6.958560 -3.620799 -2.238438 0.000000000000000e+00 1851878480
6.843774 -3.947548 -2.238438 0.000000000000000e+00 1851878480
7.088574 -2.580256 -2.238438 0.000000000000000e+00 1851878480
6.967604 -2.886218 -2.238438 0.000000000000000e+00 1851878480
6.731798 -3.503980 -2.238438 0.000000000000000e+00 1851878480
6.616008 -3.818614 -2.238439 0.000000000000000e+00 1851878480
6.875041 -2.500460 -2.238438 0.000000000000000e+00 1851878480
6.754416 -2.796841 -2.238438 0.000000000000000e+00 1851878480
6.518247 -3.393965 -2.238438 0.000000000000000e+00 1851878480
6.401762 -3.697336 -2.238438 0.000000000000000e+00 1851878480
6.673021 -2.424969 -2.238438 0.000000000000000e+00 1851878480
6.552880 -2.712352 -2.238439 0.000000000000000e+00 1851878480
6.316747 -3.290165 -2.238439 0.000000000000000e+00 1851878480
6.199836 -3.583029 -2.238439 0.000000000000000e+00 1851878480
6.481580 -2.353432 -2.238438 0.000000000000000e+00 1851878480
6.362041 -2.632346 -2.238439 0.000000000000000e+00 1851878480
6.126281 -3.192043 -2.238439 0.000000000000000e+00 1851878480
6.009161 -3.475097 -2.238439 0.000000000000000e+00 1851878480
6.299884 -2.285540 -2.238439 0.000000000000000e+00 1851878480
6.181039 -2.556466 -2.238439 0.000000000000000e+00 1851878480
5.945938 -3.099138 -2.238439 0.000000000000000e+00 1851878480
5.828797 -3.372999 -2.238438 0.000000000000000e+00 1851878480
6.127178 -2.221005 -2.238439 0.000000000000000e+00 1851878480
6.009109 -2.484385 -2.238438 0.000000000000000e+00 1851878480
5.774900 -3.011026 -2.238439 0.000000000000000e+00 1851878480
5.657902 -3.276263 -2.238439 0.000000000000000e+00 1851878480
5.962795 -2.159582 -2.238438 0.000000000000000e+00 1851878480
5.845568 -2.415827 -2.238439 0.000000000000000e+00 1851878480
5.612451 -2.927341 -2.238439 0.000000000000000e+00 1851878480
5.495729 -3.184461 -2.238439 0.000000000000000e+00 1851878480
5.806122 -2.101042 -2.238439 0.000000000000000e+00 1851878480
5.689788 -2.350521 -2.238439 0.000000000000000e+00 1851878480
5.457932 -2.847738 -2.238439 0.000000000000000e+00 1851878480
5.341598 -3.097218 -2.238439 0.000000000000000e+00 1851878480
5.656607 -2.045175 -2.238439 0.000000000000000e+00 1851878480
5.541209 -2.288233 -2.238438 0.000000000000000e+00 1851878480
5.310752 -2.771919 -2.238439 0.000000000000000e+00 1851878480
5.194905 -3.014182 -2.238439 0.000000000000000e+00 1851878480
5.513752 -1.991798 -2.238439 0.000000000000000e+00 1851878480
5.399324 -2.228750 -2.238438 0.000000000000000e+00 1851878480
5.170382 -2.699606 -2.238439 0.000000000000000e+00 1851878480
5.055102 -2.935052 -2.238439 0.000000000000000e+00 1851878480
5.377094 -1.940738 -2.238439 0.000000000000000e+00 1851878480
5.263666 -2.171883 -2.238439 0.000000000000000e+00 1851878480
5.036334 -2.630553 -2.238439 0.000000000000000e+00 1851878480
4.921690 -2.859537 -2.238439 0.000000000000000e+00 1851878480
5.246230 -1.891842 -2.238438 0.000000000000000e+00 1851878480
5.133821 -2.117448 -2.238439 0.000000000000000e+00 1851878480
4.908176 -2.564532 -2.238439 0.000000000000000e+00 1851878480
4.794227 -2.787390 -2.238439 0.000000000000000e+00 1851878480
5.120779 -1.844971 -2.238439 0.000000000000000e+00 1851878480
5.009401 -2.065290 -2.238439 0.000000000000000e+00 1851878480
4.785511 -2.501342 -2.238439 0.000000000000000e+00 1851878480
4.672304 -2.718378 -2.238439 0.000000000000000e+00 1851878480
5.000391 -1.799992 -2.238438 0.000000000000000e+00 1851878480
4.890058 -2.015259 -2.238439 0.000000000000000e+00 1851878480
4.667970 -2.440789 -2.238439 0.000000000000000e+00 1851878480
4.555546 -2.652293 -2.238438 0.000000000000000e+00 1851878480
4.884750 -1.756790 -2.238438 0.000000000000000e+00 1851878480
4.775469 -1.967223 -2.238439 0.000000000000000e+00 1851878480
4.555225 -2.382710 -2.238438 0.000000000000000e+00 1851878480
4.443617 -2.588940 -2.238439 0.000000000000000e+00 1851878480
4.773567 -1.715248 -2.238439 0.000000000000000e+00 1851878480
4.665338 -1.921054 -2.238439 0.000000000000000e+00 1851878480
4.446969 -2.326942 -2.238439 0.000000000000000e+00 1851878480
4.336203 -2.528144 -2.238439 0.000000000000000e+00 1851878480
4.666572 -1.675275 -2.238438 0.000000000000000e+00 1851878480
4.559397 -1.876642 -2.238438 0.000000000000000e+00 1851878480
4.342925 -2.273346 -2.238438 0.000000000000000e+00 1851878480
4.233025 -2.469746 -2.238438 0.000000000000000e+00 1851878480
4.563519 -1.636775 -2.238439 0.000000000000000e+00 1851878480
4.457397 -1.833884 -2.238439 0.000000000000000e+00 1851878480
4.242839 -2.221788 -2.238438 0.000000000000000e+00 1851878480
4.133820 -2.413598 -2.238439 0.000000000000000e+00 1851878480
4.464178 -1.599665 -2.238439 0.000000000000000e+00 1851878480
4.359106 -1.792679 -2.238438 0.000000000000000e+00 1851878480
4.146472 -2.172144 -2.238439 0.000000000000000e+00 1851878480
4.038346 -2.359563 -2.238439 0.000000000000000e+00 1851878480
4.368338 -1.563859 -2.238438 0.000000000000000e+00 1851878480
4.264309 -1.752939 -2.238439 0.000000000000000e+00 1851878480
4.053603 -2.124304 -2.238438 0.000000000000000e+00 1851878480
3.946382 -2.307513 -2.238438 0.000000000000000e+00 1851878480
4.275806 -1.529294 -2.238438 0.000000000000000e+00 1851878480
4.172815 -1.714584 -2.238438 0.000000000000000e+00 1851878480
3.964037 -2.078167 -2.238438 0.000000000000000e+00 1851878480
3.857727 -2.257340 -2.238439 0.000000000000000e+00 1851878480
4.186403 -1.495893 -2.238439 0.000000000000000e+00 1851878480
4.084439 -1.677536 -2.238439 0.000000000000000e+00 1851878480
3.877585 -2.033633 -2.238438 0.000000000000000e+00 1851878480
3.772192 -2.208930 -2.238439 0.000000000000000e+00 1851878480
4.099955 -1.463601 -2.238438 0.000000000000000e+00 1851878480
3.999010 -1.641726 -2.238439 0.000000000000000e+00 1851878480
3.794077 -1.990617 -2.238439 0.000000000000000e+00 1851878480
3.689600 -2.162189 -2.238439 0.000000000000000e+00 1851878480
4.016311 -1.432355 -2.238439 0.000000000000000e+00 1851878480
3.916373 -1.607084 -2.238439 0.000000000000000e+00 1851878480
3.713349 -1.949031 -2.238438 0.000000000000000e+00 1851878480
3.609791 -2.117022 -2.238438 0.000000000000000e+00 1851878480
4.006145 -1.427336 -2.278725 0.000000000000000e+00 1634890835
3.836381 -1.573552 -2.238439 0.000000000000000e+00 1851878480
3.635255 -1.908804 -2.238438 0.000000000000000e+00 1851878480
3.532614 -2.073345 -2.238439 0.000000000000000e+00 1851878480
3.926261 -1.397496 -2.278725 0.000000000000000e+00 1634890835
3.758895 -1.541070 -2.238439 0.000000000000000e+00 1851878480
3.559655 -1.869858 -2.238439 0.000000000000000e+00 1851878480
3.457926 -2.031078 -2.238439 0.000000000000000e+00 1851878480
3.848814 -1.368567 -2.278725 0.000000000000000e+00 1634890835
3.683793 -1.509588 -2.238438 0.000000000000000e+00 1851878480
3.486423 -1.832135 -2.238439 0.000000000000000e+00 1851878480
3.385603 -1.990150 -2.238439 0.000000000000000e+00 1851878480
3.773683 -1.340505 -2.278725 0.000000000000000e+00 1634890835
3.610952 -1.479055 -2.238439 0.000000000000000e+00 1851878480
3.415434 -1.795569 -2.238439 0.000000000000000e+00 1851878480
3.315520 -1.950490 -2.238438 0.000000000000000e+00 1851878480
3.700755 -1.313265 -2.278725 0.000000000000000e+00 1634890835
3.540263 -1.449424 -2.238439 0.000000000000000e+00 1851878480
3.346581 -1.760102 -2.238439 0.000000000000000e+00 1851878480
3.247565 -1.912037 -2.238439 0.000000000000000e+00 1851878480
3.629920 -1.286809 -2.278725 0.000000000000000e+00 1634890835
3.471621 -1.420648 -2.238439 0.000000000000000e+00 1851878480
3.279754 -1.725678 -2.238439 0.000000000000000e+00 1851878480
3.181631 -1.874724 -2.238439 0.000000000000000e+00 1851878480
3.561087 -1.261099 -2.278725 0.000000000000000e+00 1634890835
3.466209 -1.417758 -2.278725 0.000000000000000e+00 1634890835
3.214859 -1.692250 -2.238439 0.000000000000000e+00 1851878480
3.117620 -1.838502 -2.238439 0.000000000000000e+00 1851878480
3.494159 -1.236101 -2.278725 0.000000000000000e+00 1634890835
3.400210 -1.390091 -2.278726 0.000000000000000e+00 1634890835
3.151802 -1.659767 -2.238439 0.000000000000000e+00 1851878480
3.055440 -1.803316 -2.238438 0.000000000000000e+00 1851878480
3.429047 -1.211784 -2.278725 0.000000000000000e+00 1634890835
3.336014 -1.363181 -2.278725 0.000000000000000e+00 1634890835
3.090497 -1.628189 -2.238438 0.000000000000000e+00 1851878480
2.995004 -1.769118 -2.238439 0.000000000000000e+00 1851878480
3.365672 -1.188116 -2.278725 0.000000000000000e+00 1634890835
3.273541 -1.336995 -2.278725 0.000000000000000e+00 1634890835
3.030862 -1.597471 -2.238439 0.000000000000000e+00 1851878480
2.936229 -1.735861 -2.238439 0.000000000000000e+00 1851878480
3.303953 -1.165064 -2.278725 0.000000000000000e+00 1634890835
3.212711 -1.311496 -2.278725 0.000000000000000e+00 1634890835
2.972821 -1.567573 -2.238439 0.000000000000000e+00 1851878480
2.879039 -1.703499 -2.238439 0.000000000000000e+00 1851878480
3.243820 -1.142607 -2.278725 0.000000000000000e+00 1634890835
3.153454 -1.286657 -2.278726 0.000000000000000e+00 1634890835
2.916302 -1.538461 -2.238439 0.000000000000000e+00 1851878480
2.823362 -1.671995 -2.238438 0.000000000000000e+00 1851878480
3.185203 -1.120716 -2.278725 0.000000000000000e+00 1634890835
3.095701 -1.262448 -2.278725 0.000000000000000e+00 1634890835
2.861240 -1.510097 -2.238439 0.000000000000000e+00 1851878480
2.769131 -1.641311 -2.238438 0.000000000000000e+00 1851878480
3.128040 -1.099368 -2.278725 0.000000000000000e+00 1634890835
3.039386 -1.238844 -2.278726 0.000000000000000e+00 1634890835
2.807568 -1.482453 -2.238439 0.000000000000000e+00 1851878480
2.716283 -1.611408 -2.238438 0.000000000000000e+00 1851878480
3.072264 -1.078540 -2.278726 0.000000000000000e+00 1634890835
2.984449 -1.215815 -2.278726 0.000000000000000e+00 1634890835
2.755228 -1.455491 -2.238439 0.000000000000000e+00 1851878480
0.840392 -0.499001 -0.705944 0.000000000000000e+00 1886740808
3.017820 -1.058208 -2.278725 0.000000000000000e+00 1634890835
2.930830 -1.193340 -2.278726 0.000000000000000e+00 1634890835
2.704160 -1.429188 -2.238439 0.000000000000000e+00 1851878480
0.824541 -0.490031 -0.705944 0.000000000000000e+00 1886740808
2.964654 -1.038356 -2.278725 0.000000000000000e+00 1634890835
2.878476 -1.171397 -2.278726 0.000000000000000e+00 1634890835
0.837100 -0.442630 -0.705944 0.000000000000000e+00 1886740808
0.809071 -0.481279 -0.705944 0.000000000000000e+00 1886740808
2.912714 -1.018961 -2.278726 0.000000000000000e+00 1634890835
2.827337 -1.149959 -2.278726 0.000000000000000e+00 1634890835
0.821749 -0.434723 -0.705944 0.000000000000000e+00 1886740808
0.793967 -0.472734 -0.705944 0.000000000000000e+00 1886740808
2.861950 -1.000005 -2.278726 0.000000000000000e+00 1634890835
2.777361 -1.129012 -2.278726 0.000000000000000e+00 1634890835
0.806752 -0.426999 -0.705944 0.000000000000000e+00 1886740808
0.779214 -0.464387 -0.705944 0.000000000000000e+00 1886740808
2.812315 -0.981472 -2.278726 0.000000000000000e+00 1634890835
2.728503 -1.108533 -2.278726 0.000000000000000e+00 1634890835
0.792095 -0.419449 -0.705944 0.000000000000000e+00 1886740808
0.764797 -0.456231 -0.705944 0.000000000000000e+00 1886740808
2.763765 -0.963343 -2.278726 0.000000000000000e+00 1634890835
0.830479 -0.337216 -0.705944 0.000000000000000e+00 1886740808
0.777763 -0.412067 -0.705944 0.000000000000000e+00 1886740808
0.750703 -0.448257 -0.705944 0.000000000000000e+00 1886740808
0.841490 -0.292946 -0.705944 0.000000000000000e+00 1886740808
0.815995 -0.331144 -0.705944 0.000000000000000e+00 1886740808
0.763744 -0.404846 -0.705944 0.000000000000000e+00 1886740808
0.744294 -0.444867 -0.713009 0.000000000000000e+00 1886740808
0.827083 -0.287567 -0.705944 0.000000000000000e+00 1886740808
0.801818 -0.325202 -0.705944 0.000000000000000e+00 1886740808
0.750026 -0.397780 -0.705944 0.000000000000000e+00 1886740808
0.744295 -0.445311 -0.726301 0.000000000000000e+00 1886740808
0.812975 -0.282300 -0.705944 0.000000000000000e+00 1886740808
0.787937 -0.319383 -0.705944 0.000000000000000e+00 1886740808
0.744294 -0.394947 -0.713320 0.000000000000000e+00 1886740808
0.744294 -0.445761 -0.739799 0.000000000000000e+00 1886740808
0.799155 -0.277140 -0.705944 0.000000000000000e+00 1886740808
0.774339 -0.313685 -0.705944 0.000000000000000e+00 1886740808
0.744295 -0.395158 -0.726288 0.000000000000000e+00 1886740808
0.744294 -0.446219 -0.753513 0.000000000000000e+00 1886740808
0.785612 -0.272084 -0.705944 0.000000000000000e+00 1886740808
0.761016 -0.308100 -0.705944 0.000000000000000e+00 1886740808
0.744294 -0.395372 -0.739456 0.000000000000000e+00 1886740808
0.744295 -0.446685 -0.767447 0.000000000000000e+00 1886740808
0.772336 -0.267127 -0.705944 0.000000000000000e+00 1886740808
0.747956 -0.302626 -0.705944 0.000000000000000e+00 1886740808
0.744294 -0.395589 -0.752833 0.000000000000000e+00 1886740808
0.744295 -0.447158 -0.781609 0.000000000000000e+00 1886740808
0.759317 -0.262267 -0.705944 0.000000000000000e+00 1886740808
0.744295 -0.300956 -0.714724 0.000000000000000e+00 1886740808
0.744295 -0.395810 -0.766425 0.000000000000000e+00 1886740808
0.744294 -0.447639 -0.796009 0.000000000000000e+00 1886740808
0.746546 -0.257499 -0.705944 0.000000000000000e+00 1886740808
0.744295 -0.300765 -0.727149 0.000000000000000e+00 1886740808
0.744294 -0.396034 -0.780241 0.000000000000000e+00 1886740808
2.092192 -1.259678 -2.278726 0.000000000000000e+00 1634890835
0.744294 -0.256362 -0.715831 0.000000000000000e+00 1886740808
0.744295 -0.300570 -0.739767 0.000000000000000e+00 1886740808
0.744294 -0.396263 -0.794287 0.000000000000000e+00 1886740808
2.054433 -1.238319 -2.278726 0.000000000000000e+00 1634890835
0.744295 -0.255996 -0.728032 0.000000000000000e+00 1886740808
0.744295 -0.300373 -0.752585 0.000000000000000e+00 1886740808
2.097578 -1.117404 -2.278726 0.000000000000000e+00 1634890835
2.017381 -1.217360 -2.278726 0.000000000000000e+00 1634890835
0.744295 -0.255624 -0.740424 0.000000000000000e+00 1886740808
0.744295 -0.300172 -0.765611 0.000000000000000e+00 1886740808
2.060544 -1.098330 -2.278726 0.000000000000000e+00 1634890835
0.796276 -0.481054 -0.915943 0.000000000000000e+00 1886740808
0.744295 -0.255246 -0.753013 0.000000000000000e+00 1886740808
0.744295 -0.299969 -0.778850 0.000000000000000e+00 1886740808
2.024177 -1.079599 -2.278727 0.000000000000000e+00 1634890835
0.784636 -0.474577 -0.919123 0.000000000000000e+00 1886740808
0.744295 -0.254862 -0.765806 0.000000000000000e+00 1886740808
0.744295 -0.299762 -0.792310 0.000000000000000e+00 1886740808
1.988453 -1.061198 -2.278726 0.000000000000000e+00 1634890835
0.775673 -0.469714 -0.925309 0.000000000000000e+00 1886740808
0.744295 -0.254473 -0.778810 0.000000000000000e+00 1886740808
2.104271 -0.846891 -2.278726 0.000000000000000e+00 1634890835
0.797389 -0.425819 -0.930215 0.000000000000000e+00 1886740808
0.768823 -0.466130 -0.933989 0.000000000000000e+00 1886740808
0.744295 -0.254076 -0.792031 0.000000000000000e+00 1886740808
2.068529 -0.831911 -2.278726 0.000000000000000e+00 1634890835
0.785519 -0.419747 -0.932845 0.000000000000000e+00 1886740808
0.764549 -0.464111 -0.945878 0.000000000000000e+00 1886740808
0.744295 -0.253673 -0.805478 0.000000000000000e+00 1886740808
2.033383 -0.817181 -2.278726 0.000000000000000e+00 1634890835
0.776431 -0.415161 -0.938648 0.000000000000000e+00 1886740808
1.808581 -1.099258 -2.278726 0.000000000000000e+00 1634890835
2.070471 -0.704526 -2.278726 0.000000000000000e+00 1634890835
1.998813 -0.802691 -2.278726 0.000000000000000e+00 1634890835
0.769417 -0.411684 -0.946931 0.000000000000000e+00 1886740808
1.775830 -1.080734 -2.278726 0.000000000000000e+00 1634890835
2.035871 -0.691612 -2.278726 0.000000000000000e+00 1634890835
1.964799 -0.788435 -2.278726 0.000000000000000e+00 1634890835
0.764805 -0.409492 -0.958243 0.000000000000000e+00 1886740808
0.749057 -0.456456 -0.978943 0.000000000000000e+00 1886740808
2.001818 -0.678901 -2.278726 0.000000000000000e+00 1634890835
1.931323 -0.774405 -2.278726 0.000000000000000e+00 1634890835
0.767164 -0.411038 -0.978581 0.000000000000000e+00 1886740808
1.711907 -1.044581 -2.278726 0.000000000000000e+00 1634890835
1.968293 -0.666389 -2.278727 0.000000000000000e+00 1634890835
0.797683 -0.319597 -0.957507 0.000000000000000e+00 1886740808
1.754622 -0.940768 -2.278727 0.000000000000000e+00 1634890835
1.680700 -1.026932 -2.278727 0.000000000000000e+00 1634890835
1.935280 -0.654068 -2.278726 0.000000000000000e+00 1634890835
0.785811 -0.314588 -0.959662 0.000000000000000e+00 1886740808
0.751064 -0.402983 -0.993127 0.000000000000000e+00 1886740808
1.649975 -1.009555 -2.278727 0.000000000000000e+00 1634890835
1.902762 -0.641932 -2.278726 0.000000000000000e+00 1634890835
0.776731 -0.310699 -0.965105 0.000000000000000e+00 1886740808
1.692477 -0.908759 -2.278726 0.000000000000000e+00 1634890835
1.619716 -0.992442 -2.278726 0.000000000000000e+00 1634890835
0.796759 -0.268312 -0.970531 0.000000000000000e+00 1886740808
0.769655 -0.307611 -0.973021 0.000000000000000e+00 1886740808
1.662097 -0.893113 -2.278726 0.000000000000000e+00 1634890835
1.589907 -0.975584 -2.278727 0.000000000000000e+00 1634890835
0.785168 -0.263918 -0.972832 0.000000000000000e+00 1886740808
0.764879 -0.305442 -0.983924 0.000000000000000e+00 1886740808
1.632161 -0.877695 -2.278727 0.000000000000000e+00 1634890835
1.560533 -0.958973 -2.278726 0.000000000000000e+00 1634890835
0.776222 -0.260416 -0.978303 0.000000000000000e+00 1886740808
0.765615 -0.305470 -1.002179 0.000000000000000e+00 1886740808
1.602653 -0.862498 -2.278727 0.000000000000000e+00 1634890835
1.531581 -0.942599 -2.278727 0.000000000000000e+00 1634890835
0.769282 -0.257587 -0.986297 0.000000000000000e+00 1886740808
1.710672 -0.681929 -2.278726 0.000000000000000e+00 1634890835
1.573560 -0.847513 -2.278727 0.000000000000000e+00 1634890835
1.503037 -0.926458 -2.278727 0.000000000000000e+00 1634890835
0.764661 -0.255532 -0.997355 0.000000000000000e+00 1886740808
1.680925 -0.669462 -2.278726 0.000000000000000e+00 1634890835
1.544869 -0.832737 -2.278727 0.000000000000000e+00 1634890835
1.474889 -0.910540 -2.278727 0.000000000000000e+00 1634890835
0.766219 -0.255533 -1.016763 0.000000000000000e+00 1886740808
0.744043 -0.296055 -1.026575 0.000000000000000e+00 1886740808
1.516567 -0.818161 -2.278727 0.000000000000000e+00 1634890835
1.447124 -0.894838 -2.278727 0.000000000000000e+00 1634890835
1.687758 -0.561696 -2.278726 0.000000000000000e+00 1634890835
1.622623 -0.645028 -2.278727 0.000000000000000e+00 1634890835
1.488642 -0.803779 -2.278726 0.000000000000000e+00 1634890835
1.419727 -0.879346 -2.278726 0.000000000000000e+00 1634890835
0.752074 -0.249763 -1.033212 0.000000000000000e+00 1886740808
1.594047 -0.633052 -2.278727 0.000000000000000e+00 1634890835
1.461082 -0.789587 -2.278726 0.000000000000000e+00 1634890835
1.392691 -0.864059 -2.278726 0.000000000000000e+00 1634890835
1.629982 -0.540137 -2.278726 0.000000000000000e+00 1634890835
1.565837 -0.621229 -2.278727 0.000000000000000e+00 1634890835
1.433877 -0.775575 -2.278727 0.000000000000000e+00 1634890835
1.366004 -0.848967 -2.278725 0.000000000000000e+00 1634890835
1.601641 -0.529563 -2.278726 0.000000000000000e+00 1634890835
1.537981 -0.609555 -2.278726 0.000000000000000e+00 1634890835
1.407014 -0.761740 -2.278725 0.000000000000000e+00 1634890835
1.339652 -0.834067 -2.278726 0.000000000000000e+00 1634890835
1.573652 -0.519120 -2.278727 0.000000000000000e+00 1634890835
1.510470 -0.598026 -2.278727 0.000000000000000e+00 1634890835
1.380484 -0.748076 -2.278726 0.000000000000000e+00 1634890835
1.313627 -0.819351 -2.278726 0.000000000000000e+00 1634890835
1.546004 -0.508802 -2.278726 0.000000000000000e+00 1634890835
1.483295 -0.586636 -2.278726 0.000000000000000e+00 1634890835
1.354276 -0.734580 -2.278726 0.000000000000000e+00 1634890835
1.287920 -0.804814 -2.278725 0.000000000000000e+00 1634890835
1.518686 -0.498610 -2.278727 0.000000000000000e+00 1634890835
1.456443 -0.575382 -2.278727 0.000000000000000e+00 1634890835
1.328382 -0.721244 -2.278726 0.000000000000000e+00 1634890835
1.262519 -0.790452 -2.278725 0.000000000000000e+00 1634890835
1.491688 -0.488535 -2.278726 0.000000000000000e+00 1634890835
1.429906 -0.564261 -2.278727 0.000000000000000e+00 1634890835
1.302790 -0.708064 -2.278726 0.000000000000000e+00 1634890835
1.237416 -0.776258 -2.278726 0.000000000000000e+00 1634890835
1.465000 -0.478579 -2.278727 0.000000000000000e+00 1634890835
1.403673 -0.553268 -2.278726 0.000000000000000e+00 1634890835
1.277492 -0.695035 -2.278726 0.000000000000000e+00 1634890835
1.212600 -0.762227 -2.278725 0.000000000000000e+00 1634890835
1.438615 -0.468734 -2.278727 0.000000000000000e+00 1634890835
1.377736 -0.542399 -2.278725 0.000000000000000e+00 1634890835
1.252479 -0.682153 -2.278725 0.000000000000000e+00 1634890835
1.188065 -0.748353 -2.278725 0.000000000000000e+00 1634890835
1.412522 -0.458998 -2.278726 0.000000000000000e+00 1634890835
1.352087 -0.531649 -2.278725 0.000000000000000e+00 1634890835
1.227743 -0.669413 -2.278726 0.000000000000000e+00 1634890835
1.163800 -0.734633 -2.278726 0.000000000000000e+00 1634890835
1.386712 -0.449370 -2.278726 0.000000000000000e+00 1634890835
1.326716 -0.521017 -2.278725 0.000000000000000e+00 1634890835
1.203274 -0.656813 -2.278726 0.000000000000000e+00 1634890835
1.139798 -0.721064 -2.278725 0.000000000000000e+00 1634890835
1.361179 -0.439844 -2.278725 0.000000000000000e+00 1634890835
1.301616 -0.510497 -2.278726 0.000000000000000e+00 1634890835
1.179066 -0.644345 -2.278726 0.000000000000000e+00 1634890835
1.116051 -0.707637 -2.278725 0.000000000000000e+00 1634890835
1.335914 -0.430417 -2.278726 0.000000000000000e+00 1634890835
1.276778 -0.500088 -2.278726 0.000000000000000e+00 1634890835
1.155109 -0.632009 -2.278726 0.000000000000000e+00 1634890835
1.092552 -0.694350 -2.278725 0.000000000000000e+00 1634890835
1.310908 -0.421088 -2.278726 0.000000000000000e+00 1634890835
1.252195 -0.489786 -2.278725 0.000000000000000e+00 1634890835
1.131397 -0.619796 -2.278725 0.000000000000000e+00 1634890835
1.069292 -0.681200 -2.278726 0.000000000000000e+00 1634890835
1.286155 -0.411854 -2.278725 0.000000000000000e+00 1634890835
1.227859 -0.479588 -2.278726 0.000000000000000e+00 1634890835
1.107923 -0.607707 -2.278726 0.000000000000000e+00 1634890835
1.046265 -0.668181 -2.278726 0.000000000000000e+00 1634890835
1.261647 -0.402710 -2.278726 0.000000000000000e+00 1634890835
1.203763 -0.469489 -2.278726 0.000000000000000e+00 1634890835
1.084679 -0.595737 -2.278726 0.000000000000000e+00 1634890835
1.023464 -0.655289 -2.278725 0.000000000000000e+00 1634890835
1.237375 -0.393656 -2.278726 0.000000000000000e+00 1634890835
1.179899 -0.459489 -2.278726 0.000000000000000e+00 1634890835
1.061658 -0.583882 -2.278726 0.000000000000000e+00 1634890835
1.000880 -0.642521 -2.278726 0.000000000000000e+00 1634890835
1.213336 -0.384687 -2.278726 0.000000000000000e+00 1634890835
1.156261 -0.449584 -2.278726 0.000000000000000e+00 1634890835
1.038854 -0.572138 -2.278725 0.000000000000000e+00 1634890835
0.978510 -0.629874 -2.278726 0.000000000000000e+00 1634890835
1.189520 -0.375802 -2.278726 0.000000000000000e+00 1634890835
1.132843 -0.439770 -2.278725 0.000000000000000e+00 1634890835
1.016260 -0.560501 -2.278725 0.000000000000000e+00 1634890835
0.956343 -0.617343 -2.278726 0.000000000000000e+00 1634890835
1.165920 -0.366999 -2.278726 0.000000000000000e+00 1634890835
1.109637 -0.430046 -2.278726 0.000000000000000e+00 1634890835
0.993868 -0.548970 -2.278726 0.000000000000000e+00 1634890835
0.934376 -0.604923 -2.278725 0.000000000000000e+00 1634890835
1.142532 -0.358274 -2.278726 0.000000000000000e+00 1634890835
1.086637 -0.420407 -2.278726 0.000000000000000e+00 1634890835
0.971675 -0.537541 -2.278726 0.000000000000000e+00 1634890835
0.912604 -0.592614 -2.278726 0.000000000000000e+00 1634890835
1.119348 -0.349625 -2.278725 0.000000000000000e+00 1634890835
1.063838 -0.410852 -2.278725 0.000000000000000e+00 1634890835
0.949674 -0.526211 -2.278725 0.000000000000000e+00 1634890835
0.891017 -0.580410 -2.278726 0.000000000000000e+00 1634890835
1.096363 -0.341051 -2.278726 0.000000000000000e+00 1634890835
1.041233 -0.401379 -2.278726 0.000000000000000e+00 1634890835
0.927858 -0.514976 -2.278726 0.000000000000000e+00 1634890835
0.869613 -0.568309 -2.278726 0.000000000000000e+00 1634890835
1.073571 -0.332549 -2.278726 0.000000000000000e+00 1634890835
1.018816 -0.391985 -2.278725 0.000000000000000e+00 1634890835
0.906221 -0.503834 -2.278726 0.000000000000000e+00 1634890835
0.848384 -0.556308 -2.278726 0.000000000000000e+00 1634890835
1.050965 -0.324117 -2.278726 0.000000000000000e+00 1634890835
0.996582 -0.382668 -2.278725 0.000000000000000e+00 1634890835
0.884760 -0.492781 -2.278726 0.000000000000000e+00 1634890835
0.827326 -0.544404 -2.278726 0.000000000000000e+00 1634890835
1.028542 -0.315752 -2.278726 0.000000000000000e+00 1634890835
0.974526 -0.373425 -2.278725 0.000000000000000e+00 1634890835
0.863469 -0.481816 -2.278726 0.000000000000000e+00 1634890835
0.451010 -0.297860 -1.274413 0.000000000000000e+00 1936876886
1.006294 -0.307453 -2.278725 0.000000000000000e+00 1634890835
0.952641 -0.364254 -2.278725 0.000000000000000e+00 1634890835
0.842340 -0.470936 -2.278726 0.000000000000000e+00 1634890835
0.433313 -0.287261 -1.256715 0.000000000000000e+00 1936876886
0.984217 -0.299218 -2.278726 0.000000000000000e+00 1634890835
0.930922 -0.355153 -2.278726 0.000000000000000e+00 1634890835
0.821370 -0.460137 -2.278726 0.000000000000000e+00 1634890835
0.421229 -0.280355 -1.254524 0.000000000000000e+00 1936876886
0.962305 -0.291044 -2.278726 0.000000000000000e+00 1634890835
0.909365 -0.346118 -2.278726 0.000000000000000e+00 1634890835
0.445942 -0.250344 -1.269344 0.000000000000000e+00 1936876886
0.335128 -0.223971 -1.025473 0.000000000000000e+00 1953264973
0.940553 -0.282931 -2.278726 0.000000000000000e+00 1634890835
0.887965 -0.337151 -2.278726 0.000000000000000e+00 1634890835
0.428906 -0.241308 -1.253205 0.000000000000000e+00 1936876886
0.306472 -0.205704 -0.964046 0.000000000000000e+00 1953264973
0.495093 -0.148090 -1.227676 0.000000000000000e+00 1936876886
0.866716 -0.328246 -2.278726 0.000000000000000e+00 1634890835
0.358555 -0.202189 -1.075963 0.000000000000000e+00 1953264973
0.281223 -0.189608 -0.909920 0.000000000000000e+00 1953264973
0.483540 -0.143780 -1.227676 0.000000000000000e+00 1936876886
0.845615 -0.319403 -2.278725 0.000000000000000e+00 1634890835
0.326695 -0.184663 -1.007395 0.000000000000000e+00 1953264973
0.258802 -0.175316 -0.861858 0.000000000000000e+00 1953264973
0.472064 -0.139500 -1.227676 0.000000000000000e+00 1936876886
0.824655 -0.310620 -2.278726 0.000000000000000e+00 1634890835
0.299054 -0.169464 -0.948144 0.000000000000000e+00 1953264973
0.238756 -0.162537 -0.818886 0.000000000000000e+00 1953264973
