# .PCD v0.7 - Point Cloud Data file format
VERSION 0.7
FIELDS x y z rgb label
SIZE 4 4 4 4 4
TYPE F F F F U
COUNT 1 1 1 1 1
WIDTH 531
HEIGHT 1
VIEWPOINT 0 0 0 1 0 0 0
POINTS 531
DATA ascii
30.086775 -11.177312 -2.184866 0.000000000000000e+00 1851878480
30.618273 -12.803009 -2.153199 0.000000000000000e+00 1851878480
27.629488 -15.696309 -1.657423 0.000000000000000e+00 1851878480
26.808636 -9.951907 -2.190578 0.000000000000000e+00 1851878480
26.406961 -11.038168 -2.104499 0.000000000000000e+00 1851878480
25.468985 -13.151299 -1.885964 0.000000000000000e+00 1851878480
24.631767 -14.001552 -1.732325 0.000000000000000e+00 1851878480
24.145035 -8.956313 -2.192711 0.000000000000000e+00 1851878480
24.275093 -10.143478 -2.162340 0.000000000000000e+00 1851878480
23.202703 -11.984778 -1.950321 0.000000000000000e+00 1851878480
22.758034 -12.944117 -1.836243 0.000000000000000e+00 1851878480
22.084312 -8.185674 -2.206829 0.000000000000000e+00 1851878480
22.142765 -9.249229 -2.180397 0.000000000000000e+00 1851878480
21.671352 -11.197283 -2.038773 0.000000000000000e+00 1851878480
21.235857 -12.085493 -1.933705 0.000000000000000e+00 1851878480
20.372416 -7.545394 -2.221666 0.000000000000000e+00 1851878480
20.384550 -8.511801 -2.199017 0.000000000000000e+00 1851878480
20.440222 -10.564447 -2.128117 0.000000000000000e+00 1851878480
20.043705 -11.413800 -2.033427 0.000000000000000e+00 1851878480
18.920397 -7.002252 -2.236233 0.000000000000000e+00 1851878480
18.937553 -7.904805 -2.221343 0.000000000000000e+00 1851878480
19.170166 -9.911116 -2.188651 0.000000000000000e+00 1851878480
19.031033 -10.843569 -2.128831 0.000000000000000e+00 1851878480
17.577652 -6.500330 -2.238436 0.000000000000000e+00 1851878480
17.604691 -7.345850 -2.231154 0.000000000000000e+00 1851878480
17.828993 -9.220595 -2.215162 0.000000000000000e+00 1851878480
17.968287 -10.244129 -2.197417 0.000000000000000e+00 1851878480
16.396889 -6.059026 -2.238437 0.000000000000000e+00 1851878480
16.435354 -6.855502 -2.238369 0.000000000000000e+00 1851878480
16.582977 -8.578878 -2.227782 0.000000000000000e+00 1851878480
16.735533 -9.547000 -2.221658 0.000000000000000e+00 1851878480
15.362922 -5.672592 -2.238438 0.000000000000000e+00 1851878480
15.366795 -6.407504 -2.238437 0.000000000000000e+00 1851878480
15.442967 -7.991618 -2.230905 0.000000000000000e+00 1851878480
15.534691 -8.867263 -2.225076 0.000000000000000e+00 1851878480
14.449842 -5.331327 -2.238437 0.000000000000000e+00 1851878480
14.426383 -6.013240 -2.238437 0.000000000000000e+00 1851878480
14.450504 -7.480374 -2.234117 0.000000000000000e+00 1851878480
14.496509 -8.279622 -2.228715 0.000000000000000e+00 1851878480
13.637500 -5.027727 -2.238437 0.000000000000000e+00 1851878480
13.592600 -5.663686 -2.238436 0.000000000000000e+00 1851878480
13.577046 -7.030442 -2.237158 0.000000000000000e+00 1851878480
13.584409 -7.763340 -2.231633 0.000000000000000e+00 1851878480
12.909998 -4.755832 -2.238437 0.000000000000000e+00 1851878480
12.848182 -5.351587 -2.238437 0.000000000000000e+00 1851878480
12.793023 -6.626552 -2.238437 0.000000000000000e+00 1851878480
12.771952 -7.303426 -2.233140 0.000000000000000e+00 1851878480
12.254601 -4.510884 -2.238437 0.000000000000000e+00 1851878480
12.179386 -5.071206 -2.238437 0.000000000000000e+00 1851878480
12.086507 -6.262574 -2.238438 0.000000000000000e+00 1851878480
12.068176 -6.905160 -2.238019 0.000000000000000e+00 1851878480
11.661039 -4.289051 -2.238437 0.000000000000000e+00 1851878480
11.575182 -4.817895 -2.238437 0.000000000000000e+00 1851878480
11.452115 -5.935749 -2.238437 0.000000000000000e+00 1851878480
11.415782 -6.535825 -2.238437 0.000000000000000e+00 1851878480
11.120865 -4.087168 -2.238437 0.000000000000000e+00 1851878480
11.026556 -4.587883 -2.238437 0.000000000000000e+00 1851878480
10.879246 -5.640616 -2.238437 0.000000000000000e+00 1851878480
10.826596 -6.202269 -2.238437 0.000000000000000e+00 1851878480
10.627123 -3.902642 -2.238437 0.000000000000000e+00 1851878480
10.526110 -4.378076 -2.238437 0.000000000000000e+00 1851878480
10.359289 -5.372746 -2.238437 0.000000000000000e+00 1851878480
10.293447 -5.900439 -2.238437 0.000000000000000e+00 1851878480
10.173988 -3.733297 -2.238437 0.000000000000000e+00 1851878480
10.067677 -4.185880 -2.238437 0.000000000000000e+00 1851878480
9.885146 -5.128488 -2.238437 0.000000000000000e+00 1851878480
9.808613 -5.625964 -2.238437 0.000000000000000e+00 1851878480
9.756619 -3.577315 -2.238437 0.000000000000000e+00 1851878480
9.646148 -4.009160 -2.238437 0.000000000000000e+00 1851878480
9.450984 -4.904818 -2.238437 0.000000000000000e+00 1851878480
9.365770 -5.375262 -2.238438 0.000000000000000e+00 1851878480
9.370876 -3.433157 -2.238437 0.000000000000000e+00 1851878480
9.257168 -3.846084 -2.238437 0.000000000000000e+00 1851878480
9.051873 -4.699208 -2.238437 0.000000000000000e+00 1851878480
8.959612 -5.145330 -2.238437 0.000000000000000e+00 1851878480
9.013246 -3.299503 -2.238437 0.000000000000000e+00 1851878480
8.897064 -3.695112 -2.238437 0.000000000000000e+00 1851878480
8.683687 -4.509527 -2.238437 0.000000000000000e+00 1851878480
8.585711 -4.933656 -2.238437 0.000000000000000e+00 1851878480
8.680709 -3.175235 -2.238437 0.000000000000000e+00 1851878480
8.562678 -3.554926 -2.238437 0.000000000000000e+00 1851878480
8.342906 -4.333968 -2.238437 0.000000000000000e+00 1851878480
8.240314 -4.738125 -2.238437 0.000000000000000e+00 1851878480
8.370683 -3.059377 -2.238438 0.000000000000000e+00 1851878480
8.251309 -3.424388 -2.238437 0.000000000000000e+00 1851878480
8.026534 -4.170986 -2.238437 0.000000000000000e+00 1851878480
7.920231 -4.556928 -2.238437 0.000000000000000e+00 1851878480
8.080898 -2.951081 -2.238437 0.000000000000000e+00 1851878480
7.960608 -3.302518 -2.238436 0.000000000000000e+00 1851878480
7.731995 -4.019245 -2.238436 0.000000000000000e+00 1851878480
7.622729 -4.388510 -2.238437 0.000000000000000e+00 1851878480
7.809417 -2.849624 -2.238437 0.000000000000000e+00 1851878480
7.688564 -3.188468 -2.238437 0.000000000000000e+00 1851878480
7.457069 -3.877614 -2.238437 0.000000000000000e+00 1851878480
7.345469 -4.231552 -2.238437 0.000000000000000e+00 1851878480
7.554511 -2.754369 -2.238437 0.000000000000000e+00 1851878480
7.433390 -3.081489 -2.238437 0.000000000000000e+00 1851878480
7.199818 -3.745088 -2.238437 0.000000000000000e+00 1851878480
7.086403 -4.084901 -2.238436 0.000000000000000e+00 1851878480
7.314675 -2.664743 -2.238437 0.000000000000000e+00 1851878480
7.193527 -2.980932 -2.238437 0.000000000000000e+00 1851878480
6.958556 -3.620797 -2.238437 0.000000000000000e+00 1851878480
6.843768 -3.947545 -2.238436 0.000000000000000e+00 1851878480
7.088570 -2.580255 -2.238437 0.000000000000000e+00 1851878480
6.967600 -2.886216 -2.238437 0.000000000000000e+00 1851878480
6.731792 -3.503977 -2.238437 0.000000000000000e+00 1851878480
6.616003 -3.818611 -2.238437 0.000000000000000e+00 1851878480
6.875037 -2.500458 -2.238437 0.000000000000000e+00 1851878480
6.754411 -2.796839 -2.238437 0.000000000000000e+00 1851878480
6.518242 -3.393963 -2.238437 0.000000000000000e+00 1851878480
6.401757 -3.697333 -2.238437 0.000000000000000e+00 1851878480
6.673017 -2.424967 -2.238437 0.000000000000000e+00 1851878480
6.552875 -2.712350 -2.238437 0.000000000000000e+00 1851878480
6.316742 -3.290162 -2.238437 0.000000000000000e+00 1851878480
6.199832 -3.583026 -2.238437 0.000000000000000e+00 1851878480
6.481575 -2.353431 -2.238436 0.000000000000000e+00 1851878480
6.362034 -2.632343 -2.238437 0.000000000000000e+00 1851878480
6.126276 -3.192041 -2.238437 0.000000000000000e+00 1851878480
6.009156 -3.475094 -2.238437 0.000000000000000e+00 1851878480
6.299880 -2.285538 -2.238437 0.000000000000000e+00 1851878480
6.181035 -2.556464 -2.238437 0.000000000000000e+00 1851878480
5.945932 -3.099136 -2.238437 0.000000000000000e+00 1851878480
5.828792 -3.372996 -2.238437 0.000000000000000e+00 1851878480
6.127174 -2.221004 -2.238437 0.000000000000000e+00 1851878480
6.009106 -2.484384 -2.238437 0.000000000000000e+00 1851878480
5.774895 -3.011024 -2.238437 0.000000000000000e+00 1851878480
5.657897 -3.276260 -2.238437 0.000000000000000e+00 1851878480
5.962791 -2.159580 -2.238437 0.000000000000000e+00 1851878480
5.845564 -2.415825 -2.238437 0.000000000000000e+00 1851878480
5.612447 -2.927338 -2.238437 0.000000000000000e+00 1851878480
5.495725 -3.184459 -2.238437 0.000000000000000e+00 1851878480
5.806118 -2.101040 -2.238437 0.000000000000000e+00 1851878480
5.689783 -2.350519 -2.238437 0.000000000000000e+00 1851878480
5.457926 -2.847735 -2.238436 0.000000000000000e+00 1851878480
5.341594 -3.097215 -2.238437 0.000000000000000e+00 1851878480
5.656603 -2.045173 -2.238437 0.000000000000000e+00 1851878480
5.541205 -2.288231 -2.238437 0.000000000000000e+00 1851878480
5.310748 -2.771917 -2.238437 0.000000000000000e+00 1851878480
5.194902 -3.014181 -2.238437 0.000000000000000e+00 1851878480
5.513747 -1.991796 -2.238437 0.000000000000000e+00 1851878480
5.399321 -2.228749 -2.238437 0.000000000000000e+00 1851878480
5.170379 -2.699605 -2.238437 0.000000000000000e+00 1851878480
5.055098 -2.935049 -2.238437 0.000000000000000e+00 1851878480
5.377090 -1.940737 -2.238437 0.000000000000000e+00 1851878480
5.263662 -2.171881 -2.238437 0.000000000000000e+00 1851878480
5.036330 -2.630551 -2.238437 0.000000000000000e+00 1851878480
4.921686 -2.859534 -2.238437 0.000000000000000e+00 1851878480
5.246226 -1.891841 -2.238436 0.000000000000000e+00 1851878480
5.133815 -2.117445 -2.238437 0.000000000000000e+00 1851878480
4.908173 -2.564530 -2.238437 0.000000000000000e+00 1851878480
4.794224 -2.787388 -2.238437 0.000000000000000e+00 1851878480
5.120775 -1.844970 -2.238437 0.000000000000000e+00 1851878480
5.009397 -2.065288 -2.238437 0.000000000000000e+00 1851878480
4.785505 -2.501340 -2.238437 0.000000000000000e+00 1851878480
2.669086 -1.552892 -1.278724 1.880790849211783e-38 1684957512
5.000388 -1.799991 -2.238437 0.000000000000000e+00 1851878480
4.890055 -2.015257 -2.238437 0.000000000000000e+00 1851878480
4.667967 -2.440787 -2.238437 0.000000000000000e+00 1851878480
2.602388 -1.515141 -1.278724 1.880790849211783e-38 1684957512
4.884748 -1.756788 -2.238437 0.000000000000000e+00 1851878480
4.775465 -1.967221 -2.238437 0.000000000000000e+00 1851878480
4.555223 -2.382709 -2.238437 0.000000000000000e+00 1851878480
2.538448 -1.478950 -1.278724 1.880790849211783e-38 1684957512
4.773563 -1.715246 -2.238437 0.000000000000000e+00 1851878480
4.665334 -1.921053 -2.238437 0.000000000000000e+00 1851878480
4.446965 -2.326941 -2.238437 0.000000000000000e+00 1851878480
2.477086 -1.444220 -1.278724 1.880790849211783e-38 1684957512
4.666569 -1.675274 -2.238437 0.000000000000000e+00 1851878480
4.559395 -1.876642 -2.238437 0.000000000000000e+00 1851878480
4.342923 -2.273345 -2.238437 0.000000000000000e+00 1851878480
2.470771 -1.441564 -1.306552 1.880790849211783e-38 1684957512
4.563516 -1.636773 -2.238437 0.000000000000000e+00 1851878480
4.457395 -1.833883 -2.238437 0.000000000000000e+00 1851878480
4.242837 -2.221787 -2.238437 0.000000000000000e+00 1851878480
2.468997 -1.441564 -1.336947 1.880790849211783e-38 1684957512
4.464175 -1.599664 -2.238437 0.000000000000000e+00 1851878480
4.359103 -1.792678 -2.238437 0.000000000000000e+00 1851878480
4.146469 -2.172143 -2.238437 0.000000000000000e+00 1851878480
2.467209 -1.441564 -1.367564 1.880790849211783e-38 1684957512
4.368336 -1.563858 -2.238437 0.000000000000000e+00 1851878480
4.264307 -1.752938 -2.238438 0.000000000000000e+00 1851878480
4.053602 -2.124304 -2.238438 0.000000000000000e+00 1851878480
2.465409 -1.441564 -1.398412 1.880790849211783e-38 1684957512
4.275805 -1.529293 -2.238437 0.000000000000000e+00 1851878480
4.172813 -1.714583 -2.238437 0.000000000000000e+00 1851878480
3.964035 -2.078166 -2.238437 0.000000000000000e+00 1851878480
2.463591 -1.441564 -1.429494 1.880790849211783e-38 1684957512
4.186401 -1.495893 -2.238438 0.000000000000000e+00 1851878480
4.084436 -1.677535 -2.238437 0.000000000000000e+00 1851878480
3.877584 -2.033632 -2.238437 0.000000000000000e+00 1851878480
2.461760 -1.441564 -1.460822 1.880790849211783e-38 1684957512
4.099953 -1.463600 -2.238437 0.000000000000000e+00 1851878480
3.999007 -1.641724 -2.238437 0.000000000000000e+00 1851878480
3.794075 -1.990615 -2.238437 0.000000000000000e+00 1851878480
2.459911 -1.441564 -1.492400 1.880790849211783e-38 1684957512
4.088590 -1.458132 -2.278723 0.000000000000000e+00 1634890835
3.916371 -1.607083 -2.238437 0.000000000000000e+00 1851878480
3.713348 -1.949030 -2.238438 0.000000000000000e+00 1851878480
2.458049 -1.441564 -1.524241 1.880790849211783e-38 1684957512
4.006142 -1.427335 -2.278723 0.000000000000000e+00 1634890835
3.836380 -1.573551 -2.238438 0.000000000000000e+00 1851878480
3.635254 -1.908803 -2.238438 0.000000000000000e+00 1851878480
2.456170 -1.441564 -1.556351 1.880790849211783e-38 1684957512
3.926257 -1.397494 -2.278723 0.000000000000000e+00 1634890835
3.758893 -1.541069 -2.238437 0.000000000000000e+00 1851878480
3.559654 -1.869857 -2.238438 0.000000000000000e+00 1851878480
2.454274 -1.441564 -1.588739 1.880790849211783e-38 1684957512
3.848811 -1.368566 -2.278723 0.000000000000000e+00 1634890835
3.683791 -1.509588 -2.238438 0.000000000000000e+00 1851878480
3.486421 -1.832134 -2.238437 0.000000000000000e+00 1851878480
2.452360 -1.441564 -1.621412 1.880790849211783e-38 1684957512
3.773679 -1.340503 -2.278723 0.000000000000000e+00 1634890835
3.610949 -1.479054 -2.238437 0.000000000000000e+00 1851878480
3.415432 -1.795568 -2.238437 0.000000000000000e+00 1851878480
2.450428 -1.441564 -1.654380 1.880790849211783e-38 1684957512
3.700751 -1.313264 -2.278723 0.000000000000000e+00 1634890835
3.540261 -1.449423 -2.238437 0.000000000000000e+00 1851878480
3.346578 -1.760101 -2.238437 0.000000000000000e+00 1851878480
2.448473 -1.441564 -1.687652 1.880790849211783e-38 1684957512
3.629917 -1.286807 -2.278723 0.000000000000000e+00 1634890835
3.534098 -1.446215 -2.278723 0.000000000000000e+00 1634890835
3.279752 -1.725677 -2.238437 0.000000000000000e+00 1851878480
2.446507 -1.441564 -1.721242 1.880790849211783e-38 1684957512
3.561084 -1.261098 -2.278723 0.000000000000000e+00 1634890835
3.466205 -1.417757 -2.278723 0.000000000000000e+00 1634890835
3.214857 -1.692249 -2.238438 0.000000000000000e+00 1851878480
2.444517 -1.441564 -1.755153 1.880790849211783e-38 1684957512
3.494156 -1.236100 -2.278723 0.000000000000000e+00 1634890835
3.400206 -1.390089 -2.278723 0.000000000000000e+00 1634890835
3.151800 -1.659767 -2.238437 0.000000000000000e+00 1851878480
2.442507 -1.441564 -1.789399 1.880790849211783e-38 1684957512
3.429044 -1.211783 -2.278723 0.000000000000000e+00 1634890835
3.336011 -1.363180 -2.278723 0.000000000000000e+00 1634890835
3.090495 -1.628188 -2.238437 0.000000000000000e+00 1851878480
2.440476 -1.441564 -1.823990 1.880790849211783e-38 1684957512
3.365669 -1.188115 -2.278723 0.000000000000000e+00 1634890835
3.273537 -1.336994 -2.278723 0.000000000000000e+00 1634890835
3.030861 -1.597471 -2.238438 0.000000000000000e+00 1851878480
2.438424 -1.441564 -1.858936 1.880790849211783e-38 1684957512
3.303951 -1.165062 -2.278723 0.000000000000000e+00 1634890835
3.212708 -1.311494 -2.278723 0.000000000000000e+00 1634890835
2.972819 -1.567572 -2.238437 0.000000000000000e+00 1851878480
2.436349 -1.441564 -1.894250 1.880790849211783e-38 1684957512
3.243817 -1.142606 -2.278723 0.000000000000000e+00 1634890835
3.153451 -1.286656 -2.278723 0.000000000000000e+00 1634890835
2.916301 -1.538460 -2.238438 0.000000000000000e+00 1851878480
2.434252 -1.441564 -1.929941 1.880790849211783e-38 1684957512
3.185200 -1.120715 -2.278723 0.000000000000000e+00 1634890835
3.095698 -1.262447 -2.278723 0.000000000000000e+00 1634890835
2.861238 -1.510096 -2.238437 0.000000000000000e+00 1851878480
2.432128 -1.441564 -1.966021 1.880790849211783e-38 1684957512
3.128037 -1.099367 -2.278723 0.000000000000000e+00 1634890835
3.039383 -1.238843 -2.278723 0.000000000000000e+00 1634890835
2.807567 -1.482452 -2.238438 0.000000000000000e+00 1851878480
2.429984 -1.441564 -2.002505 1.880790849211783e-38 1684957512
3.072261 -1.078539 -2.278723 0.000000000000000e+00 1634890835
2.984447 -1.215814 -2.278723 0.000000000000000e+00 1634890835
2.755226 -1.455490 -2.238437 0.000000000000000e+00 1851878480
0.840392 -0.499000 -0.705943 0.000000000000000e+00 1886740808
3.017817 -1.058207 -2.278723 0.000000000000000e+00 1634890835
2.930827 -1.193339 -2.278723 0.000000000000000e+00 1634890835
2.704158 -1.429187 -2.238437 0.000000000000000e+00 1851878480
0.824540 -0.490031 -0.705943 0.000000000000000e+00 1886740808
2.964651 -1.038355 -2.278723 0.000000000000000e+00 1634890835
2.878473 -1.171396 -2.278723 0.000000000000000e+00 1634890835
0.837099 -0.442630 -0.705943 0.000000000000000e+00 1886740808
0.809070 -0.481279 -0.705943 0.000000000000000e+00 1886740808
2.912711 -1.018960 -2.278723 0.000000000000000e+00 1634890835
2.827334 -1.149958 -2.278723 0.000000000000000e+00 1634890835
0.821748 -0.434723 -0.705943 0.000000000000000e+00 1886740808
0.793966 -0.472733 -0.705943 0.000000000000000e+00 1886740808
2.861948 -1.000004 -2.278723 0.000000000000000e+00 1634890835
2.777358 -1.129010 -2.278723 0.000000000000000e+00 1634890835
0.806751 -0.426998 -0.705943 0.000000000000000e+00 1886740808
0.779214 -0.464386 -0.705943 0.000000000000000e+00 1886740808
2.812313 -0.981471 -2.278723 0.000000000000000e+00 1634890835
2.728500 -1.108532 -2.278723 0.000000000000000e+00 1634890835
0.792094 -0.419448 -0.705943 0.000000000000000e+00 1886740808
0.764797 -0.456231 -0.705943 0.000000000000000e+00 1886740808
2.763762 -0.963342 -2.278723 0.000000000000000e+00 1634890835
0.830479 -0.337215 -0.705943 0.000000000000000e+00 1886740808
0.777762 -0.412066 -0.705943 0.000000000000000e+00 1886740808
0.750702 -0.448257 -0.705943 0.000000000000000e+00 1886740808
0.841489 -0.292946 -0.705943 0.000000000000000e+00 1886740808
0.815995 -0.331144 -0.705943 0.000000000000000e+00 1886740808
0.763743 -0.404845 -0.705943 0.000000000000000e+00 1886740808
0.744293 -0.444866 -0.713007 0.000000000000000e+00 1886740808
0.827083 -0.287567 -0.705943 0.000000000000000e+00 1886740808
0.801818 -0.325202 -0.705943 0.000000000000000e+00 1886740808
0.750025 -0.397779 -0.705943 0.000000000000000e+00 1886740808
0.744292 -0.445309 -0.726299 0.000000000000000e+00 1886740808
0.812975 -0.282300 -0.705943 0.000000000000000e+00 1886740808
0.787936 -0.319383 -0.705943 0.000000000000000e+00 1886740808
0.744292 -0.394946 -0.713318 0.000000000000000e+00 1886740808
0.744293 -0.445760 -0.739797 0.000000000000000e+00 1886740808
0.799155 -0.277140 -0.705943 0.000000000000000e+00 1886740808
0.774339 -0.313684 -0.705943 0.000000000000000e+00 1886740808
0.744292 -0.395157 -0.726286 0.000000000000000e+00 1886740808
0.744293 -0.446218 -0.753511 0.000000000000000e+00 1886740808
0.785611 -0.272084 -0.705943 0.000000000000000e+00 1886740808
0.761015 -0.308100 -0.705943 0.000000000000000e+00 1886740808
0.744292 -0.395371 -0.739454 0.000000000000000e+00 1886740808
0.744292 -0.446684 -0.767444 0.000000000000000e+00 1886740808
0.772336 -0.267127 -0.705943 0.000000000000000e+00 1886740808
0.747956 -0.302626 -0.705943 0.000000000000000e+00 1886740808
0.744292 -0.395588 -0.752831 0.000000000000000e+00 1886740808
0.744292 -0.447156 -0.781607 0.000000000000000e+00 1886740808
0.759317 -0.262267 -0.705943 0.000000000000000e+00 1886740808
0.744292 -0.300955 -0.714722 0.000000000000000e+00 1886740808
0.744292 -0.395809 -0.766423 0.000000000000000e+00 1886740808
0.744292 -0.447638 -0.796007 0.000000000000000e+00 1886740808
0.746546 -0.257499 -0.705943 0.000000000000000e+00 1886740808
0.744292 -0.300764 -0.727146 0.000000000000000e+00 1886740808
0.744292 -0.396033 -0.780238 0.000000000000000e+00 1886740808
2.092190 -1.259677 -2.278724 0.000000000000000e+00 1634890835
0.744292 -0.256361 -0.715829 0.000000000000000e+00 1886740808
0.744292 -0.300569 -0.739764 0.000000000000000e+00 1886740808
0.744292 -0.396261 -0.794285 0.000000000000000e+00 1886740808
2.054432 -1.238318 -2.278724 0.000000000000000e+00 1634890835
0.744292 -0.255995 -0.728030 0.000000000000000e+00 1886740808
0.744292 -0.300372 -0.752583 0.000000000000000e+00 1886740808
2.097576 -1.117403 -2.278725 0.000000000000000e+00 1634890835
2.017380 -1.217359 -2.278724 0.000000000000000e+00 1634890835
0.744292 -0.255623 -0.740422 0.000000000000000e+00 1886740808
0.744292 -0.300171 -0.765608 0.000000000000000e+00 1886740808
2.060542 -1.098330 -2.278725 0.000000000000000e+00 1634890835
0.796275 -0.481053 -0.915942 0.000000000000000e+00 1886740808
0.744292 -0.255245 -0.753011 0.000000000000000e+00 1886740808
0.744292 -0.299968 -0.778848 0.000000000000000e+00 1886740808
2.024175 -1.079598 -2.278724 0.000000000000000e+00 1634890835
0.784636 -0.474576 -0.919123 0.000000000000000e+00 1886740808
0.744292 -0.254862 -0.765803 0.000000000000000e+00 1886740808
0.744292 -0.299761 -0.792308 0.000000000000000e+00 1886740808
1.988451 -1.061197 -2.278724 0.000000000000000e+00 1634890835
0.775673 -0.469713 -0.925308 0.000000000000000e+00 1886740808
0.744292 -0.254472 -0.778808 0.000000000000000e+00 1886740808
2.104270 -0.846890 -2.278724 0.000000000000000e+00 1634890835
0.797388 -0.425818 -0.930213 0.000000000000000e+00 1886740808
0.768823 -0.466130 -0.933989 0.000000000000000e+00 1886740808
0.744292 -0.254076 -0.792029 0.000000000000000e+00 1886740808
2.068527 -0.831911 -2.278724 0.000000000000000e+00 1634890835
0.785518 -0.419747 -0.932844 0.000000000000000e+00 1886740808
0.764549 -0.464111 -0.945878 0.000000000000000e+00 1886740808
0.744292 -0.253672 -0.805476 0.000000000000000e+00 1886740808
2.033381 -0.817180 -2.278724 0.000000000000000e+00 1634890835
0.776431 -0.415161 -0.938648 0.000000000000000e+00 1886740808
1.808580 -1.099257 -2.278724 0.000000000000000e+00 1634890835
2.070470 -0.704525 -2.278724 0.000000000000000e+00 1634890835
1.998811 -0.802691 -2.278724 0.000000000000000e+00 1634890835
0.769417 -0.411684 -0.946931 0.000000000000000e+00 1886740808
1.775828 -1.080734 -2.278724 0.000000000000000e+00 1634890835
2.035869 -0.691611 -2.278724 0.000000000000000e+00 1634890835
1.964798 -0.788435 -2.278724 0.000000000000000e+00 1634890835
0.764805 -0.409492 -0.958243 0.000000000000000e+00 1886740808
0.749057 -0.456456 -0.978942 0.000000000000000e+00 1886740808
2.001816 -0.678901 -2.278724 0.000000000000000e+00 1634890835
1.931322 -0.774404 -2.278724 0.000000000000000e+00 1634890835
0.767168 -0.411040 -0.978586 0.000000000000000e+00 1886740808
1.711905 -1.044580 -2.278724 0.000000000000000e+00 1634890835
1.968291 -0.666388 -2.278724 0.000000000000000e+00 1634890835
0.797681 -0.319597 -0.957506 0.000000000000000e+00 1886740808
1.754621 -0.940767 -2.278724 0.000000000000000e+00 1634890835
1.680699 -1.026931 -2.278724 0.000000000000000e+00 1634890835
1.935278 -0.654067 -2.278724 0.000000000000000e+00 1634890835
0.785810 -0.314588 -0.959661 0.000000000000000e+00 1886740808
0.751062 -0.402982 -0.993125 0.000000000000000e+00 1886740808
1.649974 -1.009554 -2.278724 0.000000000000000e+00 1634890835
1.902760 -0.641932 -2.278724 0.000000000000000e+00 1634890835
0.776731 -0.310699 -0.965105 0.000000000000000e+00 1886740808
1.692476 -0.908758 -2.278724 0.000000000000000e+00 1634890835
1.619714 -0.992441 -2.278724 0.000000000000000e+00 1634890835
0.796758 -0.268312 -0.970530 0.000000000000000e+00 1886740808
0.769655 -0.307611 -0.973021 0.000000000000000e+00 1886740808
1.662096 -0.893112 -2.278724 0.000000000000000e+00 1634890835
1.589905 -0.975582 -2.278724 0.000000000000000e+00 1634890835
0.785168 -0.263918 -0.972831 0.000000000000000e+00 1886740808
0.764879 -0.305443 -0.983925 0.000000000000000e+00 1886740808
1.632159 -0.877694 -2.278724 0.000000000000000e+00 1634890835
1.560531 -0.958972 -2.278725 0.000000000000000e+00 1634890835
0.776222 -0.260415 -0.978302 0.000000000000000e+00 1886740808
0.765617 -0.305471 -1.002180 0.000000000000000e+00 1886740808
1.602651 -0.862497 -2.278725 0.000000000000000e+00 1634890835
1.531580 -0.942599 -2.278724 0.000000000000000e+00 1634890835
0.769282 -0.257587 -0.986297 0.000000000000000e+00 1886740808
1.710670 -0.681928 -2.278724 0.000000000000000e+00 1634890835
1.573559 -0.847512 -2.278724 0.000000000000000e+00 1634890835
1.503036 -0.926457 -2.278724 0.000000000000000e+00 1634890835
0.764661 -0.255532 -0.997356 0.000000000000000e+00 1886740808
1.680923 -0.669461 -2.278724 0.000000000000000e+00 1634890835
1.544868 -0.832736 -2.278724 0.000000000000000e+00 1634890835
1.474887 -0.910539 -2.278724 0.000000000000000e+00 1634890835
0.766221 -0.255533 -1.016766 0.000000000000000e+00 1886740808
0.744044 -0.296055 -1.026577 0.000000000000000e+00 1886740808
1.516566 -0.818160 -2.278724 0.000000000000000e+00 1634890835
1.447123 -0.894838 -2.278724 0.000000000000000e+00 1634890835
1.687756 -0.561695 -2.278724 0.000000000000000e+00 1634890835
1.622622 -0.645028 -2.278724 0.000000000000000e+00 1634890835
1.488640 -0.803778 -2.278724 0.000000000000000e+00 1634890835
1.419726 -0.879346 -2.278724 0.000000000000000e+00 1634890835
0.752070 -0.249761 -1.033206 0.000000000000000e+00 1886740808
1.594045 -0.633051 -2.278724 0.000000000000000e+00 1634890835
1.461080 -0.789586 -2.278724 0.000000000000000e+00 1634890835
1.392690 -0.864059 -2.278724 0.000000000000000e+00 1634890835
1.629981 -0.540137 -2.278724 0.000000000000000e+00 1634890835
1.565836 -0.621228 -2.278724 0.000000000000000e+00 1634890835
1.433876 -0.775574 -2.278724 0.000000000000000e+00 1634890835
1.366003 -0.848967 -2.278724 0.000000000000000e+00 1634890835
1.601640 -0.529562 -2.278724 0.000000000000000e+00 1634890835
1.537980 -0.609555 -2.278724 0.000000000000000e+00 1634890835
1.407013 -0.761740 -2.278724 0.000000000000000e+00 1634890835
1.339652 -0.834066 -2.278724 0.000000000000000e+00 1634890835
1.573650 -0.519119 -2.278724 0.000000000000000e+00 1634890835
1.510469 -0.598025 -2.278724 0.000000000000000e+00 1634890835
1.380483 -0.748076 -2.278724 0.000000000000000e+00 1634890835
1.313627 -0.819351 -2.278724 0.000000000000000e+00 1634890835
1.546002 -0.508802 -2.278724 0.000000000000000e+00 1634890835
1.483293 -0.586635 -2.278724 0.000000000000000e+00 1634890835
1.354276 -0.734579 -2.278725 0.000000000000000e+00 1634890835
1.287919 -0.804814 -2.278724 0.000000000000000e+00 1634890835
1.518684 -0.498609 -2.278724 0.000000000000000e+00 1634890835
1.456442 -0.575382 -2.278724 0.000000000000000e+00 1634890835
1.328381 -0.721243 -2.278724 0.000000000000000e+00 1634890835
1.262518 -0.790451 -2.278724 0.000000000000000e+00 1634890835
1.491687 -0.488534 -2.278724 0.000000000000000e+00 1634890835
1.429905 -0.564261 -2.278724 0.000000000000000e+00 1634890835
1.302789 -0.708063 -2.278724 0.000000000000000e+00 1634890835
1.237415 -0.776258 -2.278724 0.000000000000000e+00 1634890835
1.464999 -0.478578 -2.278724 0.000000000000000e+00 1634890835
1.403672 -0.553268 -2.278724 0.000000000000000e+00 1634890835
1.277491 -0.695035 -2.278724 0.000000000000000e+00 1634890835
1.212599 -0.762227 -2.278724 0.000000000000000e+00 1634890835
1.438614 -0.468733 -2.278724 0.000000000000000e+00 1634890835
1.377735 -0.542399 -2.278724 0.000000000000000e+00 1634890835
1.252479 -0.682153 -2.278724 0.000000000000000e+00 1634890835
1.188065 -0.748353 -2.278724 0.000000000000000e+00 1634890835
1.412521 -0.458998 -2.278724 0.000000000000000e+00 1634890835
1.352086 -0.531649 -2.278724 0.000000000000000e+00 1634890835
1.227742 -0.669413 -2.278724 0.000000000000000e+00 1634890835
1.163800 -0.734633 -2.278724 0.000000000000000e+00 1634890835
1.386711 -0.449370 -2.278724 0.000000000000000e+00 1634890835
1.326715 -0.521016 -2.278724 0.000000000000000e+00 1634890835
1.203273 -0.656813 -2.278725 0.000000000000000e+00 1634890835
1.139798 -0.721064 -2.278724 0.000000000000000e+00 1634890835
1.361179 -0.439844 -2.278724 0.000000000000000e+00 1634890835
1.301615 -0.510497 -2.278724 0.000000000000000e+00 1634890835
1.179065 -0.644345 -2.278724 0.000000000000000e+00 1634890835
1.116051 -0.707637 -2.278724 0.000000000000000e+00 1634890835
1.335913 -0.430416 -2.278724 0.000000000000000e+00 1634890835
1.276777 -0.500088 -2.278724 0.000000000000000e+00 1634890835
1.155108 -0.632008 -2.278725 0.000000000000000e+00 1634890835
1.092552 -0.694349 -2.278724 0.000000000000000e+00 1634890835
1.310907 -0.421087 -2.278724 0.000000000000000e+00 1634890835
1.252194 -0.489785 -2.278724 0.000000000000000e+00 1634890835
1.131397 -0.619796 -2.278724 0.000000000000000e+00 1634890835
1.069292 -0.681200 -2.278724 0.000000000000000e+00 1634890835
1.286154 -0.411853 -2.278724 0.000000000000000e+00 1634890835
1.227858 -0.479587 -2.278724 0.000000000000000e+00 1634890835
1.107923 -0.607707 -2.278724 0.000000000000000e+00 1634890835
1.046265 -0.668180 -2.278724 0.000000000000000e+00 1634890835
1.261646 -0.402710 -2.278724 0.000000000000000e+00 1634890835
1.203762 -0.469489 -2.278725 0.000000000000000e+00 1634890835
1.084678 -0.595736 -2.278724 0.000000000000000e+00 1634890835
1.023463 -0.655288 -2.278724 0.000000000000000e+00 1634890835
1.237375 -0.393656 -2.278724 0.000000000000000e+00 1634890835
1.179898 -0.459489 -2.278724 0.000000000000000e+00 1634890835
1.061657 -0.583881 -2.278724 0.000000000000000e+00 1634890835
1.000880 -0.642521 -2.278724 0.000000000000000e+00 1634890835
1.213335 -0.384687 -2.278724 0.000000000000000e+00 1634890835
1.156261 -0.449584 -2.278724 0.000000000000000e+00 1634890835
1.038853 -0.572137 -2.278724 0.000000000000000e+00 1634890835
0.978509 -0.629873 -2.278725 0.000000000000000e+00 1634890835
1.189519 -0.375802 -2.278724 0.000000000000000e+00 1634890835
1.132842 -0.439770 -2.278724 0.000000000000000e+00 1634890835
1.016259 -0.560501 -2.278724 0.000000000000000e+00 1634890835
0.956343 -0.617342 -2.278724 0.000000000000000e+00 1634890835
1.165919 -0.366998 -2.278724 0.000000000000000e+00 1634890835
1.109636 -0.430045 -2.278724 0.000000000000000e+00 1634890835
0.993868 -0.548970 -2.278724 0.000000000000000e+00 1634890835
0.934376 -0.604922 -2.278724 0.000000000000000e+00 1634890835
1.142531 -0.358273 -2.278725 0.000000000000000e+00 1634890835
1.086637 -0.420406 -2.278724 0.000000000000000e+00 1634890835
0.971675 -0.537541 -2.278724 0.000000000000000e+00 1634890835
0.912603 -0.592613 -2.278724 0.000000000000000e+00 1634890835
1.119348 -0.349625 -2.278724 0.000000000000000e+00 1634890835
1.063838 -0.410852 -2.278724 0.000000000000000e+00 1634890835
0.949674 -0.526210 -2.278724 0.000000000000000e+00 1634890835
0.891017 -0.580410 -2.278724 0.000000000000000e+00 1634890835
1.096362 -0.341050 -2.278724 0.000000000000000e+00 1634890835
1.041232 -0.401379 -2.278724 0.000000000000000e+00 1634890835
0.927857 -0.514975 -2.278724 0.000000000000000e+00 1634890835
0.869612 -0.568309 -2.278724 0.000000000000000e+00 1634890835
1.073570 -0.332549 -2.278724 0.000000000000000e+00 1634890835
1.018816 -0.391985 -2.278724 0.000000000000000e+00 1634890835
0.906221 -0.503834 -2.278724 0.000000000000000e+00 1634890835
0.848383 -0.556307 -2.278724 0.000000000000000e+00 1634890835
1.050965 -0.324117 -2.278724 0.000000000000000e+00 1634890835
0.996581 -0.382668 -2.278724 0.000000000000000e+00 1634890835
0.884760 -0.492781 -2.278725 0.000000000000000e+00 1634890835
0.827325 -0.544403 -2.278724 0.000000000000000e+00 1634890835
1.028541 -0.315752 -2.278724 0.000000000000000e+00 1634890835
0.974525 -0.373425 -2.278724 0.000000000000000e+00 1634890835
0.863468 -0.481816 -2.278724 0.000000000000000e+00 1634890835
0.451011 -0.297861 -1.274415 0.000000000000000e+00 1936876886
1.006293 -0.307452 -2.278724 0.000000000000000e+00 1634890835
0.952640 -0.364254 -2.278724 0.000000000000000e+00 1634890835
0.842339 -0.470936 -2.278724 0.000000000000000e+00 1634890835
0.433314 -0.287261 -1.256717 0.000000000000000e+00 1936876886
0.984216 -0.299218 -2.278724 0.000000000000000e+00 1634890835
0.930922 -0.355153 -2.278724 0.000000000000000e+00 1634890835
0.821370 -0.460137 -2.278724 0.000000000000000e+00 1634890835
0.421236 -0.280360 -1.254547 0.000000000000000e+00 1936876886
0.962304 -0.291044 -2.278724 0.000000000000000e+00 1634890835
0.909365 -0.346118 -2.278724 0.000000000000000e+00 1634890835
0.445942 -0.250344 -1.269346 0.000000000000000e+00 1936876886
0.335132 -0.223974 -1.025488 0.000000000000000e+00 1953264973
0.940552 -0.282930 -2.278724 0.000000000000000e+00 1634890835
0.887965 -0.337150 -2.278724 0.000000000000000e+00 1634890835
0.428906 -0.241308 -1.253205 0.000000000000000e+00 1936876886
0.306477 -0.205707 -0.964060 0.000000000000000e+00 1953264973
0.495093 -0.148090 -1.227674 0.000000000000000e+00 1936876886
0.866716 -0.328246 -2.278724 0.000000000000000e+00 1634890835
0.358560 -0.202192 -1.075979 0.000000000000000e+00 1953264973
0.281227 -0.189611 -0.909933 0.000000000000000e+00 1953264973
0.483539 -0.143780 -1.227674 0.000000000000000e+00 1936876886
0.845614 -0.319403 -2.278724 0.000000000000000e+00 1634890835
0.326699 -0.184666 -1.007410 0.000000000000000e+00 1953264973
0.258806 -0.175318 -0.861870 0.000000000000000e+00 1953264973
0.472063 -0.139500 -1.227674 0.000000000000000e+00 1936876886
0.824654 -0.310619 -2.278724 0.000000000000000e+00 1634890835
0.299059 -0.169466 -0.948158 0.000000000000000e+00 1953264973
0.238759 -0.162539 -0.818898 0.000000000000000e+00 1953264973
