# .PCD v0.7 - Point Cloud Data file format
VERSION 0.7
FIELDS x y z rgb label
SIZE 4 4 4 4 4
TYPE F F F F U
COUNT 1 1 1 1 1
WIDTH 538
HEIGHT 1
VIEWPOINT 0 0 0 1 0 0 0
POINTS 538
DATA ascii
39.989681 -20.437429 10.320446 0.000000000000000e+00 1954047316
39.986385 -20.442360 9.903714 0.000000000000000e+00 1954047316
31.845495 -11.839659 -2.023279 0.000000000000000e+00 1851878480
31.108400 -13.012490 -1.896438 0.000000000000000e+00 1851878480
28.603409 -14.760656 -1.546739 0.000000000000000e+00 1851878480
27.700212 -15.727207 -1.375579 0.000000000000000e+00 1851878480
28.851679 -10.718471 -2.095174 0.000000000000000e+00 1851878480
28.105289 -11.752207 -1.976476 0.000000000000000e+00 1851878480
26.790344 -13.829322 -1.716096 0.000000000000000e+00 1851878480
26.101892 -14.828483 -1.565787 0.000000000000000e+00 1851878480
26.564476 -9.861270 -2.170628 0.000000000000000e+00 1851878480
26.154348 -10.932575 -2.084367 0.000000000000000e+00 1851878480
25.461189 -13.147275 -1.885388 0.000000000000000e+00 1851878480
24.905622 -14.157221 -1.751585 0.000000000000000e+00 1851878480
24.284489 -9.008042 -2.205376 0.000000000000000e+00 1851878480
24.550169 -10.258421 -2.186842 0.000000000000000e+00 1851878480
23.826281 -12.306870 -2.002736 0.000000000000000e+00 1851878480
23.551796 -13.395586 -1.900288 0.000000000000000e+00 1851878480
22.312963 -8.270425 -2.229677 0.000000000000000e+00 1851878480
22.570606 -9.427942 -2.222526 0.000000000000000e+00 1851878480
22.220243 -11.480886 -2.090410 0.000000000000000e+00 1851878480
21.933374 -12.482454 -1.997220 0.000000000000000e+00 1851878480
20.480097 -7.585278 -2.233409 0.000000000000000e+00 1851878480
20.638643 -8.617901 -2.226428 0.000000000000000e+00 1851878480
20.657259 -10.676621 -2.150714 0.000000000000000e+00 1851878480
20.372629 -11.601105 -2.066796 0.000000000000000e+00 1851878480
18.929665 -7.005682 -2.237329 0.000000000000000e+00 1851878480
18.987812 -7.925784 -2.227239 0.000000000000000e+00 1851878480
19.273977 -9.964787 -2.200504 0.000000000000000e+00 1851878480
18.907921 -10.773421 -2.115059 0.000000000000000e+00 1851878480
17.577665 -6.500336 -2.238437 0.000000000000000e+00 1851878480
17.618433 -7.351584 -2.232896 0.000000000000000e+00 1851878480
17.770287 -9.190233 -2.207867 0.000000000000000e+00 1851878480
17.715649 -10.100095 -2.166521 0.000000000000000e+00 1851878480
16.396894 -6.059028 -2.238438 0.000000000000000e+00 1851878480
16.435862 -6.855714 -2.238438 0.000000000000000e+00 1851878480
16.451740 -8.510985 -2.210152 0.000000000000000e+00 1851878480
16.534960 -9.432580 -2.195032 0.000000000000000e+00 1851878480
15.362925 -5.672592 -2.238438 0.000000000000000e+00 1851878480
15.366796 -6.407505 -2.238438 0.000000000000000e+00 1851878480
15.390787 -7.964614 -2.223367 0.000000000000000e+00 1851878480
15.410195 -8.796200 -2.207244 0.000000000000000e+00 1851878480
8.254583 -3.045562 -1.278724 1.880790849211783e-38 1684957512
8.241181 -3.435109 -1.278724 1.880790849211783e-38 1684957512
14.452890 -7.481610 -2.234486 0.000000000000000e+00 1851878480
14.422084 -8.237115 -2.217273 0.000000000000000e+00 1851878480
7.790525 -2.872127 -1.278724 1.880790849211783e-38 1684957512
7.764877 -3.235424 -1.278724 1.880790849211783e-38 1684957512
13.584813 -7.034464 -2.238438 0.000000000000000e+00 1851878480
13.574477 -7.757665 -2.230001 0.000000000000000e+00 1851878480
7.374934 -2.716805 -1.278724 1.880790849211783e-38 1684957512
7.339622 -3.057136 -1.278724 1.880790849211783e-38 1684957512
12.793028 -6.626554 -2.238437 0.000000000000000e+00 1851878480
12.802253 -7.320754 -2.238438 0.000000000000000e+00 1851878480
7.000535 -2.576877 -1.278724 1.880790849211783e-38 1684957512
6.957564 -2.896964 -1.278724 1.880790849211783e-38 1684957512
12.086507 -6.262574 -2.238438 0.000000000000000e+00 1851878480
12.070436 -6.906454 -2.238438 0.000000000000000e+00 1851878480
6.661457 -2.450152 -1.278724 1.880790849211783e-38 1684957512
6.612411 -2.752259 -1.278724 1.880790849211783e-38 1684957512
6.542105 -3.390841 -1.278724 1.880790849211783e-38 1684957512
11.415789 -6.535829 -2.238439 0.000000000000000e+00 1851878480
6.469698 -2.377759 -1.302238 1.880790849211783e-38 1684957512
6.469698 -2.691885 -1.313376 1.880790849211783e-38 1684957512
6.469696 -3.354376 -1.331159 1.880790849211783e-38 1684957512
10.826601 -6.202271 -2.238439 0.000000000000000e+00 1851878480
6.469698 -2.375894 -1.362741 1.880790849211783e-38 1684957512
6.469697 -2.690911 -1.375818 1.880790849211783e-38 1684957512
6.469698 -3.355447 -1.397973 1.880790849211783e-38 1684957512
10.293453 -5.900443 -2.238439 0.000000000000000e+00 1851878480
6.469698 -2.374025 -1.423435 1.880790849211783e-38 1684957512
6.469698 -2.689933 -1.438466 1.880790849211783e-38 1684957512
6.469697 -3.356528 -1.465028 1.880790849211783e-38 1684957512
9.808615 -5.625965 -2.238438 0.000000000000000e+00 1851878480
6.469697 -2.372148 -1.484326 1.880790849211783e-38 1684957512
6.469697 -2.688954 -1.501326 1.880790849211783e-38 1684957512
6.469697 -3.357607 -1.532329 1.880790849211783e-38 1684957512
9.365772 -5.375263 -2.238438 0.000000000000000e+00 1851878480
6.469698 -2.370268 -1.545428 1.880790849211783e-38 1684957512
6.469697 -2.687971 -1.564410 1.880790849211783e-38 1684957512
6.469697 -3.358692 -1.599891 1.880790849211783e-38 1684957512
8.959615 -5.145332 -2.238438 0.000000000000000e+00 1851878480
6.469698 -2.368380 -1.606748 1.880790849211783e-38 1684957512
6.469698 -2.686983 -1.627729 1.880790849211783e-38 1684957512
6.469697 -3.359780 -1.667726 1.880790849211783e-38 1684957512
8.585714 -4.933658 -2.238438 0.000000000000000e+00 1851878480
6.469698 -2.366490 -1.668298 1.880790849211783e-38 1684957512
6.469698 -2.685993 -1.691295 1.880790849211783e-38 1684957512
6.469697 -3.360875 -1.735847 1.880790849211783e-38 1684957512
8.240317 -4.738128 -2.238438 0.000000000000000e+00 1851878480
6.469697 -2.364591 -1.730088 1.880790849211783e-38 1684957512
6.469697 -2.684999 -1.755117 1.880790849211783e-38 1684957512
6.469697 -3.361976 -1.804267 1.880790849211783e-38 1684957512
7.920235 -4.556930 -2.238438 0.000000000000000e+00 1851878480
6.469698 -2.362684 -1.792129 1.880790849211783e-38 1684957512
6.469698 -2.684003 -1.819209 1.880790849211783e-38 1684957512
6.469698 -3.363077 -1.872997 1.880790849211783e-38 1684957512
7.622733 -4.388512 -2.238438 0.000000000000000e+00 1851878480
6.469697 -2.360766 -1.854430 1.880790849211783e-38 1684957512
6.469697 -2.683001 -1.883578 1.880790849211783e-38 1684957512
6.469697 -3.364190 -1.942051 1.880790849211783e-38 1684957512
7.345472 -4.231555 -2.238438 0.000000000000000e+00 1851878480
6.469697 -2.358847 -1.917002 1.880790849211783e-38 1684957512
6.469698 -2.681993 -1.948238 1.880790849211783e-38 1684957512
6.469697 -3.365305 -2.011441 1.880790849211783e-38 1684957512
7.086408 -4.084904 -2.238438 0.000000000000000e+00 1851878480
6.469698 -2.356917 -1.979857 1.880790849211783e-38 1684957512
6.469698 -2.680984 -2.013200 1.880790849211783e-38 1684957512
6.469698 -3.366426 -2.081180 1.880790849211783e-38 1684957512
6.843773 -3.947547 -2.238438 0.000000000000000e+00 1851878480
6.469698 -2.354984 -2.043009 1.880790849211783e-38 1684957512
6.469698 -2.679968 -2.078479 1.880790849211783e-38 1684957512
6.469697 -3.367553 -2.151285 1.880790849211783e-38 1684957512
6.616007 -3.818614 -2.238438 0.000000000000000e+00 1851878480
6.469698 -2.353037 -2.106463 1.880790849211783e-38 1684957512
6.469698 -2.678946 -2.144082 1.880790849211783e-38 1684957512
6.469698 -3.368686 -2.221766 1.880790849211783e-38 1684957512
6.401762 -3.697335 -2.238438 0.000000000000000e+00 1851878480
6.469697 -2.351081 -2.170234 1.880790849211783e-38 1684957512
6.469698 -2.677921 -2.210024 1.880790849211783e-38 1684957512
6.316747 -3.290164 -2.238438 0.000000000000000e+00 1851878480
6.199835 -3.583028 -2.238439 0.000000000000000e+00 1851878480
6.469697 -2.349118 -2.234334 1.880790849211783e-38 1684957512
6.362040 -2.632345 -2.238439 0.000000000000000e+00 1851878480
6.126280 -3.192043 -2.238438 0.000000000000000e+00 1851878480
6.009161 -3.475096 -2.238439 0.000000000000000e+00 1851878480
6.299883 -2.285539 -2.238438 0.000000000000000e+00 1851878480
6.181038 -2.556466 -2.238439 0.000000000000000e+00 1851878480
5.945936 -3.099138 -2.238439 0.000000000000000e+00 1851878480
5.828796 -3.372999 -2.238438 0.000000000000000e+00 1851878480
6.127178 -2.221004 -2.238439 0.000000000000000e+00 1851878480
6.009109 -2.484385 -2.238439 0.000000000000000e+00 1851878480
5.774900 -3.011026 -2.238439 0.000000000000000e+00 1851878480
5.657900 -3.276262 -2.238439 0.000000000000000e+00 1851878480
5.962795 -2.159582 -2.238438 0.000000000000000e+00 1851878480
5.845568 -2.415827 -2.238439 0.000000000000000e+00 1851878480
5.612450 -2.927340 -2.238438 0.000000000000000e+00 1851878480
5.495728 -3.184461 -2.238438 0.000000000000000e+00 1851878480
5.806121 -2.101041 -2.238438 0.000000000000000e+00 1851878480
5.689788 -2.350521 -2.238439 0.000000000000000e+00 1851878480
5.457931 -2.847738 -2.238438 0.000000000000000e+00 1851878480
5.341598 -3.097218 -2.238439 0.000000000000000e+00 1851878480
5.656608 -2.045175 -2.238439 0.000000000000000e+00 1851878480
5.541209 -2.288233 -2.238438 0.000000000000000e+00 1851878480
5.310751 -2.771919 -2.238438 0.000000000000000e+00 1851878480
5.194905 -3.014182 -2.238439 0.000000000000000e+00 1851878480
5.513752 -1.991798 -2.238439 0.000000000000000e+00 1851878480
5.399325 -2.228750 -2.238439 0.000000000000000e+00 1851878480
5.170382 -2.699606 -2.238439 0.000000000000000e+00 1851878480
5.055102 -2.935052 -2.238439 0.000000000000000e+00 1851878480
5.377094 -1.940738 -2.238439 0.000000000000000e+00 1851878480
5.263666 -2.171883 -2.238439 0.000000000000000e+00 1851878480
5.036333 -2.630553 -2.238439 0.000000000000000e+00 1851878480
4.921690 -2.859536 -2.238439 0.000000000000000e+00 1851878480
5.246230 -1.891842 -2.238438 0.000000000000000e+00 1851878480
5.133820 -2.117448 -2.238439 0.000000000000000e+00 1851878480
4.908175 -2.564532 -2.238439 0.000000000000000e+00 1851878480
4.794227 -2.787390 -2.238439 0.000000000000000e+00 1851878480
5.120778 -1.844971 -2.238439 0.000000000000000e+00 1851878480
5.009401 -2.065290 -2.238439 0.000000000000000e+00 1851878480
4.785511 -2.501342 -2.238439 0.000000000000000e+00 1851878480
4.672303 -2.718377 -2.238438 0.000000000000000e+00 1851878480
5.000391 -1.799993 -2.238439 0.000000000000000e+00 1851878480
4.890058 -2.015259 -2.238439 0.000000000000000e+00 1851878480
4.667971 -2.440789 -2.238439 0.000000000000000e+00 1851878480
4.555546 -2.652293 -2.238438 0.000000000000000e+00 1851878480
4.884751 -1.756790 -2.238438 0.000000000000000e+00 1851878480
4.775469 -1.967223 -2.238439 0.000000000000000e+00 1851878480
4.555225 -2.382710 -2.238438 0.000000000000000e+00 1851878480
4.443617 -2.588940 -2.238438 0.000000000000000e+00 1851878480
4.773567 -1.715248 -2.238439 0.000000000000000e+00 1851878480
4.665338 -1.921054 -2.238439 0.000000000000000e+00 1851878480
4.446969 -2.326942 -2.238439 0.000000000000000e+00 1851878480
4.336202 -2.528143 -2.238438 0.000000000000000e+00 1851878480
4.666573 -1.675276 -2.238439 0.000000000000000e+00 1851878480
4.559398 -1.876642 -2.238439 0.000000000000000e+00 1851878480
4.342926 -2.273347 -2.238439 0.000000000000000e+00 1851878480
4.233025 -2.469746 -2.238438 0.000000000000000e+00 1851878480
4.563520 -1.636775 -2.238439 0.000000000000000e+00 1851878480
4.457397 -1.833884 -2.238439 0.000000000000000e+00 1851878480
4.242839 -2.221788 -2.238438 0.000000000000000e+00 1851878480
4.133819 -2.413598 -2.238438 0.000000000000000e+00 1851878480
4.464179 -1.599665 -2.238439 0.000000000000000e+00 1851878480
4.359106 -1.792679 -2.238439 0.000000000000000e+00 1851878480
4.146472 -2.172144 -2.238438 0.000000000000000e+00 1851878480
4.038345 -2.359563 -2.238439 0.000000000000000e+00 1851878480
4.368339 -1.563859 -2.238439 0.000000000000000e+00 1851878480
4.264310 -1.752939 -2.238439 0.000000000000000e+00 1851878480
4.053603 -2.124304 -2.238438 0.000000000000000e+00 1851878480
3.946382 -2.307513 -2.238438 0.000000000000000e+00 1851878480
4.275807 -1.529294 -2.238438 0.000000000000000e+00 1851878480
4.172815 -1.714584 -2.238439 0.000000000000000e+00 1851878480
3.964037 -2.078167 -2.238438 0.000000000000000e+00 1851878480
3.857727 -2.257339 -2.238438 0.000000000000000e+00 1851878480
4.186403 -1.495893 -2.238439 0.000000000000000e+00 1851878480
4.084439 -1.677536 -2.238439 0.000000000000000e+00 1851878480
3.877585 -2.033633 -2.238438 0.000000000000000e+00 1851878480
3.772191 -2.208930 -2.238438 0.000000000000000e+00 1851878480
4.099956 -1.463601 -2.238439 0.000000000000000e+00 1851878480
3.999010 -1.641725 -2.238438 0.000000000000000e+00 1851878480
3.794077 -1.990616 -2.238439 0.000000000000000e+00 1851878480
3.689600 -2.162189 -2.238439 0.000000000000000e+00 1851878480
4.016311 -1.432355 -2.238439 0.000000000000000e+00 1851878480
3.916373 -1.607085 -2.238439 0.000000000000000e+00 1851878480
3.713350 -1.949031 -2.238439 0.000000000000000e+00 1851878480
3.609791 -2.117022 -2.238439 0.000000000000000e+00 1851878480
4.006151 -1.427338 -2.278728 0.000000000000000e+00 1634890835
3.836381 -1.573552 -2.238439 0.000000000000000e+00 1851878480
3.635255 -1.908804 -2.238438 0.000000000000000e+00 1851878480
3.532613 -2.073345 -2.238438 0.000000000000000e+00 1851878480
3.926265 -1.397497 -2.278728 0.000000000000000e+00 1634890835
3.758895 -1.541070 -2.238439 0.000000000000000e+00 1851878480
3.559655 -1.869858 -2.238439 0.000000000000000e+00 1851878480
3.457926 -2.031078 -2.238439 0.000000000000000e+00 1851878480
3.848820 -1.368569 -2.278728 0.000000000000000e+00 1634890835
3.683793 -1.509588 -2.238438 0.000000000000000e+00 1851878480
3.486423 -1.832135 -2.238439 0.000000000000000e+00 1851878480
3.385603 -1.990150 -2.238438 0.000000000000000e+00 1851878480
3.773688 -1.340507 -2.278728 0.000000000000000e+00 1634890835
3.610951 -1.479055 -2.238438 0.000000000000000e+00 1851878480
3.415433 -1.795569 -2.238438 0.000000000000000e+00 1851878480
3.315520 -1.950490 -2.238438 0.000000000000000e+00 1851878480
3.700759 -1.313267 -2.278728 0.000000000000000e+00 1634890835
3.540262 -1.449424 -2.238438 0.000000000000000e+00 1851878480
3.346581 -1.760102 -2.238439 0.000000000000000e+00 1851878480
3.247564 -1.912037 -2.238439 0.000000000000000e+00 1851878480
3.629925 -1.286811 -2.278728 0.000000000000000e+00 1634890835
3.471621 -1.420648 -2.238439 0.000000000000000e+00 1851878480
3.279753 -1.725678 -2.238438 0.000000000000000e+00 1851878480
3.181631 -1.874724 -2.238439 0.000000000000000e+00 1851878480
3.561092 -1.261101 -2.278728 0.000000000000000e+00 1634890835
3.466213 -1.417760 -2.278728 0.000000000000000e+00 1634890835
3.214859 -1.692250 -2.238439 0.000000000000000e+00 1851878480
3.117620 -1.838502 -2.238439 0.000000000000000e+00 1851878480
3.494164 -1.236102 -2.278728 0.000000000000000e+00 1634890835
3.400214 -1.390092 -2.278728 0.000000000000000e+00 1634890835
3.151802 -1.659767 -2.238439 0.000000000000000e+00 1851878480
3.055440 -1.803316 -2.238438 0.000000000000000e+00 1851878480
3.429052 -1.211786 -2.278728 0.000000000000000e+00 1634890835
3.336018 -1.363183 -2.278728 0.000000000000000e+00 1634890835
3.090497 -1.628189 -2.238438 0.000000000000000e+00 1851878480
2.995004 -1.769118 -2.238438 0.000000000000000e+00 1851878480
3.365676 -1.188117 -2.278728 0.000000000000000e+00 1634890835
3.273545 -1.336997 -2.278728 0.000000000000000e+00 1634890835
3.030862 -1.597471 -2.238439 0.000000000000000e+00 1851878480
2.936229 -1.735860 -2.238438 0.000000000000000e+00 1851878480
3.303958 -1.165065 -2.278728 0.000000000000000e+00 1634890835
3.212715 -1.311497 -2.278728 0.000000000000000e+00 1634890835
2.972821 -1.567573 -2.238439 0.000000000000000e+00 1851878480
2.879039 -1.703500 -2.238439 0.000000000000000e+00 1851878480
3.243824 -1.142608 -2.278728 0.000000000000000e+00 1634890835
3.153458 -1.286659 -2.278728 0.000000000000000e+00 1634890835
2.916302 -1.538461 -2.238439 0.000000000000000e+00 1851878480
2.823362 -1.671995 -2.238438 0.000000000000000e+00 1851878480
3.185207 -1.120718 -2.278728 0.000000000000000e+00 1634890835
3.095704 -1.262450 -2.278728 0.000000000000000e+00 1634890835
2.861240 -1.510097 -2.238439 0.000000000000000e+00 1851878480
2.769131 -1.641311 -2.238439 0.000000000000000e+00 1851878480
3.128043 -1.099369 -2.278728 0.000000000000000e+00 1634890835
3.039389 -1.238846 -2.278728 0.000000000000000e+00 1634890835
2.807568 -1.482453 -2.238439 0.000000000000000e+00 1851878480
2.716283 -1.611408 -2.238439 0.000000000000000e+00 1851878480
3.072268 -1.078541 -2.278728 0.000000000000000e+00 1634890835
2.984453 -1.215816 -2.278728 0.000000000000000e+00 1634890835
2.755228 -1.455491 -2.238439 0.000000000000000e+00 1851878480
0.840393 -0.499001 -0.705944 0.000000000000000e+00 1886740808
3.017823 -1.058209 -2.278728 0.000000000000000e+00 1634890835
2.930833 -1.193341 -2.278728 0.000000000000000e+00 1634890835
2.704160 -1.429188 -2.238439 0.000000000000000e+00 1851878480
0.824541 -0.490031 -0.705944 0.000000000000000e+00 1886740808
2.964658 -1.038357 -2.278728 0.000000000000000e+00 1634890835
2.878479 -1.171398 -2.278728 0.000000000000000e+00 1634890835
0.837100 -0.442630 -0.705944 0.000000000000000e+00 1886740808
0.809071 -0.481279 -0.705944 0.000000000000000e+00 1886740808
2.912718 -1.018962 -2.278728 0.000000000000000e+00 1634890835
2.827340 -1.149960 -2.278728 0.000000000000000e+00 1634890835
0.821749 -0.434723 -0.705944 0.000000000000000e+00 1886740808
0.793967 -0.472734 -0.705944 0.000000000000000e+00 1886740808
2.861954 -1.000006 -2.278728 0.000000000000000e+00 1634890835
2.777364 -1.129013 -2.278728 0.000000000000000e+00 1634890835
0.806752 -0.426999 -0.705944 0.000000000000000e+00 1886740808
0.779214 -0.464387 -0.705944 0.000000000000000e+00 1886740808
2.812319 -0.981474 -2.278728 0.000000000000000e+00 1634890835
2.728506 -1.108534 -2.278728 0.000000000000000e+00 1634890835
0.792095 -0.419449 -0.705944 0.000000000000000e+00 1886740808
0.764797 -0.456231 -0.705944 0.000000000000000e+00 1886740808
2.763768 -0.963344 -2.278728 0.000000000000000e+00 1634890835
0.830480 -0.337216 -0.705944 0.000000000000000e+00 1886740808
0.777763 -0.412067 -0.705944 0.000000000000000e+00 1886740808
0.750703 -0.448257 -0.705944 0.000000000000000e+00 1886740808
0.841491 -0.292946 -0.705944 0.000000000000000e+00 1886740808
0.815996 -0.331144 -0.705944 0.000000000000000e+00 1886740808
0.763744 -0.404846 -0.705944 0.000000000000000e+00 1886740808
0.744294 -0.444867 -0.713008 0.000000000000000e+00 1886740808
0.827083 -0.287567 -0.705944 0.000000000000000e+00 1886740808
0.801818 -0.325202 -0.705944 0.000000000000000e+00 1886740808
0.750026 -0.397780 -0.705944 0.000000000000000e+00 1886740808
0.744294 -0.445310 -0.726300 0.000000000000000e+00 1886740808
0.812976 -0.282300 -0.705944 0.000000000000000e+00 1886740808
0.787937 -0.319383 -0.705944 0.000000000000000e+00 1886740808
0.744294 -0.394947 -0.713320 0.000000000000000e+00 1886740808
0.744294 -0.445761 -0.739799 0.000000000000000e+00 1886740808
0.799155 -0.277140 -0.705944 0.000000000000000e+00 1886740808
0.774339 -0.313685 -0.705944 0.000000000000000e+00 1886740808
0.744294 -0.395158 -0.726287 0.000000000000000e+00 1886740808
0.744294 -0.446219 -0.753512 0.000000000000000e+00 1886740808
0.785612 -0.272084 -0.705944 0.000000000000000e+00 1886740808
0.761016 -0.308100 -0.705944 0.000000000000000e+00 1886740808
0.744294 -0.395372 -0.739456 0.000000000000000e+00 1886740808
0.744294 -0.446685 -0.767446 0.000000000000000e+00 1886740808
0.772336 -0.267127 -0.705944 0.000000000000000e+00 1886740808
0.747956 -0.302626 -0.705944 0.000000000000000e+00 1886740808
0.744294 -0.395589 -0.752833 0.000000000000000e+00 1886740808
0.744294 -0.447157 -0.781609 0.000000000000000e+00 1886740808
0.759317 -0.262267 -0.705944 0.000000000000000e+00 1886740808
0.744294 -0.300956 -0.714724 0.000000000000000e+00 1886740808
0.744294 -0.395810 -0.766425 0.000000000000000e+00 1886740808
0.744294 -0.447639 -0.796008 0.000000000000000e+00 1886740808
0.746547 -0.257499 -0.705944 0.000000000000000e+00 1886740808
0.744294 -0.300765 -0.727148 0.000000000000000e+00 1886740808
0.744294 -0.396034 -0.780240 0.000000000000000e+00 1886740808
2.092194 -1.259679 -2.278728 0.000000000000000e+00 1634890835
0.744294 -0.256361 -0.715830 0.000000000000000e+00 1886740808
0.744294 -0.300570 -0.739766 0.000000000000000e+00 1886740808
0.744294 -0.396262 -0.794286 0.000000000000000e+00 1886740808
2.054435 -1.238320 -2.278728 0.000000000000000e+00 1634890835
0.744294 -0.255996 -0.728032 0.000000000000000e+00 1886740808
0.744294 -0.300373 -0.752585 0.000000000000000e+00 1886740808
2.097580 -1.117405 -2.278728 0.000000000000000e+00 1634890835
2.017383 -1.217361 -2.278728 0.000000000000000e+00 1634890835
0.744294 -0.255623 -0.740423 0.000000000000000e+00 1886740808
0.744294 -0.300172 -0.765610 0.000000000000000e+00 1886740808
2.060546 -1.098331 -2.278729 0.000000000000000e+00 1634890835
0.796276 -0.481054 -0.915944 0.000000000000000e+00 1886740808
0.744294 -0.255246 -0.753012 0.000000000000000e+00 1886740808
0.744294 -0.299969 -0.778849 0.000000000000000e+00 1886740808
2.024179 -1.079600 -2.278728 0.000000000000000e+00 1634890835
0.784637 -0.474577 -0.919124 0.000000000000000e+00 1886740808
0.744294 -0.254862 -0.765805 0.000000000000000e+00 1886740808
0.744294 -0.299761 -0.792310 0.000000000000000e+00 1886740808
1.988454 -1.061199 -2.278728 0.000000000000000e+00 1634890835
0.775674 -0.469714 -0.925309 0.000000000000000e+00 1886740808
0.744294 -0.254473 -0.778809 0.000000000000000e+00 1886740808
2.104273 -0.846892 -2.278729 0.000000000000000e+00 1634890835
0.797390 -0.425819 -0.930215 0.000000000000000e+00 1886740808
0.768823 -0.466130 -0.933989 0.000000000000000e+00 1886740808
0.744294 -0.254076 -0.792031 0.000000000000000e+00 1886740808
2.068531 -0.831912 -2.278728 0.000000000000000e+00 1634890835
0.785519 -0.419748 -0.932845 0.000000000000000e+00 1886740808
0.764548 -0.464111 -0.945878 0.000000000000000e+00 1886740808
0.744294 -0.253673 -0.805478 0.000000000000000e+00 1886740808
2.033385 -0.817181 -2.278728 0.000000000000000e+00 1634890835
0.776431 -0.415161 -0.938648 0.000000000000000e+00 1886740808
1.808583 -1.099259 -2.278728 0.000000000000000e+00 1634890835
2.070473 -0.704526 -2.278728 0.000000000000000e+00 1634890835
1.998815 -0.802692 -2.278728 0.000000000000000e+00 1634890835
0.769417 -0.411684 -0.946931 0.000000000000000e+00 1886740808
1.775831 -1.080735 -2.278728 0.000000000000000e+00 1634890835
2.035873 -0.691613 -2.278728 0.000000000000000e+00 1634890835
1.964801 -0.788436 -2.278728 0.000000000000000e+00 1634890835
0.764804 -0.409491 -0.958242 0.000000000000000e+00 1886740808
0.749058 -0.456457 -0.978944 0.000000000000000e+00 1886740808
2.001819 -0.678902 -2.278728 0.000000000000000e+00 1634890835
1.931325 -0.774406 -2.278728 0.000000000000000e+00 1634890835
0.767162 -0.411036 -0.978577 0.000000000000000e+00 1886740808
1.711909 -1.044582 -2.278729 0.000000000000000e+00 1634890835
1.968295 -0.666389 -2.278728 0.000000000000000e+00 1634890835
0.797683 -0.319597 -0.957508 0.000000000000000e+00 1886740808
1.754624 -0.940768 -2.278728 0.000000000000000e+00 1634890835
1.680702 -1.026933 -2.278728 0.000000000000000e+00 1634890835
1.935282 -0.654068 -2.278728 0.000000000000000e+00 1634890835
0.785812 -0.314588 -0.959662 0.000000000000000e+00 1886740808
0.751065 -0.402983 -0.993128 0.000000000000000e+00 1886740808
1.649977 -1.009556 -2.278728 0.000000000000000e+00 1634890835
1.902763 -0.641933 -2.278728 0.000000000000000e+00 1634890835
0.776731 -0.310699 -0.965105 0.000000000000000e+00 1886740808
1.692479 -0.908760 -2.278728 0.000000000000000e+00 1634890835
1.619718 -0.992443 -2.278728 0.000000000000000e+00 1634890835
0.796759 -0.268313 -0.970532 0.000000000000000e+00 1886740808
0.769655 -0.307611 -0.973021 0.000000000000000e+00 1886740808
1.662099 -0.893114 -2.278728 0.000000000000000e+00 1634890835
1.589908 -0.975584 -2.278728 0.000000000000000e+00 1634890835
0.785169 -0.263918 -0.972832 0.000000000000000e+00 1886740808
0.764879 -0.305442 -0.983924 0.000000000000000e+00 1886740808
1.632162 -0.877695 -2.278728 0.000000000000000e+00 1634890835
1.560534 -0.958974 -2.278728 0.000000000000000e+00 1634890835
0.776222 -0.260416 -0.978303 0.000000000000000e+00 1886740808
0.765614 -0.305470 -1.002177 0.000000000000000e+00 1886740808
1.602654 -0.862499 -2.278728 0.000000000000000e+00 1634890835
1.531582 -0.942600 -2.278728 0.000000000000000e+00 1634890835
0.769282 -0.257587 -0.986297 0.000000000000000e+00 1886740808
1.710673 -0.681929 -2.278728 0.000000000000000e+00 1634890835
1.573561 -0.847514 -2.278728 0.000000000000000e+00 1634890835
1.503039 -0.926459 -2.278729 0.000000000000000e+00 1634890835
0.764661 -0.255532 -0.997355 0.000000000000000e+00 1886740808
1.680926 -0.669463 -2.278728 0.000000000000000e+00 1634890835
1.544870 -0.832738 -2.278728 0.000000000000000e+00 1634890835
1.474891 -0.910541 -2.278729 0.000000000000000e+00 1634890835
0.766216 -0.255532 -1.016759 0.000000000000000e+00 1886740808
0.744042 -0.296054 -1.026573 0.000000000000000e+00 1886740808
1.516569 -0.818162 -2.278728 0.000000000000000e+00 1634890835
1.447125 -0.894839 -2.278728 0.000000000000000e+00 1634890835
1.687759 -0.561696 -2.278728 0.000000000000000e+00 1634890835
1.622625 -0.645029 -2.278729 0.000000000000000e+00 1634890835
1.488643 -0.803779 -2.278728 0.000000000000000e+00 1634890835
1.419729 -0.879348 -2.278728 0.000000000000000e+00 1634890835
0.752077 -0.249764 -1.033216 0.000000000000000e+00 1886740808
1.594048 -0.633052 -2.278728 0.000000000000000e+00 1634890835
1.461083 -0.789588 -2.278728 0.000000000000000e+00 1634890835
1.392693 -0.864060 -2.278728 0.000000000000000e+00 1634890835
1.629983 -0.540137 -2.278728 0.000000000000000e+00 1634890835
1.565839 -0.621229 -2.278728 0.000000000000000e+00 1634890835
1.433878 -0.775576 -2.278728 0.000000000000000e+00 1634890835
1.366006 -0.848969 -2.278728 0.000000000000000e+00 1634890835
1.601643 -0.529563 -2.278729 0.000000000000000e+00 1634890835
1.537982 -0.609556 -2.278728 0.000000000000000e+00 1634890835
1.407016 -0.761741 -2.278728 0.000000000000000e+00 1634890835
1.339654 -0.834068 -2.278728 0.000000000000000e+00 1634890835
1.573653 -0.519120 -2.278729 0.000000000000000e+00 1634890835
1.510472 -0.598026 -2.278728 0.000000000000000e+00 1634890835
1.380485 -0.748077 -2.278728 0.000000000000000e+00 1634890835
1.313629 -0.819352 -2.278728 0.000000000000000e+00 1634890835
1.546005 -0.508803 -2.278728 0.000000000000000e+00 1634890835
1.483296 -0.586636 -2.278728 0.000000000000000e+00 1634890835
1.354278 -0.734581 -2.278728 0.000000000000000e+00 1634890835
1.287921 -0.804815 -2.278728 0.000000000000000e+00 1634890835
1.518687 -0.498610 -2.278728 0.000000000000000e+00 1634890835
1.456445 -0.575383 -2.278728 0.000000000000000e+00 1634890835
1.328383 -0.721245 -2.278728 0.000000000000000e+00 1634890835
1.262520 -0.790453 -2.278729 0.000000000000000e+00 1634890835
1.491689 -0.488535 -2.278728 0.000000000000000e+00 1634890835
1.429907 -0.564262 -2.278728 0.000000000000000e+00 1634890835
1.302792 -0.708064 -2.278728 0.000000000000000e+00 1634890835
1.237417 -0.776259 -2.278728 0.000000000000000e+00 1634890835
1.465001 -0.478579 -2.278728 0.000000000000000e+00 1634890835
1.403674 -0.553269 -2.278728 0.000000000000000e+00 1634890835
1.277493 -0.695036 -2.278728 0.000000000000000e+00 1634890835
1.212601 -0.762228 -2.278728 0.000000000000000e+00 1634890835
1.438617 -0.468734 -2.278728 0.000000000000000e+00 1634890835
1.377738 -0.542399 -2.278728 0.000000000000000e+00 1634890835
1.252481 -0.682154 -2.278728 0.000000000000000e+00 1634890835
1.188067 -0.748354 -2.278728 0.000000000000000e+00 1634890835
1.412524 -0.458999 -2.278728 0.000000000000000e+00 1634890835
1.352088 -0.531650 -2.278728 0.000000000000000e+00 1634890835
1.227744 -0.669414 -2.278728 0.000000000000000e+00 1634890835
1.163802 -0.734634 -2.278729 0.000000000000000e+00 1634890835
1.386714 -0.449371 -2.278729 0.000000000000000e+00 1634890835
1.326718 -0.521017 -2.278728 0.000000000000000e+00 1634890835
1.203275 -0.656814 -2.278728 0.000000000000000e+00 1634890835
1.139800 -0.721065 -2.278728 0.000000000000000e+00 1634890835
1.361181 -0.439845 -2.278728 0.000000000000000e+00 1634890835
1.301618 -0.510498 -2.278728 0.000000000000000e+00 1634890835
1.179067 -0.644346 -2.278728 0.000000000000000e+00 1634890835
1.116053 -0.707638 -2.278728 0.000000000000000e+00 1634890835
1.335916 -0.430417 -2.278728 0.000000000000000e+00 1634890835
1.276780 -0.500089 -2.278728 0.000000000000000e+00 1634890835
1.155110 -0.632009 -2.278728 0.000000000000000e+00 1634890835
1.092554 -0.694351 -2.278728 0.000000000000000e+00 1634890835
1.310910 -0.421088 -2.278728 0.000000000000000e+00 1634890835
1.252196 -0.489786 -2.278728 0.000000000000000e+00 1634890835
1.131398 -0.619797 -2.278728 0.000000000000000e+00 1634890835
1.069294 -0.681201 -2.278728 0.000000000000000e+00 1634890835
1.286157 -0.411854 -2.278728 0.000000000000000e+00 1634890835
1.227860 -0.479588 -2.278728 0.000000000000000e+00 1634890835
1.107925 -0.607708 -2.278729 0.000000000000000e+00 1634890835
1.046267 -0.668182 -2.278728 0.000000000000000e+00 1634890835
1.261649 -0.402710 -2.278729 0.000000000000000e+00 1634890835
1.203764 -0.469490 -2.278728 0.000000000000000e+00 1634890835
1.084680 -0.595737 -2.278728 0.000000000000000e+00 1634890835
1.023465 -0.655290 -2.278729 0.000000000000000e+00 1634890835
1.237377 -0.393657 -2.278728 0.000000000000000e+00 1634890835
1.179900 -0.459490 -2.278728 0.000000000000000e+00 1634890835
1.061659 -0.583882 -2.278728 0.000000000000000e+00 1634890835
1.000881 -0.642522 -2.278728 0.000000000000000e+00 1634890835
1.213338 -0.384688 -2.278728 0.000000000000000e+00 1634890835
1.156263 -0.449585 -2.278728 0.000000000000000e+00 1634890835
1.038855 -0.572138 -2.278728 0.000000000000000e+00 1634890835
0.978511 -0.629874 -2.278729 0.000000000000000e+00 1634890835
1.189521 -0.375803 -2.278728 0.000000000000000e+00 1634890835
1.132844 -0.439770 -2.278728 0.000000000000000e+00 1634890835
1.016261 -0.560502 -2.278728 0.000000000000000e+00 1634890835
0.956344 -0.617344 -2.278728 0.000000000000000e+00 1634890835
1.165921 -0.366999 -2.278728 0.000000000000000e+00 1634890835
1.109638 -0.430046 -2.278728 0.000000000000000e+00 1634890835
0.993869 -0.548971 -2.278728 0.000000000000000e+00 1634890835
0.934377 -0.604924 -2.278728 0.000000000000000e+00 1634890835
1.142534 -0.358274 -2.278728 0.000000000000000e+00 1634890835
1.086639 -0.420407 -2.278729 0.000000000000000e+00 1634890835
0.971677 -0.537542 -2.278728 0.000000000000000e+00 1634890835
0.912605 -0.592614 -2.278728 0.000000000000000e+00 1634890835
1.119350 -0.349626 -2.278728 0.000000000000000e+00 1634890835
1.063840 -0.410853 -2.278728 0.000000000000000e+00 1634890835
0.949675 -0.526211 -2.278728 0.000000000000000e+00 1634890835
0.891019 -0.580411 -2.278728 0.000000000000000e+00 1634890835
1.096364 -0.341051 -2.278728 0.000000000000000e+00 1634890835
1.041234 -0.401380 -2.278728 0.000000000000000e+00 1634890835
0.927859 -0.514976 -2.278728 0.000000000000000e+00 1634890835
0.869614 -0.568310 -2.278728 0.000000000000000e+00 1634890835
1.073572 -0.332549 -2.278728 0.000000000000000e+00 1634890835
1.018818 -0.391985 -2.278729 0.000000000000000e+00 1634890835
0.906223 -0.503835 -2.278728 0.000000000000000e+00 1634890835
0.848385 -0.556309 -2.278728 0.000000000000000e+00 1634890835
1.050967 -0.324117 -2.278728 0.000000000000000e+00 1634890835
0.996583 -0.382669 -2.278728 0.000000000000000e+00 1634890835
0.884762 -0.492782 -2.278728 0.000000000000000e+00 1634890835
0.827327 -0.544404 -2.278728 0.000000000000000e+00 1634890835
1.028543 -0.315752 -2.278728 0.000000000000000e+00 1634890835
0.974527 -0.373425 -2.278728 0.000000000000000e+00 1634890835
0.863470 -0.481817 -2.278728 0.000000000000000e+00 1634890835
0.451012 -0.297861 -1.274416 0.000000000000000e+00 1936876886
1.006295 -0.307453 -2.278728 0.000000000000000e+00 1634890835
0.952642 -0.364254 -2.278728 0.000000000000000e+00 1634890835
0.842341 -0.470937 -2.278728 0.000000000000000e+00 1634890835
0.433314 -0.287261 -1.256718 0.000000000000000e+00 1936876886
0.984218 -0.299218 -2.278728 0.000000000000000e+00 1634890835
0.930924 -0.355153 -2.278728 0.000000000000000e+00 1634890835
0.821371 -0.460138 -2.278728 0.000000000000000e+00 1634890835
0.421224 -0.280352 -1.254509 0.000000000000000e+00 1936876886
0.962306 -0.291044 -2.278728 0.000000000000000e+00 1634890835
0.909367 -0.346119 -2.278728 0.000000000000000e+00 1634890835
0.445943 -0.250344 -1.269347 0.000000000000000e+00 1936876886
0.335129 -0.223972 -1.025477 0.000000000000000e+00 1953264973
0.940554 -0.282931 -2.278728 0.000000000000000e+00 1634890835
0.887966 -0.337151 -2.278728 0.000000000000000e+00 1634890835
0.428906 -0.241308 -1.253206 0.000000000000000e+00 1936876886
0.306474 -0.205705 -0.964050 0.000000000000000e+00 1953264973
0.495093 -0.148090 -1.227675 0.000000000000000e+00 1936876886
0.866718 -0.328247 -2.278728 0.000000000000000e+00 1634890835
0.358556 -0.202190 -1.075967 0.000000000000000e+00 1953264973
0.281224 -0.189609 -0.909924 0.000000000000000e+00 1953264973
0.483539 -0.143780 -1.227674 0.000000000000000e+00 1936876886
0.845616 -0.319403 -2.278728 0.000000000000000e+00 1634890835
0.326696 -0.184664 -1.007399 0.000000000000000e+00 1953264973
0.258803 -0.175316 -0.861861 0.000000000000000e+00 1953264973
0.472063 -0.139500 -1.227674 0.000000000000000e+00 1936876886
0.824655 -0.310620 -2.278728 0.000000000000000e+00 1634890835
0.299055 -0.169465 -0.948148 0.000000000000000e+00 1953264973
0.238757 -0.162538 -0.818889 0.000000000000000e+00 1953264973
