# .PCD v0.7 - Point Cloud Data file format
VERSION 0.7
FIELDS x y z rgb label
SIZE 4 4 4 4 4
TYPE F F F F U
COUNT 1 1 1 1 1
WIDTH 537
HEIGHT 1
VIEWPOINT 0 0 0 1 0 0 0
POINTS 537
DATA ascii
38.468784 -19.653755 10.329595 0.000000000000000e+00 1954047316
33.713764 -12.534252 -2.141977 0.000000000000000e+00 1851878480
33.625011 -14.065176 -2.049857 0.000000000000000e+00 1851878480
29.493126 -15.219791 -1.594851 0.000000000000000e+00 1851878480
28.079954 -15.942810 -1.394438 0.000000000000000e+00 1851878480
29.051092 -10.792553 -2.109657 0.000000000000000e+00 1851878480
28.420904 -11.884181 -1.998671 0.000000000000000e+00 1851878480
26.733101 -13.799771 -1.712430 0.000000000000000e+00 1851878480
25.891356 -14.708876 -1.553157 0.000000000000000e+00 1851878480
26.522938 -9.845851 -2.167232 0.000000000000000e+00 1851878480
26.059090 -10.892756 -2.076775 0.000000000000000e+00 1851878480
24.882191 -12.848301 -1.842513 0.000000000000000e+00 1851878480
24.446819 -13.896421 -1.719318 0.000000000000000e+00 1851878480
24.129570 -8.950578 -2.191308 0.000000000000000e+00 1851878480
24.336409 -10.169100 -2.167801 0.000000000000000e+00 1851878480
23.514652 -12.145907 -1.976543 0.000000000000000e+00 1851878480
23.307592 -13.256689 -1.880585 0.000000000000000e+00 1851878480
22.176416 -8.219812 -2.216032 0.000000000000000e+00 1851878480
22.355106 -9.337926 -2.201306 0.000000000000000e+00 1851878480
22.119921 -11.429051 -2.080973 0.000000000000000e+00 1851878480
21.851618 -12.435927 -1.989776 0.000000000000000e+00 1851878480
20.484430 -7.586882 -2.233882 0.000000000000000e+00 1851878480
20.648802 -8.622144 -2.227524 0.000000000000000e+00 1851878480
20.752695 -10.725948 -2.160650 0.000000000000000e+00 1851878480
20.453091 -11.646923 -2.074959 0.000000000000000e+00 1851878480
18.929716 -7.005702 -2.237334 0.000000000000000e+00 1851878480
19.020832 -7.939566 -2.231112 0.000000000000000e+00 1851878480
19.392780 -10.026208 -2.214067 0.000000000000000e+00 1851878480
19.100832 -10.883338 -2.136639 0.000000000000000e+00 1851878480
17.577667 -6.500337 -2.238438 0.000000000000000e+00 1851878480
17.634588 -7.358326 -2.234943 0.000000000000000e+00 1851878480
17.855055 -9.234073 -2.218399 0.000000000000000e+00 1851878480
17.878639 -10.193019 -2.186453 0.000000000000000e+00 1851878480
16.396900 -6.059030 -2.238439 0.000000000000000e+00 1851878480
16.435434 -6.855535 -2.238379 0.000000000000000e+00 1851878480
16.515259 -8.543846 -2.218685 0.000000000000000e+00 1851878480
16.630096 -9.486853 -2.207661 0.000000000000000e+00 1851878480
15.362929 -5.672594 -2.238439 0.000000000000000e+00 1851878480
15.366802 -6.407507 -2.238439 0.000000000000000e+00 1851878480
15.407014 -7.973012 -2.225711 0.000000000000000e+00 1851878480
15.445025 -8.816081 -2.212233 0.000000000000000e+00 1851878480
14.449849 -5.331330 -2.238438 0.000000000000000e+00 1851878480
14.426390 -6.013243 -2.238438 0.000000000000000e+00 1851878480
14.416884 -7.462972 -2.228919 0.000000000000000e+00 1851878480
14.408574 -8.229399 -2.215195 0.000000000000000e+00 1851878480
13.637506 -5.027729 -2.238438 0.000000000000000e+00 1851878480
13.592609 -5.663690 -2.238439 0.000000000000000e+00 1851878480
13.584811 -7.034463 -2.238437 0.000000000000000e+00 1851878480
13.553890 -7.745900 -2.226619 0.000000000000000e+00 1851878480
12.910004 -4.755835 -2.238438 0.000000000000000e+00 1851878480
12.848186 -5.351590 -2.238438 0.000000000000000e+00 1851878480
12.793029 -6.626555 -2.238438 0.000000000000000e+00 1851878480
12.792835 -7.315368 -2.236791 0.000000000000000e+00 1851878480
12.254606 -4.510887 -2.238438 0.000000000000000e+00 1851878480
12.179390 -5.071207 -2.238438 0.000000000000000e+00 1851878480
12.086508 -6.262574 -2.238438 0.000000000000000e+00 1851878480
12.070438 -6.906456 -2.238438 0.000000000000000e+00 1851878480
11.661039 -4.289051 -2.238438 0.000000000000000e+00 1851878480
11.575187 -4.817897 -2.238438 0.000000000000000e+00 1851878480
11.452116 -5.935750 -2.238437 0.000000000000000e+00 1851878480
11.415784 -6.535826 -2.238438 0.000000000000000e+00 1851878480
6.352876 -2.334825 -1.278724 1.880790849211783e-38 1684957512
6.299002 -2.620862 -1.278724 1.880790849211783e-38 1684957512
6.214848 -3.222243 -1.278723 1.880790849211783e-38 1684957512
10.826599 -6.202271 -2.238438 0.000000000000000e+00 1851878480
6.070822 -2.229413 -1.278724 1.880790849211783e-38 1684957512
6.013117 -2.501008 -1.278723 1.880790849211783e-38 1684957512
5.917819 -3.069221 -1.278724 1.880790849211783e-38 1684957512
5.880207 -3.370669 -1.278724 1.880790849211783e-38 1684957512
5.811966 -2.132673 -1.278724 1.880790849211783e-38 1684957512
5.751235 -2.391215 -1.278724 1.880790849211783e-38 1684957512
5.646962 -2.929687 -1.278724 1.880790849211783e-38 1684957512
5.603242 -3.213873 -1.278723 1.880790849211783e-38 1684957512
5.573541 -2.043568 -1.278723 1.880790849211783e-38 1684957512
5.510434 -2.290262 -1.278724 1.880790849211783e-38 1684957512
5.398943 -2.801913 -1.278724 1.880790849211783e-38 1684957512
5.350264 -3.070657 -1.278724 1.880790849211783e-38 1684957512
5.353182 -1.961216 -1.278724 1.880790849211783e-38 1684957512
5.288226 -2.197104 -1.278724 1.880790849211783e-38 1684957512
5.170949 -2.684458 -1.278724 1.880790849211783e-38 1684957512
5.118244 -2.939308 -1.278724 1.880790849211783e-38 1684957512
5.148882 -1.884865 -1.278723 1.880790849211783e-38 1684957512
5.082514 -2.110860 -1.278724 1.880790849211783e-38 1684957512
4.960620 -2.576101 -1.278724 1.880790849211783e-38 1684957512
4.904651 -2.818388 -1.278724 1.880790849211783e-38 1684957512
4.958920 -1.813877 -1.278724 1.880790849211783e-38 1684957512
4.891494 -2.030778 -1.278724 1.880790849211783e-38 1684957512
4.765947 -2.475811 -1.278724 1.880790849211783e-38 1684957512
4.707339 -2.706689 -1.278723 1.880790849211783e-38 1684957512
4.781814 -1.747691 -1.278724 1.880790849211783e-38 1684957512
4.713621 -1.956207 -1.278724 1.880790849211783e-38 1684957512
4.585218 -2.382707 -1.278724 1.880790849211783e-38 1684957512
4.524491 -2.603179 -1.278724 1.880790849211783e-38 1684957512
4.616273 -1.685827 -1.278724 1.880790849211783e-38 1684957512
4.547557 -1.886588 -1.278723 1.880790849211783e-38 1684957512
4.424113 -2.299742 -1.280795 1.880790849211783e-38 1684957512
4.424113 -2.547022 -1.299154 1.880790849211783e-38 1684957512
4.461186 -1.627869 -1.278724 1.880790849211783e-38 1684957512
4.424113 -1.834691 -1.288030 1.880790849211783e-38 1684957512
4.424113 -2.300502 -1.328015 1.880790849211783e-38 1684957512
4.424113 -2.548628 -1.348192 1.880790849211783e-38 1684957512
4.424113 -1.613028 -1.310886 1.880790849211783e-38 1684957512
4.424113 -1.834003 -1.332245 1.880790849211783e-38 1684957512
4.424113 -2.301265 -1.375465 1.880790849211783e-38 1684957512
4.424113 -2.550245 -1.397479 1.880790849211783e-38 1684957512
4.424113 -1.611709 -1.353867 1.880790849211783e-38 1684957512
4.424114 -1.833312 -1.376668 1.880790849211783e-38 1684957512
4.424113 -2.302032 -1.423154 1.880790849211783e-38 1684957512
4.424113 -2.551867 -1.447024 1.880790849211783e-38 1684957512
4.424113 -1.610386 -1.397051 1.880790849211783e-38 1684957512
4.424113 -1.832618 -1.421307 1.880790849211783e-38 1684957512
4.424113 -2.302803 -1.471094 1.880790849211783e-38 1684957512
4.424113 -2.553501 -1.496840 1.880790849211783e-38 1684957512
4.424113 -1.609055 -1.440443 1.880790849211783e-38 1684957512
4.424113 -1.831919 -1.466168 1.880790849211783e-38 1684957512
4.424113 -2.303577 -1.519289 1.880790849211783e-38 1684957512
4.424113 -2.555145 -1.546934 1.880790849211783e-38 1684957512
4.424113 -1.607718 -1.484051 1.880790849211783e-38 1684957512
4.424113 -1.831218 -1.511260 1.880790849211783e-38 1684957512
4.424113 -2.304360 -1.567754 1.880790849211783e-38 1684957512
4.424113 -2.556798 -1.597317 1.880790849211783e-38 1684957512
4.424113 -1.606375 -1.527884 1.880790849211783e-38 1684957512
4.424114 -1.830513 -1.556593 1.880790849211783e-38 1684957512
4.424113 -2.305144 -1.616495 1.880790849211783e-38 1684957512
4.424112 -2.558464 -1.648001 1.880790849211783e-38 1684957512
4.424113 -1.605027 -1.571950 1.880790849211783e-38 1684957512
4.424114 -1.829805 -1.602175 1.880790849211783e-38 1684957512
4.424113 -2.305934 -1.665525 1.880790849211783e-38 1684957512
4.424113 -2.560138 -1.698996 1.880790849211783e-38 1684957512
4.424113 -1.603671 -1.616259 1.880790849211783e-38 1684957512
4.424113 -1.829090 -1.648015 1.880790849211783e-38 1684957512
4.424113 -2.306727 -1.714853 1.880790849211783e-38 1684957512
4.424114 -2.561826 -1.750315 1.880790849211783e-38 1684957512
4.424113 -1.602308 -1.660816 1.880790849211783e-38 1684957512
4.424114 -1.828376 -1.694123 1.880790849211783e-38 1684957512
4.424113 -2.307527 -1.764488 1.880790849211783e-38 1684957512
4.424113 -2.563521 -1.801964 1.880790849211783e-38 1684957512
4.424113 -1.600939 -1.705632 1.880790849211783e-38 1684957512
4.424113 -1.827655 -1.740505 1.880790849211783e-38 1684957512
4.424113 -2.308331 -1.814443 1.880790849211783e-38 1684957512
4.424113 -2.565233 -1.853959 1.880790849211783e-38 1684957512
4.424114 -1.599560 -1.750715 1.880790849211783e-38 1684957512
4.424114 -1.826930 -1.787174 1.880790849211783e-38 1684957512
4.424113 -2.309143 -1.864727 1.880790849211783e-38 1684957512
4.424114 -2.566955 -1.906312 1.880790849211783e-38 1684957512
4.424112 -1.598175 -1.796074 1.880790849211783e-38 1684957512
4.424113 -1.826199 -1.834138 1.880790849211783e-38 1684957512
4.424113 -2.309958 -1.915353 1.880790849211783e-38 1684957512
4.424114 -2.568693 -1.959032 1.880790849211783e-38 1684957512
4.424113 -1.596782 -1.841721 1.880790849211783e-38 1684957512
4.424113 -1.825468 -1.881409 1.880790849211783e-38 1684957512
4.424113 -2.310781 -1.966333 1.880790849211783e-38 1684957512
4.424113 -2.570441 -2.012135 1.880790849211783e-38 1684957512
4.424113 -1.595379 -1.887661 1.880790849211783e-38 1684957512
4.424113 -1.824728 -1.928993 1.880790849211783e-38 1684957512
4.424112 -2.311608 -2.017675 1.880790849211783e-38 1684957512
4.424113 -2.572204 -2.065631 1.880790849211783e-38 1684957512
4.424114 -1.593969 -1.933906 1.880790849211783e-38 1684957512
4.424113 -1.823986 -1.976904 1.880790849211783e-38 1684957512
4.424113 -2.312443 -2.069394 1.880790849211783e-38 1684957512
4.424113 -2.573979 -2.119534 1.880790849211783e-38 1684957512
4.424114 -1.592550 -1.980466 1.880790849211783e-38 1684957512
4.424113 -1.823237 -2.025151 1.880790849211783e-38 1684957512
4.424113 -2.313281 -2.121501 1.880790849211783e-38 1684957512
4.424114 -2.575772 -2.173857 1.880790849211783e-38 1684957512
4.424113 -1.591123 -2.027351 1.880790849211783e-38 1684957512
4.424114 -1.822484 -2.073745 1.880790849211783e-38 1684957512
4.424113 -2.314129 -2.174010 1.880790849211783e-38 1684957512
4.424114 -2.577577 -2.228614 1.880790849211783e-38 1684957512
4.424113 -1.589681 -2.074572 1.880790849211783e-38 1684957512
4.424113 -1.821725 -2.122699 1.880790849211783e-38 1684957512
4.424113 -2.314983 -2.226934 1.880790849211783e-38 1684957512
4.336202 -2.528143 -2.238438 0.000000000000000e+00 1851878480
4.424113 -1.588234 -2.122137 1.880790849211783e-38 1684957512
4.424113 -1.820960 -2.172021 1.880790849211783e-38 1684957512
4.342925 -2.273346 -2.238438 0.000000000000000e+00 1851878480
4.233024 -2.469745 -2.238438 0.000000000000000e+00 1851878480
4.424113 -1.586774 -2.170059 1.880790849211783e-38 1684957512
4.424113 -1.820190 -2.221724 1.880790849211783e-38 1684957512
4.242838 -2.221788 -2.238438 0.000000000000000e+00 1851878480
4.133819 -2.413598 -2.238438 0.000000000000000e+00 1851878480
4.424113 -1.585308 -2.218349 1.880790849211783e-38 1684957512
4.359105 -1.792679 -2.238438 0.000000000000000e+00 1851878480
4.146472 -2.172144 -2.238438 0.000000000000000e+00 1851878480
4.038345 -2.359563 -2.238438 0.000000000000000e+00 1851878480
4.368337 -1.563859 -2.238438 0.000000000000000e+00 1851878480
4.264307 -1.752938 -2.238438 0.000000000000000e+00 1851878480
4.053603 -2.124304 -2.238438 0.000000000000000e+00 1851878480
3.946382 -2.307513 -2.238438 0.000000000000000e+00 1851878480
4.275805 -1.529293 -2.238438 0.000000000000000e+00 1851878480
4.172813 -1.714584 -2.238438 0.000000000000000e+00 1851878480
3.964037 -2.078167 -2.238438 0.000000000000000e+00 1851878480
3.857727 -2.257339 -2.238438 0.000000000000000e+00 1851878480
4.186401 -1.495893 -2.238438 0.000000000000000e+00 1851878480
4.084437 -1.677536 -2.238438 0.000000000000000e+00 1851878480
3.877585 -2.033633 -2.238438 0.000000000000000e+00 1851878480
3.772191 -2.208929 -2.238438 0.000000000000000e+00 1851878480
4.099954 -1.463601 -2.238438 0.000000000000000e+00 1851878480
3.999008 -1.641725 -2.238437 0.000000000000000e+00 1851878480
3.794076 -1.990616 -2.238438 0.000000000000000e+00 1851878480
3.689599 -2.162189 -2.238438 0.000000000000000e+00 1851878480
4.016309 -1.432354 -2.238438 0.000000000000000e+00 1851878480
3.916371 -1.607084 -2.238438 0.000000000000000e+00 1851878480
3.713349 -1.949031 -2.238438 0.000000000000000e+00 1851878480
3.609790 -2.117022 -2.238438 0.000000000000000e+00 1851878480
4.006145 -1.427336 -2.278725 0.000000000000000e+00 1634890835
3.836380 -1.573551 -2.238438 0.000000000000000e+00 1851878480
3.635254 -1.908803 -2.238438 0.000000000000000e+00 1851878480
3.532612 -2.073345 -2.238438 0.000000000000000e+00 1851878480
3.926260 -1.397495 -2.278725 0.000000000000000e+00 1634890835
3.758894 -1.541070 -2.238438 0.000000000000000e+00 1851878480
3.559654 -1.869857 -2.238438 0.000000000000000e+00 1851878480
3.457926 -2.031078 -2.238438 0.000000000000000e+00 1851878480
3.848814 -1.368567 -2.278725 0.000000000000000e+00 1634890835
3.683792 -1.509588 -2.238438 0.000000000000000e+00 1851878480
3.486422 -1.832134 -2.238438 0.000000000000000e+00 1851878480
3.385603 -1.990150 -2.238438 0.000000000000000e+00 1851878480
3.773683 -1.340505 -2.278725 0.000000000000000e+00 1634890835
3.610950 -1.479055 -2.238438 0.000000000000000e+00 1851878480
3.415433 -1.795569 -2.238438 0.000000000000000e+00 1851878480
3.315520 -1.950490 -2.238438 0.000000000000000e+00 1851878480
3.700754 -1.313265 -2.278725 0.000000000000000e+00 1634890835
3.540261 -1.449423 -2.238438 0.000000000000000e+00 1851878480
3.346580 -1.760102 -2.238438 0.000000000000000e+00 1851878480
3.247563 -1.912036 -2.238438 0.000000000000000e+00 1851878480
3.629921 -1.286809 -2.278725 0.000000000000000e+00 1634890835
3.471619 -1.420647 -2.238438 0.000000000000000e+00 1851878480
3.279752 -1.725677 -2.238438 0.000000000000000e+00 1851878480
3.181630 -1.874723 -2.238438 0.000000000000000e+00 1851878480
3.561087 -1.261099 -2.278725 0.000000000000000e+00 1634890835
3.466209 -1.417758 -2.278725 0.000000000000000e+00 1634890835
3.214857 -1.692249 -2.238438 0.000000000000000e+00 1851878480
3.117620 -1.838502 -2.238438 0.000000000000000e+00 1851878480
3.494159 -1.236101 -2.278725 0.000000000000000e+00 1634890835
3.400210 -1.390091 -2.278725 0.000000000000000e+00 1634890835
3.151801 -1.659767 -2.238438 0.000000000000000e+00 1851878480
3.055439 -1.803316 -2.238438 0.000000000000000e+00 1851878480
3.429047 -1.211784 -2.278725 0.000000000000000e+00 1634890835
3.336014 -1.363181 -2.278725 0.000000000000000e+00 1634890835
3.090495 -1.628188 -2.238437 0.000000000000000e+00 1851878480
2.995003 -1.769118 -2.238438 0.000000000000000e+00 1851878480
3.365672 -1.188116 -2.278725 0.000000000000000e+00 1634890835
3.273540 -1.336995 -2.278725 0.000000000000000e+00 1634890835
3.030861 -1.597471 -2.238438 0.000000000000000e+00 1851878480
2.936229 -1.735860 -2.238438 0.000000000000000e+00 1851878480
3.303953 -1.165063 -2.278725 0.000000000000000e+00 1634890835
3.212711 -1.311496 -2.278725 0.000000000000000e+00 1634890835
2.972820 -1.567573 -2.238438 0.000000000000000e+00 1851878480
2.879038 -1.703499 -2.238438 0.000000000000000e+00 1851878480
3.243820 -1.142607 -2.278725 0.000000000000000e+00 1634890835
3.153454 -1.286657 -2.278725 0.000000000000000e+00 1634890835
2.916301 -1.538460 -2.238438 0.000000000000000e+00 1851878480
2.823361 -1.671995 -2.238438 0.000000000000000e+00 1851878480
3.185203 -1.120716 -2.278725 0.000000000000000e+00 1634890835
3.095701 -1.262448 -2.278725 0.000000000000000e+00 1634890835
2.861239 -1.510097 -2.238438 0.000000000000000e+00 1851878480
2.769130 -1.641311 -2.238438 0.000000000000000e+00 1851878480
3.128039 -1.099368 -2.278725 0.000000000000000e+00 1634890835
3.039386 -1.238844 -2.278725 0.000000000000000e+00 1634890835
2.807567 -1.482452 -2.238438 0.000000000000000e+00 1851878480
2.716283 -1.611408 -2.238438 0.000000000000000e+00 1851878480
3.072263 -1.078539 -2.278725 0.000000000000000e+00 1634890835
2.984449 -1.215815 -2.278725 0.000000000000000e+00 1634890835
2.755227 -1.455490 -2.238438 0.000000000000000e+00 1851878480
0.840391 -0.499000 -0.705943 0.000000000000000e+00 1886740808
3.017819 -1.058208 -2.278725 0.000000000000000e+00 1634890835
2.930830 -1.193340 -2.278725 0.000000000000000e+00 1634890835
2.704159 -1.429187 -2.238438 0.000000000000000e+00 1851878480
0.824539 -0.490031 -0.705943 0.000000000000000e+00 1886740808
2.964654 -1.038356 -2.278725 0.000000000000000e+00 1634890835
2.878476 -1.171397 -2.278725 0.000000000000000e+00 1634890835
0.837099 -0.442630 -0.705943 0.000000000000000e+00 1886740808
0.809070 -0.481279 -0.705943 0.000000000000000e+00 1886740808
2.912714 -1.018961 -2.278725 0.000000000000000e+00 1634890835
2.827337 -1.149958 -2.278725 0.000000000000000e+00 1634890835
0.821748 -0.434722 -0.705943 0.000000000000000e+00 1886740808
0.793966 -0.472733 -0.705943 0.000000000000000e+00 1886740808
2.861950 -1.000005 -2.278725 0.000000000000000e+00 1634890835
2.777361 -1.129011 -2.278725 0.000000000000000e+00 1634890835
0.806751 -0.426998 -0.705943 0.000000000000000e+00 1886740808
0.779213 -0.464386 -0.705943 0.000000000000000e+00 1886740808
2.812315 -0.981472 -2.278725 0.000000000000000e+00 1634890835
2.728502 -1.108532 -2.278725 0.000000000000000e+00 1634890835
0.792094 -0.419448 -0.705943 0.000000000000000e+00 1886740808
0.764796 -0.456230 -0.705943 0.000000000000000e+00 1886740808
2.763765 -0.963342 -2.278725 0.000000000000000e+00 1634890835
0.830478 -0.337215 -0.705943 0.000000000000000e+00 1886740808
0.777762 -0.412066 -0.705943 0.000000000000000e+00 1886740808
0.750702 -0.448257 -0.705943 0.000000000000000e+00 1886740808
0.841489 -0.292946 -0.705943 0.000000000000000e+00 1886740808
0.815994 -0.331144 -0.705943 0.000000000000000e+00 1886740808
0.763743 -0.404845 -0.705943 0.000000000000000e+00 1886740808
0.744295 -0.444867 -0.713009 0.000000000000000e+00 1886740808
0.827082 -0.287567 -0.705943 0.000000000000000e+00 1886740808
0.801817 -0.325202 -0.705943 0.000000000000000e+00 1886740808
0.750025 -0.397779 -0.705943 0.000000000000000e+00 1886740808
0.744295 -0.445311 -0.726301 0.000000000000000e+00 1886740808
0.812975 -0.282300 -0.705943 0.000000000000000e+00 1886740808
0.787936 -0.319383 -0.705943 0.000000000000000e+00 1886740808
0.744295 -0.394947 -0.713321 0.000000000000000e+00 1886740808
0.744295 -0.445761 -0.739800 0.000000000000000e+00 1886740808
0.799154 -0.277139 -0.705943 0.000000000000000e+00 1886740808
0.774338 -0.313684 -0.705943 0.000000000000000e+00 1886740808
0.744295 -0.395158 -0.726288 0.000000000000000e+00 1886740808
0.744295 -0.446220 -0.753513 0.000000000000000e+00 1886740808
0.785611 -0.272084 -0.705943 0.000000000000000e+00 1886740808
0.761015 -0.308100 -0.705943 0.000000000000000e+00 1886740808
0.744295 -0.395372 -0.739456 0.000000000000000e+00 1886740808
0.744295 -0.446685 -0.767447 0.000000000000000e+00 1886740808
0.772335 -0.267127 -0.705943 0.000000000000000e+00 1886740808
0.747955 -0.302626 -0.705943 0.000000000000000e+00 1886740808
0.744295 -0.395589 -0.752833 0.000000000000000e+00 1886740808
0.744295 -0.447158 -0.781609 0.000000000000000e+00 1886740808
0.759316 -0.262267 -0.705943 0.000000000000000e+00 1886740808
0.744295 -0.300956 -0.714725 0.000000000000000e+00 1886740808
0.744295 -0.395810 -0.766426 0.000000000000000e+00 1886740808
0.744295 -0.447639 -0.796009 0.000000000000000e+00 1886740808
0.746545 -0.257499 -0.705943 0.000000000000000e+00 1886740808
0.744295 -0.300765 -0.727149 0.000000000000000e+00 1886740808
0.744295 -0.396034 -0.780241 0.000000000000000e+00 1886740808
2.092189 -1.259676 -2.278723 0.000000000000000e+00 1634890835
0.744295 -0.256362 -0.715831 0.000000000000000e+00 1886740808
0.744295 -0.300570 -0.739767 0.000000000000000e+00 1886740808
0.744295 -0.396263 -0.794287 0.000000000000000e+00 1886740808
2.054430 -1.238317 -2.278723 0.000000000000000e+00 1634890835
0.744295 -0.255996 -0.728032 0.000000000000000e+00 1886740808
0.744295 -0.300373 -0.752585 0.000000000000000e+00 1886740808
2.097575 -1.117403 -2.278723 0.000000000000000e+00 1634890835
2.017378 -1.217358 -2.278723 0.000000000000000e+00 1634890835
0.744295 -0.255624 -0.740424 0.000000000000000e+00 1886740808
0.744295 -0.300172 -0.765611 0.000000000000000e+00 1886740808
2.060541 -1.098329 -2.278723 0.000000000000000e+00 1634890835
0.796275 -0.481053 -0.915943 0.000000000000000e+00 1886740808
0.744295 -0.255246 -0.753013 0.000000000000000e+00 1886740808
0.744295 -0.299969 -0.778850 0.000000000000000e+00 1886740808
2.024174 -1.079597 -2.278723 0.000000000000000e+00 1634890835
0.784636 -0.474577 -0.919123 0.000000000000000e+00 1886740808
0.744295 -0.254862 -0.765806 0.000000000000000e+00 1886740808
0.744295 -0.299762 -0.792310 0.000000000000000e+00 1886740808
1.988450 -1.061197 -2.278723 0.000000000000000e+00 1634890835
0.775673 -0.469714 -0.925309 0.000000000000000e+00 1886740808
0.744295 -0.254473 -0.778810 0.000000000000000e+00 1886740808
2.104269 -0.846890 -2.278723 0.000000000000000e+00 1634890835
0.797389 -0.425818 -0.930214 0.000000000000000e+00 1886740808
0.768823 -0.466130 -0.933989 0.000000000000000e+00 1886740808
0.744295 -0.254076 -0.792031 0.000000000000000e+00 1886740808
2.068527 -0.831910 -2.278723 0.000000000000000e+00 1634890835
0.785519 -0.419747 -0.932845 0.000000000000000e+00 1886740808
0.764549 -0.464111 -0.945878 0.000000000000000e+00 1886740808
0.744295 -0.253673 -0.805478 0.000000000000000e+00 1886740808
2.033381 -0.817180 -2.278723 0.000000000000000e+00 1634890835
0.776431 -0.415161 -0.938648 0.000000000000000e+00 1886740808
1.808578 -1.099257 -2.278723 0.000000000000000e+00 1634890835
2.070468 -0.704525 -2.278723 0.000000000000000e+00 1634890835
1.998811 -0.802690 -2.278723 0.000000000000000e+00 1634890835
0.769417 -0.411684 -0.946931 0.000000000000000e+00 1886740808
1.775827 -1.080733 -2.278723 0.000000000000000e+00 1634890835
2.035868 -0.691611 -2.278723 0.000000000000000e+00 1634890835
1.964796 -0.788434 -2.278723 0.000000000000000e+00 1634890835
0.764805 -0.409492 -0.958243 0.000000000000000e+00 1886740808
0.749057 -0.456456 -0.978943 0.000000000000000e+00 1886740808
2.001815 -0.678900 -2.278723 0.000000000000000e+00 1634890835
1.931320 -0.774404 -2.278723 0.000000000000000e+00 1634890835
0.767166 -0.411038 -0.978582 0.000000000000000e+00 1886740808
1.711905 -1.044580 -2.278723 0.000000000000000e+00 1634890835
1.968290 -0.666388 -2.278723 0.000000000000000e+00 1634890835
0.797682 -0.319597 -0.957507 0.000000000000000e+00 1886740808
1.754620 -0.940766 -2.278723 0.000000000000000e+00 1634890835
1.680698 -1.026930 -2.278723 0.000000000000000e+00 1634890835
1.935277 -0.654067 -2.278723 0.000000000000000e+00 1634890835
0.785811 -0.314588 -0.959661 0.000000000000000e+00 1886740808
0.751063 -0.402982 -0.993126 0.000000000000000e+00 1886740808
1.649973 -1.009554 -2.278723 0.000000000000000e+00 1634890835
1.902759 -0.641931 -2.278723 0.000000000000000e+00 1634890835
0.776731 -0.310699 -0.965105 0.000000000000000e+00 1886740808
1.692475 -0.908758 -2.278723 0.000000000000000e+00 1634890835
1.619714 -0.992441 -2.278723 0.000000000000000e+00 1634890835
0.796758 -0.268312 -0.970531 0.000000000000000e+00 1886740808
0.769655 -0.307611 -0.973021 0.000000000000000e+00 1886740808
1.662095 -0.893112 -2.278723 0.000000000000000e+00 1634890835
1.589904 -0.975582 -2.278723 0.000000000000000e+00 1634890835
0.785168 -0.263918 -0.972832 0.000000000000000e+00 1886740808
0.764880 -0.305443 -0.983925 0.000000000000000e+00 1886740808
1.632159 -0.877693 -2.278723 0.000000000000000e+00 1634890835
1.560531 -0.958972 -2.278723 0.000000000000000e+00 1634890835
0.776222 -0.260416 -0.978303 0.000000000000000e+00 1886740808
0.765616 -0.305471 -1.002179 0.000000000000000e+00 1886740808
1.602651 -0.862497 -2.278723 0.000000000000000e+00 1634890835
1.531579 -0.942598 -2.278723 0.000000000000000e+00 1634890835
0.769282 -0.257587 -0.986297 0.000000000000000e+00 1886740808
1.710669 -0.681927 -2.278723 0.000000000000000e+00 1634890835
1.573558 -0.847512 -2.278723 0.000000000000000e+00 1634890835
1.503035 -0.926457 -2.278723 0.000000000000000e+00 1634890835
0.764661 -0.255532 -0.997356 0.000000000000000e+00 1886740808
1.680922 -0.669461 -2.278723 0.000000000000000e+00 1634890835
1.544867 -0.832736 -2.278723 0.000000000000000e+00 1634890835
1.474887 -0.910539 -2.278723 0.000000000000000e+00 1634890835
0.766223 -0.255534 -1.016768 0.000000000000000e+00 1886740808
0.744043 -0.296055 -1.026575 0.000000000000000e+00 1886740808
1.516565 -0.818160 -2.278723 0.000000000000000e+00 1634890835
1.447122 -0.894837 -2.278723 0.000000000000000e+00 1634890835
1.687756 -0.561695 -2.278723 0.000000000000000e+00 1634890835
1.622621 -0.645027 -2.278723 0.000000000000000e+00 1634890835
1.488640 -0.803777 -2.278723 0.000000000000000e+00 1634890835
1.419726 -0.879346 -2.278723 0.000000000000000e+00 1634890835
0.752072 -0.249762 -1.033210 0.000000000000000e+00 1886740808
1.594044 -0.633051 -2.278723 0.000000000000000e+00 1634890835
1.461080 -0.789586 -2.278723 0.000000000000000e+00 1634890835
1.392690 -0.864058 -2.278723 0.000000000000000e+00 1634890835
1.629980 -0.540136 -2.278723 0.000000000000000e+00 1634890835
1.565835 -0.621228 -2.278723 0.000000000000000e+00 1634890835
1.433875 -0.775574 -2.278723 0.000000000000000e+00 1634890835
1.366002 -0.848967 -2.278723 0.000000000000000e+00 1634890835
1.601639 -0.529562 -2.278723 0.000000000000000e+00 1634890835
1.537979 -0.609554 -2.278723 0.000000000000000e+00 1634890835
1.407012 -0.761739 -2.278723 0.000000000000000e+00 1634890835
1.339651 -0.834066 -2.278723 0.000000000000000e+00 1634890835
1.573650 -0.519119 -2.278723 0.000000000000000e+00 1634890835
1.510468 -0.598025 -2.278723 0.000000000000000e+00 1634890835
1.380482 -0.748076 -2.278723 0.000000000000000e+00 1634890835
1.313626 -0.819350 -2.278723 0.000000000000000e+00 1634890835
1.546002 -0.508802 -2.278723 0.000000000000000e+00 1634890835
1.483293 -0.586635 -2.278723 0.000000000000000e+00 1634890835
1.354275 -0.734579 -2.278723 0.000000000000000e+00 1634890835
1.287919 -0.804814 -2.278723 0.000000000000000e+00 1634890835
1.518684 -0.498609 -2.278723 0.000000000000000e+00 1634890835
1.456441 -0.575382 -2.278723 0.000000000000000e+00 1634890835
1.328380 -0.721243 -2.278723 0.000000000000000e+00 1634890835
1.262518 -0.790451 -2.278723 0.000000000000000e+00 1634890835
1.491686 -0.488534 -2.278723 0.000000000000000e+00 1634890835
1.429904 -0.564261 -2.278723 0.000000000000000e+00 1634890835
1.302789 -0.708063 -2.278723 0.000000000000000e+00 1634890835
1.237414 -0.776257 -2.278724 0.000000000000000e+00 1634890835
1.464998 -0.478578 -2.278723 0.000000000000000e+00 1634890835
1.403671 -0.553268 -2.278723 0.000000000000000e+00 1634890835
1.277491 -0.695035 -2.278724 0.000000000000000e+00 1634890835
1.212599 -0.762227 -2.278723 0.000000000000000e+00 1634890835
1.438613 -0.468733 -2.278723 0.000000000000000e+00 1634890835
1.377735 -0.542398 -2.278723 0.000000000000000e+00 1634890835
1.252478 -0.682153 -2.278723 0.000000000000000e+00 1634890835
1.188064 -0.748352 -2.278723 0.000000000000000e+00 1634890835
1.412520 -0.458998 -2.278723 0.000000000000000e+00 1634890835
1.352085 -0.531648 -2.278723 0.000000000000000e+00 1634890835
1.227741 -0.669412 -2.278723 0.000000000000000e+00 1634890835
1.163799 -0.734633 -2.278723 0.000000000000000e+00 1634890835
1.386711 -0.449370 -2.278723 0.000000000000000e+00 1634890835
1.326715 -0.521016 -2.278723 0.000000000000000e+00 1634890835
1.203273 -0.656812 -2.278724 0.000000000000000e+00 1634890835
1.139798 -0.721063 -2.278723 0.000000000000000e+00 1634890835
1.361178 -0.439844 -2.278723 0.000000000000000e+00 1634890835
1.301615 -0.510497 -2.278723 0.000000000000000e+00 1634890835
1.179065 -0.644344 -2.278723 0.000000000000000e+00 1634890835
1.116050 -0.707637 -2.278723 0.000000000000000e+00 1634890835
1.335913 -0.430416 -2.278723 0.000000000000000e+00 1634890835
1.276777 -0.500088 -2.278723 0.000000000000000e+00 1634890835
1.155108 -0.632008 -2.278723 0.000000000000000e+00 1634890835
1.092551 -0.694349 -2.278723 0.000000000000000e+00 1634890835
1.310907 -0.421087 -2.278723 0.000000000000000e+00 1634890835
1.252194 -0.489785 -2.278723 0.000000000000000e+00 1634890835
1.131396 -0.619796 -2.278723 0.000000000000000e+00 1634890835
1.069291 -0.681199 -2.278723 0.000000000000000e+00 1634890835
1.286154 -0.411853 -2.278723 0.000000000000000e+00 1634890835
1.227858 -0.479587 -2.278723 0.000000000000000e+00 1634890835
1.107922 -0.607706 -2.278723 0.000000000000000e+00 1634890835
1.046264 -0.668180 -2.278723 0.000000000000000e+00 1634890835
1.261646 -0.402709 -2.278723 0.000000000000000e+00 1634890835
1.203762 -0.469489 -2.278724 0.000000000000000e+00 1634890835
1.084678 -0.595736 -2.278723 0.000000000000000e+00 1634890835
1.023463 -0.655288 -2.278723 0.000000000000000e+00 1634890835
1.237374 -0.393656 -2.278723 0.000000000000000e+00 1634890835
1.179898 -0.459489 -2.278723 0.000000000000000e+00 1634890835
1.061657 -0.583881 -2.278723 0.000000000000000e+00 1634890835
1.000879 -0.642521 -2.278723 0.000000000000000e+00 1634890835
1.213335 -0.384687 -2.278723 0.000000000000000e+00 1634890835
1.156260 -0.449584 -2.278723 0.000000000000000e+00 1634890835
1.038853 -0.572137 -2.278723 0.000000000000000e+00 1634890835
0.978508 -0.629873 -2.278723 0.000000000000000e+00 1634890835
1.189518 -0.375802 -2.278723 0.000000000000000e+00 1634890835
1.132842 -0.439770 -2.278723 0.000000000000000e+00 1634890835
1.016259 -0.560501 -2.278724 0.000000000000000e+00 1634890835
0.956342 -0.617342 -2.278723 0.000000000000000e+00 1634890835
1.165919 -0.366998 -2.278723 0.000000000000000e+00 1634890835
1.109635 -0.430045 -2.278723 0.000000000000000e+00 1634890835
0.993867 -0.548970 -2.278723 0.000000000000000e+00 1634890835
0.934375 -0.604922 -2.278723 0.000000000000000e+00 1634890835
1.142531 -0.358273 -2.278723 0.000000000000000e+00 1634890835
1.086636 -0.420406 -2.278723 0.000000000000000e+00 1634890835
0.971675 -0.537540 -2.278724 0.000000000000000e+00 1634890835
0.912603 -0.592613 -2.278724 0.000000000000000e+00 1634890835
1.119347 -0.349625 -2.278723 0.000000000000000e+00 1634890835
1.063837 -0.410852 -2.278723 0.000000000000000e+00 1634890835
0.949673 -0.526210 -2.278723 0.000000000000000e+00 1634890835
0.891016 -0.580410 -2.278723 0.000000000000000e+00 1634890835
1.096362 -0.341050 -2.278723 0.000000000000000e+00 1634890835
1.041232 -0.401379 -2.278723 0.000000000000000e+00 1634890835
0.927857 -0.514975 -2.278724 0.000000000000000e+00 1634890835
0.869612 -0.568308 -2.278723 0.000000000000000e+00 1634890835
1.073570 -0.332549 -2.278723 0.000000000000000e+00 1634890835
1.018815 -0.391985 -2.278723 0.000000000000000e+00 1634890835
0.906220 -0.503834 -2.278724 0.000000000000000e+00 1634890835
0.848383 -0.556307 -2.278724 0.000000000000000e+00 1634890835
1.050964 -0.324116 -2.278723 0.000000000000000e+00 1634890835
0.996581 -0.382668 -2.278724 0.000000000000000e+00 1634890835
0.884760 -0.492781 -2.278724 0.000000000000000e+00 1634890835
0.827325 -0.544403 -2.278723 0.000000000000000e+00 1634890835
1.028541 -0.315752 -2.278723 0.000000000000000e+00 1634890835
0.974525 -0.373424 -2.278723 0.000000000000000e+00 1634890835
0.863468 -0.481816 -2.278723 0.000000000000000e+00 1634890835
0.451010 -0.297860 -1.274412 0.000000000000000e+00 1936876886
1.006293 -0.307452 -2.278723 0.000000000000000e+00 1634890835
0.952640 -0.364254 -2.278723 0.000000000000000e+00 1634890835
0.842339 -0.470936 -2.278723 0.000000000000000e+00 1634890835
0.433313 -0.287260 -1.256714 0.000000000000000e+00 1936876886
0.984216 -0.299218 -2.278723 0.000000000000000e+00 1634890835
0.930921 -0.355153 -2.278723 0.000000000000000e+00 1634890835
0.821370 -0.460137 -2.278724 0.000000000000000e+00 1634890835
0.421238 -0.280361 -1.254551 0.000000000000000e+00 1936876886
0.962304 -0.291044 -2.278723 0.000000000000000e+00 1634890835
0.909364 -0.346118 -2.278723 0.000000000000000e+00 1634890835
0.445941 -0.250344 -1.269343 0.000000000000000e+00 1936876886
0.335127 -0.223971 -1.025472 0.000000000000000e+00 1953264973
0.940552 -0.282930 -2.278723 0.000000000000000e+00 1634890835
0.887964 -0.337150 -2.278723 0.000000000000000e+00 1634890835
0.428905 -0.241307 -1.253203 0.000000000000000e+00 1936876886
0.306472 -0.205704 -0.964045 0.000000000000000e+00 1953264973
0.495093 -0.148090 -1.227675 0.000000000000000e+00 1936876886
0.866716 -0.328246 -2.278723 0.000000000000000e+00 1634890835
0.358554 -0.202188 -1.075961 0.000000000000000e+00 1953264973
0.281223 -0.189608 -0.909919 0.000000000000000e+00 1953264973
0.483539 -0.143780 -1.227674 0.000000000000000e+00 1936876886
0.845614 -0.319402 -2.278723 0.000000000000000e+00 1634890835
0.326694 -0.184663 -1.007394 0.000000000000000e+00 1953264973
0.258802 -0.175315 -0.861857 0.000000000000000e+00 1953264973
0.472063 -0.139500 -1.227674 0.000000000000000e+00 1936876886
0.824654 -0.310619 -2.278723 0.000000000000000e+00 1634890835
0.299054 -0.169464 -0.948143 0.000000000000000e+00 1953264973
0.238756 -0.162537 -0.818885 0.000000000000000e+00 1953264973
