# .PCD v0.7 - Point Cloud Data file format
VERSION 0.7
FIELDS x y z rgb label
SIZE 4 4 4 4 4
TYPE F F F F U
COUNT 1 1 1 1 1
WIDTH 538
HEIGHT 1
VIEWPOINT 0 0 0 1 0 0 0
POINTS 538
DATA ascii
40.129929 -20.509104 10.356643 0.000000000000000e+00 1954047316
40.112530 -20.506851 9.934957 0.000000000000000e+00 1954047316
31.862381 -11.845938 -2.024352 0.000000000000000e+00 1851878480
31.107090 -13.011942 -1.896359 0.000000000000000e+00 1851878480
28.636827 -14.777903 -1.548546 0.000000000000000e+00 1851878480
27.686275 -15.719294 -1.374888 0.000000000000000e+00 1851878480
28.854071 -10.719359 -2.095349 0.000000000000000e+00 1851878480
28.147957 -11.770048 -1.979477 0.000000000000000e+00 1851878480
26.885912 -13.878654 -1.722219 0.000000000000000e+00 1851878480
26.085222 -14.819012 -1.564786 0.000000000000000e+00 1851878480
26.620636 -9.882118 -2.175216 0.000000000000000e+00 1851878480
26.190868 -10.947841 -2.087277 0.000000000000000e+00 1851878480
25.529335 -13.182463 -1.890434 0.000000000000000e+00 1851878480
24.918789 -14.164705 -1.752511 0.000000000000000e+00 1851878480
24.312408 -9.018399 -2.207912 0.000000000000000e+00 1851878480
24.576220 -10.269306 -2.189164 0.000000000000000e+00 1851878480
23.887209 -12.338343 -2.007858 0.000000000000000e+00 1851878480
23.593143 -13.419103 -1.903624 0.000000000000000e+00 1851878480
22.315561 -8.271387 -2.229936 0.000000000000000e+00 1851878480
22.562548 -9.424576 -2.221733 0.000000000000000e+00 1851878480
22.245869 -11.494126 -2.092821 0.000000000000000e+00 1851878480
21.952358 -12.493258 -1.998948 0.000000000000000e+00 1851878480
20.449940 -7.574108 -2.230120 0.000000000000000e+00 1851878480
20.676086 -8.633536 -2.230468 0.000000000000000e+00 1851878480
20.700073 -10.698750 -2.155172 0.000000000000000e+00 1851878480
20.411299 -11.623124 -2.070719 0.000000000000000e+00 1851878480
18.923775 -7.003502 -2.236633 0.000000000000000e+00 1851878480
18.974190 -7.920096 -2.225641 0.000000000000000e+00 1851878480
19.320984 -9.989089 -2.205870 0.000000000000000e+00 1851878480
18.908218 -10.773591 -2.115093 0.000000000000000e+00 1851878480
17.602312 -6.509450 -2.241576 0.000000000000000e+00 1851878480
17.634340 -7.358222 -2.234911 0.000000000000000e+00 1851878480
17.788416 -9.199610 -2.210119 0.000000000000000e+00 1851878480
17.707432 -10.095409 -2.165516 0.000000000000000e+00 1851878480
16.379442 -6.052579 -2.236056 0.000000000000000e+00 1851878480
16.467648 -6.868972 -2.242767 0.000000000000000e+00 1851878480
16.494579 -8.533148 -2.215907 0.000000000000000e+00 1851878480
16.579756 -9.458136 -2.200979 0.000000000000000e+00 1851878480
15.335042 -5.662297 -2.234375 0.000000000000000e+00 1851878480
15.391273 -6.417711 -2.242003 0.000000000000000e+00 1851878480
15.424344 -7.981980 -2.228215 0.000000000000000e+00 1851878480
15.465029 -8.827499 -2.215098 0.000000000000000e+00 1851878480
8.215472 -3.031132 -1.272666 1.880790849211783e-38 1684957512
8.292928 -3.456679 -1.286753 1.880790849211783e-38 1684957512
14.507188 -7.509717 -2.242881 0.000000000000000e+00 1851878480
14.463210 -8.260604 -2.223595 0.000000000000000e+00 1851878480
7.824438 -2.884630 -1.284290 1.880790849211783e-38 1684957512
7.808028 -3.253404 -1.285830 1.880790849211783e-38 1684957512
13.644145 -7.065187 -2.248214 0.000000000000000e+00 1851878480
13.570088 -7.755157 -2.229280 0.000000000000000e+00 1851878480
7.389236 -2.722074 -1.281204 1.880790849211783e-38 1684957512
7.404272 -3.084064 -1.289988 1.880790849211783e-38 1684957512
12.876809 -6.669951 -2.253097 0.000000000000000e+00 1851878480
12.834745 -7.339334 -2.244119 0.000000000000000e+00 1851878480
7.018584 -2.583521 -1.282021 1.880790849211783e-38 1684957512
6.950987 -2.894225 -1.277515 1.880790849211783e-38 1684957512
12.114056 -6.276848 -2.243540 0.000000000000000e+00 1851878480
12.059273 -6.900066 -2.236368 0.000000000000000e+00 1851878480
6.680225 -2.457056 -1.282327 1.880790849211783e-38 1684957512
6.624202 -2.757167 -1.281004 1.880790849211783e-38 1684957512
6.581689 -3.411357 -1.286461 1.880790849211783e-38 1684957512
11.448006 -6.554274 -2.244756 0.000000000000000e+00 1851878480
6.637493 -2.439428 -1.336012 1.880790849211783e-38 1684957512
6.596512 -2.744649 -1.339120 1.880790849211783e-38 1684957512
6.606077 -3.425086 -1.359220 1.880790849211783e-38 1684957512
10.870888 -6.227643 -2.247595 0.000000000000000e+00 1851878480
6.616458 -2.429789 -1.393653 1.880790849211783e-38 1684957512
6.622211 -2.754345 -1.408251 1.880790849211783e-38 1684957512
6.607424 -3.426878 -1.427734 1.880790849211783e-38 1684957512
10.331589 -5.922303 -2.246732 0.000000000000000e+00 1851878480
6.602387 -2.422715 -1.452629 1.880790849211783e-38 1684957512
6.649590 -2.764728 -1.478463 1.880790849211783e-38 1684957512
6.635049 -3.442314 -1.502471 1.880790849211783e-38 1684957512
9.806047 -5.624492 -2.237852 0.000000000000000e+00 1851878480
6.608963 -2.423211 -1.516278 1.880790849211783e-38 1684957512
6.655674 -2.766250 -1.544482 1.880790849211783e-38 1684957512
6.628000 -3.439762 -1.569822 1.880790849211783e-38 1684957512
9.435863 -5.415490 -2.255190 0.000000000000000e+00 1851878480
6.599257 -2.417734 -1.576376 1.880790849211783e-38 1684957512
6.641012 -2.759147 -1.605835 1.880790849211783e-38 1684957512
6.650046 -3.452319 -1.644489 1.880790849211783e-38 1684957512
8.999749 -5.168380 -2.248465 0.000000000000000e+00 1851878480
6.603861 -2.417493 -1.640067 1.880790849211783e-38 1684957512
6.660810 -2.766355 -1.675811 1.880790849211783e-38 1684957512
6.695232 -3.476902 -1.725863 1.880790849211783e-38 1684957512
8.612637 -4.949129 -2.245457 0.000000000000000e+00 1851878480
6.657805 -2.435296 -1.716804 1.880790849211783e-38 1684957512
6.673958 -2.770795 -1.744692 1.880790849211783e-38 1684957512
6.634970 -3.446730 -1.780190 1.880790849211783e-38 1684957512
8.280763 -4.761384 -2.249425 0.000000000000000e+00 1851878480
6.627361 -2.422215 -1.772249 1.880790849211783e-38 1684957512
6.585875 -2.733213 -1.786634 1.880790849211783e-38 1684957512
6.677989 -3.470215 -1.862355 1.880790849211783e-38 1684957512
7.899822 -4.545186 -2.232669 0.000000000000000e+00 1851878480
6.640725 -2.425141 -1.839504 1.880790849211783e-38 1684957512
6.605966 -2.740534 -1.857526 1.880790849211783e-38 1684957512
6.635107 -3.449060 -1.920884 1.880790849211783e-38 1684957512
7.645451 -4.401591 -2.245109 0.000000000000000e+00 1851878480
6.658544 -2.429676 -1.908559 1.880790849211783e-38 1684957512
6.583440 -2.730170 -1.916693 1.880790849211783e-38 1684957512
6.631256 -3.448199 -1.990547 1.880790849211783e-38 1684957512
7.338140 -4.227330 -2.236204 0.000000000000000e+00 1851878480
6.566440 -2.394119 -1.945667 1.880790849211783e-38 1684957512
6.654329 -2.758532 -2.003836 1.880790849211783e-38 1684957512
6.628714 -3.448020 -2.060879 1.880790849211783e-38 1684957512
7.119118 -4.103760 -2.248771 0.000000000000000e+00 1851878480
6.626413 -2.414008 -2.027815 1.880790849211783e-38 1684957512
6.598188 -2.734229 -2.053183 1.880790849211783e-38 1684957512
6.675462 -3.473493 -2.147371 1.880790849211783e-38 1684957512
6.834363 -3.942120 -2.235360 0.000000000000000e+00 1851878480
6.639726 -2.416874 -2.096700 1.880790849211783e-38 1684957512
6.587788 -2.728885 -2.116417 1.880790849211783e-38 1684957512
6.645041 -3.458822 -2.209590 1.880790849211783e-38 1684957512
6.656259 -3.841846 -2.252057 0.000000000000000e+00 1851878480
6.607897 -2.403300 -2.151459 1.880790849211783e-38 1684957512
6.627166 -2.744150 -2.196267 1.880790849211783e-38 1684957512
6.561696 -3.416588 -2.253359 0.000000000000000e+00 1851878480
6.393754 -3.692710 -2.235638 0.000000000000000e+00 1851878480
6.595908 -2.396946 -2.212571 1.880790849211783e-38 1684957512
6.556826 -2.713985 -2.239787 0.000000000000000e+00 1851878480
6.381218 -3.323746 -2.261285 0.000000000000000e+00 1851878480
6.196726 -3.581232 -2.237316 0.000000000000000e+00 1851878480
6.556156 -2.380510 -2.264193 0.000000000000000e+00 1851878480
6.406134 -2.650590 -2.253953 0.000000000000000e+00 1851878480
6.175467 -3.217671 -2.256410 0.000000000000000e+00 1851878480
5.994023 -3.466343 -2.232800 0.000000000000000e+00 1851878480
6.284915 -2.280109 -2.233120 0.000000000000000e+00 1851878480
6.212597 -2.569519 -2.249867 0.000000000000000e+00 1851878480
6.003596 -3.129191 -2.260145 0.000000000000000e+00 1851878480
5.873123 -3.398649 -2.255461 0.000000000000000e+00 1851878480
6.191693 -2.244390 -2.262008 0.000000000000000e+00 1851878480
6.080241 -2.513794 -2.264936 0.000000000000000e+00 1851878480
5.837678 -3.043759 -2.262773 0.000000000000000e+00 1851878480
5.679222 -3.288608 -2.246874 0.000000000000000e+00 1851878480
5.897787 -2.136037 -2.214034 0.000000000000000e+00 1851878480
5.891276 -2.434717 -2.255942 0.000000000000000e+00 1851878480
5.635539 -2.939383 -2.247647 0.000000000000000e+00 1851878480
5.521622 -3.199465 -2.248985 0.000000000000000e+00 1851878480
5.833968 -2.111118 -2.249174 0.000000000000000e+00 1851878480
5.718099 -2.362217 -2.249577 0.000000000000000e+00 1851878480
5.473143 -2.855675 -2.244677 0.000000000000000e+00 1851878480
5.351903 -3.103193 -2.242757 0.000000000000000e+00 1851878480
5.657059 -2.045338 -2.238617 0.000000000000000e+00 1851878480
5.539298 -2.287444 -2.237666 0.000000000000000e+00 1851878480
5.362247 -2.798796 -2.260143 0.000000000000000e+00 1851878480
5.211630 -3.023886 -2.245645 0.000000000000000e+00 1851878480
5.517361 -1.993102 -2.239904 0.000000000000000e+00 1851878480
5.404408 -2.230848 -2.240546 0.000000000000000e+00 1851878480
5.203497 -2.716897 -2.252776 0.000000000000000e+00 1851878480
5.079197 -2.949042 -2.249109 0.000000000000000e+00 1851878480
5.409336 -1.952375 -2.251861 0.000000000000000e+00 1851878480
5.263714 -2.171903 -2.238460 0.000000000000000e+00 1851878480
5.071796 -2.649075 -2.254200 0.000000000000000e+00 1851878480
4.926244 -2.862183 -2.240510 0.000000000000000e+00 1851878480
5.256215 -1.895443 -2.242699 0.000000000000000e+00 1851878480
5.173952 -2.134000 -2.255937 0.000000000000000e+00 1851878480
4.964627 -2.594028 -2.264184 0.000000000000000e+00 1851878480
4.809451 -2.796241 -2.245547 0.000000000000000e+00 1851878480
5.102863 -1.838516 -2.230607 0.000000000000000e+00 1851878480
5.028716 -2.073253 -2.247069 0.000000000000000e+00 1851878480
4.842253 -2.531001 -2.264981 0.000000000000000e+00 1851878480
4.682860 -2.724519 -2.243496 0.000000000000000e+00 1851878480
5.062537 -1.822363 -2.266258 0.000000000000000e+00 1851878480
4.999298 -2.060278 -2.288444 0.000000000000000e+00 1851878480
4.709228 -2.462362 -2.258223 0.000000000000000e+00 1851878480
4.587469 -2.670879 -2.254124 0.000000000000000e+00 1851878480
4.904190 -1.763781 -2.247347 0.000000000000000e+00 1851878480
4.777729 -1.968154 -2.239498 0.000000000000000e+00 1851878480
4.602563 -2.407471 -2.261700 0.000000000000000e+00 1851878480
4.497231 -2.620176 -2.265446 0.000000000000000e+00 1851878480
4.780221 -1.717639 -2.241559 0.000000000000000e+00 1851878480
4.683362 -1.928477 -2.247087 0.000000000000000e+00 1851878480
4.522582 -2.366508 -2.276500 0.000000000000000e+00 1851878480
4.341943 -2.531490 -2.241401 0.000000000000000e+00 1851878480
4.687732 -1.682872 -2.248588 0.000000000000000e+00 1851878480
4.583308 -1.886484 -2.250177 0.000000000000000e+00 1851878480
4.368197 -2.286575 -2.251464 0.000000000000000e+00 1851878480
4.243677 -2.475961 -2.244071 0.000000000000000e+00 1851878480
4.650423 -1.667944 -2.281065 0.000000000000000e+00 1851878480
4.491280 -1.847824 -2.255454 0.000000000000000e+00 1851878480
4.246629 -2.223773 -2.240438 0.000000000000000e+00 1851878480
4.141619 -2.418152 -2.242662 0.000000000000000e+00 1851878480
4.497820 -1.611720 -2.255307 0.000000000000000e+00 1851878480
4.440275 -1.826060 -2.280120 0.000000000000000e+00 1851878480
4.149031 -2.173485 -2.239820 0.000000000000000e+00 1851878480
4.054299 -2.368884 -2.247281 0.000000000000000e+00 1851878480
4.362313 -1.561702 -2.235351 0.000000000000000e+00 1851878480
4.306548 -1.770302 -2.260610 0.000000000000000e+00 1851878480
4.090781 -2.143788 -2.258968 0.000000000000000e+00 1851878480
3.946741 -2.307723 -2.238642 0.000000000000000e+00 1851878480
4.277804 -1.530008 -2.239484 0.000000000000000e+00 1851878480
4.182319 -1.718489 -2.243537 0.000000000000000e+00 1851878480
3.988467 -2.090974 -2.252234 0.000000000000000e+00 1851878480
3.870004 -2.264524 -2.245562 0.000000000000000e+00 1851878480
4.205768 -1.502813 -2.248793 0.000000000000000e+00 1851878480
4.078300 -1.675015 -2.235075 0.000000000000000e+00 1851878480
3.921775 -2.056808 -2.263947 0.000000000000000e+00 1851878480
3.740251 -2.190226 -2.219485 0.000000000000000e+00 1851878480
4.089500 -1.459868 -2.232730 0.000000000000000e+00 1851878480
4.047629 -1.661685 -2.265653 0.000000000000000e+00 1851878480
3.837372 -2.013332 -2.263982 0.000000000000000e+00 1851878480
3.726892 -2.184043 -2.261063 0.000000000000000e+00 1851878480
4.015156 -1.431943 -2.237796 0.000000000000000e+00 1851878480
3.930027 -1.612687 -2.246243 0.000000000000000e+00 1851878480
3.738672 -1.962322 -2.253703 0.000000000000000e+00 1851878480
3.623447 -2.125031 -2.246907 0.000000000000000e+00 1851878480
4.020024 -1.432281 -2.286619 0.000000000000000e+00 1634890835
3.889930 -1.595515 -2.269684 0.000000000000000e+00 1851878480
3.698144 -1.941826 -2.277163 0.000000000000000e+00 1851878480
3.548594 -2.082725 -2.248565 0.000000000000000e+00 1851878480
3.912830 -1.392715 -2.270930 0.000000000000000e+00 1634890835
3.809196 -1.561693 -2.268393 0.000000000000000e+00 1851878480
3.587110 -1.884279 -2.255703 0.000000000000000e+00 1851878480
3.470226 -2.038303 -2.246401 0.000000000000000e+00 1851878480
3.854593 -1.370622 -2.282146 0.000000000000000e+00 1634890835
3.713213 -1.521644 -2.256316 0.000000000000000e+00 1851878480
3.487833 -1.832876 -2.239344 0.000000000000000e+00 1851878480
3.386948 -1.990940 -2.239327 0.000000000000000e+00 1851878480
3.791950 -1.346994 -2.289756 0.000000000000000e+00 1634890835
3.620820 -1.483097 -2.244556 0.000000000000000e+00 1851878480
3.439013 -1.807965 -2.253892 0.000000000000000e+00 1851878480
3.349889 -1.970709 -2.261642 0.000000000000000e+00 1851878480
3.674413 -1.303917 -2.262506 0.000000000000000e+00 1634890835
3.575294 -1.463766 -2.260588 0.000000000000000e+00 1851878480
3.376261 -1.775712 -2.258291 0.000000000000000e+00 1851878480
3.298599 -1.942084 -2.273615 0.000000000000000e+00 1851878480
3.636588 -1.289172 -2.282911 0.000000000000000e+00 1634890835
3.461976 -1.416701 -2.232220 0.000000000000000e+00 1851878480
3.290004 -1.731071 -2.245435 0.000000000000000e+00 1851878480
3.213713 -1.893628 -2.261010 0.000000000000000e+00 1851878480
3.571670 -1.264847 -2.285497 0.000000000000000e+00 1634890835
3.484591 -1.425277 -2.290810 0.000000000000000e+00 1634890835
3.277679 -1.725317 -2.282179 0.000000000000000e+00 1851878480
3.183925 -1.877603 -2.286045 0.000000000000000e+00 1851878480
3.531826 -1.249426 -2.303289 0.000000000000000e+00 1634890835
3.392269 -1.386845 -2.273404 0.000000000000000e+00 1634890835
3.174036 -1.671476 -2.254230 0.000000000000000e+00 1851878480
3.084210 -1.820296 -2.259516 0.000000000000000e+00 1851878480
3.465692 -1.224734 -2.303077 0.000000000000000e+00 1634890835
3.324937 -1.358655 -2.271158 0.000000000000000e+00 1634890835
3.147495 -1.658217 -2.279722 0.000000000000000e+00 1851878480
3.011234 -1.778705 -2.250569 0.000000000000000e+00 1851878480
3.385990 -1.195288 -2.292482 0.000000000000000e+00 1634890835
3.268152 -1.334795 -2.274975 0.000000000000000e+00 1634890835
3.094135 -1.630820 -2.285168 0.000000000000000e+00 1851878480
2.938768 -1.737361 -2.240374 0.000000000000000e+00 1851878480
3.268725 -1.152641 -2.254428 0.000000000000000e+00 1634890835
3.255842 -1.329103 -2.309318 0.000000000000000e+00 1634890835
3.024848 -1.595007 -2.277613 0.000000000000000e+00 1851878480
2.901320 -1.716683 -2.255762 0.000000000000000e+00 1851878480
3.255998 -1.146896 -2.287280 0.000000000000000e+00 1634890835
3.166690 -1.292058 -2.288290 0.000000000000000e+00 1634890835
2.958216 -1.560572 -2.270610 0.000000000000000e+00 1851878480
2.852493 -1.689246 -2.261534 0.000000000000000e+00 1851878480
3.142661 -1.105748 -2.248290 0.000000000000000e+00 1634890835
3.120987 -1.272760 -2.297338 0.000000000000000e+00 1634890835
2.921580 -1.541943 -2.285645 0.000000000000000e+00 1851878480
2.775727 -1.645221 -2.243770 0.000000000000000e+00 1851878480
3.117035 -1.095500 -2.270709 0.000000000000000e+00 1634890835
3.106152 -1.266058 -2.328782 0.000000000000000e+00 1634890835
2.847320 -1.503442 -2.270132 0.000000000000000e+00 1851878480
2.748365 -1.630441 -2.264877 0.000000000000000e+00 1851878480
3.062919 -1.075259 -2.271794 0.000000000000000e+00 1634890835
3.070218 -1.250756 -2.344213 0.000000000000000e+00 1634890835
2.774633 -1.465742 -2.254204 0.000000000000000e+00 1851878480
0.887563 -0.527009 -0.745567 0.000000000000000e+00 1886740808
3.010587 -1.055672 -2.273264 0.000000000000000e+00 1634890835
2.903474 -1.182201 -2.257456 0.000000000000000e+00 1634890835
2.751322 -1.454113 -2.277478 0.000000000000000e+00 1851878480
0.879773 -0.522856 -0.753232 0.000000000000000e+00 1886740808
2.967225 -1.039256 -2.280701 0.000000000000000e+00 1634890835
2.868969 -1.167528 -2.271199 0.000000000000000e+00 1634890835
0.883256 -0.467036 -0.744868 0.000000000000000e+00 1886740808
0.812066 -0.483061 -0.708558 0.000000000000000e+00 1886740808
2.915179 -1.019823 -2.280653 0.000000000000000e+00 1634890835
2.837519 -1.154100 -2.286932 0.000000000000000e+00 1634890835
0.865353 -0.457790 -0.743403 0.000000000000000e+00 1886740808
0.785269 -0.467555 -0.698210 0.000000000000000e+00 1886740808
2.910294 -1.016897 -2.317217 0.000000000000000e+00 1634890835
2.789130 -1.133796 -2.288382 0.000000000000000e+00 1634890835
0.817092 -0.432471 -0.714991 0.000000000000000e+00 1886740808
0.775870 -0.462393 -0.702914 0.000000000000000e+00 1886740808
2.801659 -0.977753 -2.270091 0.000000000000000e+00 1634890835
2.751785 -1.117992 -2.298170 0.000000000000000e+00 1634890835
0.828503 -0.438729 -0.738393 0.000000000000000e+00 1886740808
0.754505 -0.450091 -0.696443 0.000000000000000e+00 1886740808
2.761921 -0.962700 -2.277205 0.000000000000000e+00 1634890835
0.855593 -0.347413 -0.727291 0.000000000000000e+00 1886740808
0.843779 -0.447043 -0.765864 0.000000000000000e+00 1886740808
0.787435 -0.470190 -0.740486 0.000000000000000e+00 1886740808
0.860739 -0.299647 -0.722092 0.000000000000000e+00 1886740808
0.836079 -0.339295 -0.723318 0.000000000000000e+00 1886740808
0.773314 -0.409919 -0.714790 0.000000000000000e+00 1886740808
0.751339 -0.449078 -0.719757 0.000000000000000e+00 1886740808
0.832458 -0.289436 -0.710531 0.000000000000000e+00 1886740808
0.803120 -0.325730 -0.707090 0.000000000000000e+00 1886740808
0.761765 -0.404005 -0.716992 0.000000000000000e+00 1886740808
0.797697 -0.477261 -0.778412 0.000000000000000e+00 1886740808
0.825109 -0.286513 -0.716480 0.000000000000000e+00 1886740808
0.851535 -0.345162 -0.762923 0.000000000000000e+00 1886740808
0.755672 -0.400984 -0.724224 0.000000000000000e+00 1886740808
0.750542 -0.449503 -0.746009 0.000000000000000e+00 1886740808
0.809528 -0.280737 -0.715106 0.000000000000000e+00 1886740808
0.815889 -0.330516 -0.743823 0.000000000000000e+00 1886740808
0.746788 -0.396482 -0.728721 0.000000000000000e+00 1886740808
0.763753 -0.457885 -0.773212 0.000000000000000e+00 1886740808
0.808336 -0.279954 -0.726363 0.000000000000000e+00 1886740808
0.824402 -0.333762 -0.764742 0.000000000000000e+00 1886740808
0.767069 -0.407470 -0.762083 0.000000000000000e+00 1886740808
0.735355 -0.441320 -0.758230 0.000000000000000e+00 1886740808
0.810762 -0.280417 -0.741066 0.000000000000000e+00 1886740808
0.797232 -0.322563 -0.752451 0.000000000000000e+00 1886740808
0.755642 -0.401620 -0.764311 0.000000000000000e+00 1886740808
0.769236 -0.462142 -0.807801 0.000000000000000e+00 1886740808
0.775183 -0.267747 -0.720694 0.000000000000000e+00 1886740808
0.760038 -0.307322 -0.729842 0.000000000000000e+00 1886740808
0.769180 -0.409044 -0.792050 0.000000000000000e+00 1886740808
0.755016 -0.454087 -0.807475 0.000000000000000e+00 1886740808
0.752010 -0.259384 -0.711110 0.000000000000000e+00 1886740808
0.781205 -0.315680 -0.763209 0.000000000000000e+00 1886740808
0.772536 -0.411062 -0.809847 0.000000000000000e+00 1886740808
2.115974 -1.273996 -2.304629 0.000000000000000e+00 1634890835
0.745407 -0.256745 -0.716901 0.000000000000000e+00 1886740808
0.772140 -0.311815 -0.767443 0.000000000000000e+00 1886740808
0.759392 -0.404301 -0.810399 0.000000000000000e+00 1886740808
2.057887 -1.240400 -2.282557 0.000000000000000e+00 1634890835
0.767087 -0.263835 -0.750326 0.000000000000000e+00 1886740808
0.763304 -0.308045 -0.771807 0.000000000000000e+00 1886740808
2.137803 -1.138832 -2.322425 0.000000000000000e+00 1634890835
2.039319 -1.230598 -2.303506 0.000000000000000e+00 1634890835
0.740320 -0.254258 -0.736469 0.000000000000000e+00 1886740808
0.800468 -0.322827 -0.823392 0.000000000000000e+00 1886740808
2.102372 -1.120626 -2.324983 0.000000000000000e+00 1634890835
0.790023 -0.477276 -0.908750 0.000000000000000e+00 1886740808
0.770350 -0.264182 -0.779374 0.000000000000000e+00 1886740808
0.771134 -0.310786 -0.806935 0.000000000000000e+00 1886740808
2.049679 -1.093200 -2.307436 0.000000000000000e+00 1634890835
0.780252 -0.471925 -0.913988 0.000000000000000e+00 1886740808
0.753477 -0.258006 -0.775253 0.000000000000000e+00 1886740808
0.763693 -0.307574 -0.812960 0.000000000000000e+00 1886740808
2.030071 -1.083409 -2.326421 0.000000000000000e+00 1634890835
0.796672 -0.482430 -0.950359 0.000000000000000e+00 1886740808
0.739088 -0.252693 -0.773362 0.000000000000000e+00 1886740808
2.139007 -0.860871 -2.316342 0.000000000000000e+00 1634890835
0.815714 -0.435604 -0.951591 0.000000000000000e+00 1886740808
0.786685 -0.476959 -0.955688 0.000000000000000e+00 1886740808
0.725376 -0.247618 -0.771899 0.000000000000000e+00 1886740808
2.101338 -0.845106 -2.314869 0.000000000000000e+00 1634890835
0.814041 -0.434988 -0.966716 0.000000000000000e+00 1886740808
0.745074 -0.452289 -0.921784 0.000000000000000e+00 1886740808
0.736818 -0.251125 -0.797387 0.000000000000000e+00 1886740808
2.059155 -0.827538 -2.307607 0.000000000000000e+00 1634890835
0.805450 -0.430678 -0.973730 0.000000000000000e+00 1886740808
1.807731 -1.098741 -2.277654 0.000000000000000e+00 1634890835
2.091520 -0.711688 -2.301892 0.000000000000000e+00 1634890835
2.030725 -0.815507 -2.315107 0.000000000000000e+00 1634890835
0.769868 -0.411925 -0.947486 0.000000000000000e+00 1886740808
1.742003 -1.060148 -2.235319 0.000000000000000e+00 1634890835
2.074162 -0.704620 -2.321584 0.000000000000000e+00 1634890835
1.964958 -0.788499 -2.278910 0.000000000000000e+00 1634890835
0.757835 -0.405760 -0.949510 0.000000000000000e+00 1886740808
0.775106 -0.472329 -1.012986 0.000000000000000e+00 1886740808
1.990287 -0.674991 -2.265601 0.000000000000000e+00 1634890835
1.965276 -0.788019 -2.318786 0.000000000000000e+00 1634890835
0.797207 -0.427134 -1.016903 0.000000000000000e+00 1886740808
1.724955 -1.052543 -2.296095 0.000000000000000e+00 1634890835
1.984191 -0.671771 -2.297132 0.000000000000000e+00 1634890835
0.794765 -0.318428 -0.954005 0.000000000000000e+00 1886740808
1.750134 -0.938361 -2.272897 0.000000000000000e+00 1634890835
1.676717 -1.024498 -2.273326 0.000000000000000e+00 1634890835
1.951258 -0.659468 -2.297540 0.000000000000000e+00 1634890835
0.807363 -0.323216 -0.985981 0.000000000000000e+00 1886740808
0.765114 -0.410521 -1.011706 0.000000000000000e+00 1886740808
1.644591 -1.006261 -2.271290 0.000000000000000e+00 1634890835
1.938773 -0.654081 -2.321852 0.000000000000000e+00 1634890835
0.787695 -0.315085 -0.978728 0.000000000000000e+00 1886740808
1.717619 -0.922259 -2.312577 0.000000000000000e+00 1634890835
1.641302 -1.005669 -2.309095 0.000000000000000e+00 1634890835
0.812938 -0.273761 -0.990239 0.000000000000000e+00 1886740808
0.786499 -0.314343 -0.994316 0.000000000000000e+00 1886740808
1.703309 -0.915258 -2.335227 0.000000000000000e+00 1634890835
1.590314 -0.975834 -2.279311 0.000000000000000e+00 1634890835
0.814747 -0.273861 -1.009481 0.000000000000000e+00 1886740808
0.785354 -0.313619 -1.010264 0.000000000000000e+00 1886740808
1.680438 -0.903656 -2.346128 0.000000000000000e+00 1634890835
1.568664 -0.963970 -2.290600 0.000000000000000e+00 1634890835
0.808100 -0.271110 -1.018480 0.000000000000000e+00 1886740808
0.778159 -0.310475 -1.018599 0.000000000000000e+00 1886740808
1.602805 -0.862580 -2.278944 0.000000000000000e+00 1634890835
1.550625 -0.954320 -2.307060 0.000000000000000e+00 1634890835
0.780967 -0.261499 -1.001279 0.000000000000000e+00 1886740808
1.743200 -0.694895 -2.322056 0.000000000000000e+00 1634890835
1.589026 -0.855843 -2.301124 0.000000000000000e+00 1634890835
1.511444 -0.931640 -2.291472 0.000000000000000e+00 1634890835
0.740658 -0.247511 -0.966049 0.000000000000000e+00 1886740808
1.722243 -0.685918 -2.334739 0.000000000000000e+00 1634890835
1.580884 -0.852150 -2.331849 0.000000000000000e+00 1634890835
1.509059 -0.931635 -2.331519 0.000000000000000e+00 1634890835
0.786873 -0.262421 -1.044171 0.000000000000000e+00 1886740808
0.730552 -0.290687 -1.007962 0.000000000000000e+00 1886740808
1.535280 -0.828256 -2.306844 0.000000000000000e+00 1634890835
1.462793 -0.904528 -2.303401 0.000000000000000e+00 1634890835
1.708627 -0.568641 -2.306903 0.000000000000000e+00 1634890835
1.646417 -0.654487 -2.312141 0.000000000000000e+00 1634890835
1.524121 -0.822935 -2.333035 0.000000000000000e+00 1634890835
1.432847 -0.887473 -2.299784 0.000000000000000e+00 1634890835
0.758067 -0.251753 -1.041445 0.000000000000000e+00 1886740808
1.623543 -0.644766 -2.320891 0.000000000000000e+00 1634890835
1.478340 -0.798914 -2.305643 0.000000000000000e+00 1634890835
1.390323 -0.862590 -2.274851 0.000000000000000e+00 1634890835
1.653389 -0.547894 -2.311450 0.000000000000000e+00 1634890835
1.590813 -0.631137 -2.315073 0.000000000000000e+00 1634890835
1.455706 -0.787382 -2.313417 0.000000000000000e+00 1634890835
1.373391 -0.853559 -2.291049 0.000000000000000e+00 1634890835
1.619179 -0.535362 -2.303678 0.000000000000000e+00 1634890835
1.553839 -0.615840 -2.302221 0.000000000000000e+00 1634890835
1.425237 -0.771606 -2.308240 0.000000000000000e+00 1634890835
1.346873 -0.838562 -2.291007 0.000000000000000e+00 1634890835
1.562991 -0.515603 -2.263289 0.000000000000000e+00 1634890835
1.540710 -0.609998 -2.324347 0.000000000000000e+00 1634890835
1.404307 -0.760986 -2.318049 0.000000000000000e+00 1634890835
1.337156 -0.834027 -2.319541 0.000000000000000e+00 1634890835
1.557297 -0.512519 -2.295372 0.000000000000000e+00 1634890835
1.493873 -0.590819 -2.294977 0.000000000000000e+00 1634890835
1.378035 -0.747467 -2.318702 0.000000000000000e+00 1634890835
1.297100 -0.810551 -2.294967 0.000000000000000e+00 1634890835
1.553269 -0.509964 -2.330617 0.000000000000000e+00 1634890835
1.475692 -0.582987 -2.308842 0.000000000000000e+00 1634890835
1.364454 -0.740829 -2.340605 0.000000000000000e+00 1634890835
1.268453 -0.794167 -2.289436 0.000000000000000e+00 1634890835
1.479431 -0.484520 -2.260002 0.000000000000000e+00 1634890835
1.439987 -0.568239 -2.294791 0.000000000000000e+00 1634890835
1.336957 -0.726633 -2.338487 0.000000000000000e+00 1634890835
1.224170 -0.767949 -2.254333 0.000000000000000e+00 1634890835
1.480809 -0.483743 -2.303316 0.000000000000000e+00 1634890835
1.426484 -0.562259 -2.315757 0.000000000000000e+00 1634890835
1.291400 -0.702602 -2.303534 0.000000000000000e+00 1634890835
1.225652 -0.770432 -2.303253 0.000000000000000e+00 1634890835
1.444682 -0.470711 -2.288336 0.000000000000000e+00 1634890835
1.412313 -0.556011 -2.335914 0.000000000000000e+00 1634890835
1.256565 -0.684379 -2.286160 0.000000000000000e+00 1634890835
1.213206 -0.764189 -2.326945 0.000000000000000e+00 1634890835
1.434311 -0.466079 -2.313878 0.000000000000000e+00 1634890835
1.375421 -0.540824 -2.318052 0.000000000000000e+00 1634890835
1.244322 -0.678453 -2.309497 0.000000000000000e+00 1634890835
1.176720 -0.742788 -2.304021 0.000000000000000e+00 1634890835
1.409854 -0.456869 -2.316753 0.000000000000000e+00 1634890835
1.347700 -0.529257 -2.314766 0.000000000000000e+00 1634890835
1.233054 -0.673069 -2.335122 0.000000000000000e+00 1634890835
1.131890 -0.716061 -2.262915 0.000000000000000e+00 1634890835
1.365460 -0.441227 -2.285891 0.000000000000000e+00 1634890835
1.291544 -0.506547 -2.261091 0.000000000000000e+00 1634890835
1.237320 -0.676180 -2.391311 0.000000000000000e+00 1634890835
1.127415 -0.714843 -2.301927 0.000000000000000e+00 1634890835
1.335789 -0.430376 -2.278512 0.000000000000000e+00 1634890835
1.273088 -0.498643 -2.272140 0.000000000000000e+00 1634890835
1.177315 -0.644158 -2.322532 0.000000000000000e+00 1634890835
1.095557 -0.696259 -2.284992 0.000000000000000e+00 1634890835
1.331036 -0.427553 -2.313712 0.000000000000000e+00 1634890835
1.262546 -0.493834 -2.297562 0.000000000000000e+00 1634890835
1.167258 -0.639441 -2.350951 0.000000000000000e+00 1634890835
1.097220 -0.698992 -2.338242 0.000000000000000e+00 1634890835
1.281253 -0.410284 -2.270040 0.000000000000000e+00 1634890835
1.249339 -0.487978 -2.318589 0.000000000000000e+00 1634890835
1.137570 -0.623968 -2.339701 0.000000000000000e+00 1634890835
1.046236 -0.668162 -2.278662 0.000000000000000e+00 1634890835
1.271448 -0.405838 -2.296428 0.000000000000000e+00 1634890835
1.244195 -0.485259 -2.355263 0.000000000000000e+00 1634890835
1.103838 -0.606259 -2.318975 0.000000000000000e+00 1634890835
1.048870 -0.671555 -2.335292 0.000000000000000e+00 1634890835
1.226129 -0.390079 -2.258014 0.000000000000000e+00 1634890835
1.182296 -0.460423 -2.283356 0.000000000000000e+00 1634890835
1.076657 -0.592131 -2.310920 0.000000000000000e+00 1634890835
1.009653 -0.648153 -2.298699 0.000000000000000e+00 1634890835
1.246596 -0.395233 -2.341190 0.000000000000000e+00 1634890835
1.157188 -0.449944 -2.280552 0.000000000000000e+00 1634890835
1.074876 -0.591976 -2.357740 0.000000000000000e+00 1634890835
0.969623 -0.624154 -2.258033 0.000000000000000e+00 1634890835
1.197447 -0.378307 -2.293911 0.000000000000000e+00 1634890835
1.153666 -0.447854 -2.320611 0.000000000000000e+00 1634890835
1.008651 -0.556305 -2.261665 0.000000000000000e+00 1634890835
0.967089 -0.624280 -2.304331 0.000000000000000e+00 1634890835
1.150785 -0.362235 -2.249146 0.000000000000000e+00 1634890835
1.126242 -0.436481 -2.312827 0.000000000000000e+00 1634890835
1.021681 -0.564333 -2.342494 0.000000000000000e+00 1634890835
0.937219 -0.606764 -2.285659 0.000000000000000e+00 1634890835
1.143205 -0.358485 -2.280068 0.000000000000000e+00 1634890835
1.095374 -0.423787 -2.297046 0.000000000000000e+00 1634890835
0.990041 -0.547701 -2.321797 0.000000000000000e+00 1634890835
0.905384 -0.587926 -2.260700 0.000000000000000e+00 1634890835
1.129996 -0.352951 -2.300401 0.000000000000000e+00 1634890835
1.062088 -0.410176 -2.274976 0.000000000000000e+00 1634890835
0.967720 -0.536210 -2.322027 0.000000000000000e+00 1634890835
0.906499 -0.590495 -2.318318 0.000000000000000e+00 1634890835
1.112364 -0.346028 -2.311982 0.000000000000000e+00 1634890835
1.046165 -0.403281 -2.289521 0.000000000000000e+00 1634890835
0.930614 -0.516506 -2.285496 0.000000000000000e+00 1634890835
0.880009 -0.575103 -2.305969 0.000000000000000e+00 1634890835
1.077176 -0.333666 -2.286377 0.000000000000000e+00 1634890835
1.043033 -0.401302 -2.332891 0.000000000000000e+00 1634890835
0.919685 -0.511320 -2.312581 0.000000000000000e+00 1634890835
0.850711 -0.557834 -2.284977 0.000000000000000e+00 1634890835
1.055641 -0.325559 -2.288864 0.000000000000000e+00 1634890835
0.995683 -0.382323 -2.276670 0.000000000000000e+00 1634890835
0.928837 -0.517330 -2.392246 0.000000000000000e+00 1634890835
0.816475 -0.537264 -2.248839 0.000000000000000e+00 1634890835
1.036448 -0.318179 -2.296243 0.000000000000000e+00 1634890835
0.990801 -0.379661 -2.316782 0.000000000000000e+00 1634890835
0.862535 -0.481295 -2.276262 0.000000000000000e+00 1634890835
0.448532 -0.296224 -1.267409 0.000000000000000e+00 1936876886
1.021120 -0.311983 -2.312299 0.000000000000000e+00 1634890835
0.955117 -0.365201 -2.284649 0.000000000000000e+00 1634890835
0.844121 -0.471932 -2.283546 0.000000000000000e+00 1634890835
0.435796 -0.288907 -1.263918 0.000000000000000e+00 1936876886
0.991537 -0.301444 -2.295674 0.000000000000000e+00 1634890835
0.947760 -0.361577 -2.319942 0.000000000000000e+00 1634890835
0.863832 -0.483925 -2.396527 0.000000000000000e+00 1634890835
0.424541 -0.282560 -1.264390 0.000000000000000e+00 1936876886
0.969435 -0.293200 -2.295611 0.000000000000000e+00 1634890835
0.931725 -0.354629 -2.334755 0.000000000000000e+00 1634890835
0.443394 -0.248914 -1.262092 0.000000000000000e+00 1936876886
0.329506 -0.220214 -1.008271 0.000000000000000e+00 1953264973
0.963483 -0.289828 -2.334281 0.000000000000000e+00 1634890835
0.907888 -0.344715 -2.329852 0.000000000000000e+00 1634890835
0.457994 -0.257673 -1.338196 0.000000000000000e+00 1936876886
0.320272 -0.214966 -1.007454 0.000000000000000e+00 1953264973
0.522824 -0.156385 -1.296440 0.000000000000000e+00 1936876886
0.874033 -0.331017 -2.297961 0.000000000000000e+00 1634890835
0.372809 -0.210227 -1.118736 0.000000000000000e+00 1953264973
0.279650 -0.188548 -0.904831 0.000000000000000e+00 1953264973
0.496107 -0.147517 -1.259583 0.000000000000000e+00 1936876886
0.847658 -0.320175 -2.284231 0.000000000000000e+00 1634890835
0.361376 -0.204267 -1.114340 0.000000000000000e+00 1953264973
0.260828 -0.176688 -0.868605 0.000000000000000e+00 1953264973
0.467741 -0.138223 -1.216434 0.000000000000000e+00 1936876886
0.841912 -0.317120 -2.326413 0.000000000000000e+00 1634890835
0.303528 -0.171999 -0.962329 0.000000000000000e+00 1953264973
0.247693 -0.168621 -0.849538 0.000000000000000e+00 1953264973
