# .PCD v0.7 - Point Cloud Data file format
VERSION 0.7
FIELDS x y z rgb label
SIZE 4 4 4 4 4
TYPE F F F F U
COUNT 1 1 1 1 1
WIDTH 535
HEIGHT 1
VIEWPOINT 0 0 0 1 0 0 0
POINTS 535
DATA ascii
36.918530 -18.855606 10.300336 0.000000000000000e+00 1954047316
36.079117 -20.109346 9.846903 0.000000000000000e+00 1954047316
35.389061 -13.157101 -2.248416 0.000000000000000e+00 1851878480
29.348846 -10.903170 -2.131279 0.000000000000000e+00 1851878480
29.039696 -12.142928 -2.042187 0.000000000000000e+00 1851878480
27.368896 -14.127974 -1.753157 0.000000000000000e+00 1851878480
26.373978 -14.983054 -1.582108 0.000000000000000e+00 1851878480
26.663727 -9.898114 -2.178737 0.000000000000000e+00 1851878480
26.240108 -10.968423 -2.091201 0.000000000000000e+00 1851878480
24.946512 -12.881514 -1.847276 0.000000000000000e+00 1851878480
24.300734 -13.813381 -1.709044 0.000000000000000e+00 1851878480
24.103685 -8.940975 -2.188956 0.000000000000000e+00 1851878480
24.244249 -10.130589 -2.159592 0.000000000000000e+00 1851878480
23.154463 -11.959859 -1.946266 0.000000000000000e+00 1851878480
22.728506 -12.927321 -1.833860 0.000000000000000e+00 1851878480
22.072994 -8.181479 -2.205698 0.000000000000000e+00 1851878480
22.180826 -9.265128 -2.184144 0.000000000000000e+00 1851878480
21.778660 -11.252726 -2.048868 0.000000000000000e+00 1851878480
21.532267 -12.254181 -1.960696 0.000000000000000e+00 1851878480
20.420782 -7.563309 -2.226941 0.000000000000000e+00 1851878480
20.491617 -8.556509 -2.210567 0.000000000000000e+00 1851878480
20.620903 -10.657831 -2.146928 0.000000000000000e+00 1851878480
20.337328 -11.581002 -2.063215 0.000000000000000e+00 1851878480
18.930754 -7.006084 -2.237457 0.000000000000000e+00 1851878480
19.019760 -7.939118 -2.230986 0.000000000000000e+00 1851878480
19.371077 -10.014988 -2.211589 0.000000000000000e+00 1851878480
19.138544 -10.904826 -2.140857 0.000000000000000e+00 1851878480
17.577662 -6.500334 -2.238437 0.000000000000000e+00 1851878480
17.637136 -7.359388 -2.235266 0.000000000000000e+00 1851878480
17.893414 -9.253911 -2.223165 0.000000000000000e+00 1851878480
17.981049 -10.251405 -2.198977 0.000000000000000e+00 1851878480
16.396881 -6.059023 -2.238436 0.000000000000000e+00 1851878480
16.435150 -6.855416 -2.238340 0.000000000000000e+00 1851878480
16.575054 -8.574780 -2.226719 0.000000000000000e+00 1851878480
16.724464 -9.540686 -2.220189 0.000000000000000e+00 1851878480
15.362925 -5.672592 -2.238438 0.000000000000000e+00 1851878480
15.366796 -6.407505 -2.238438 0.000000000000000e+00 1851878480
15.439981 -7.990072 -2.230474 0.000000000000000e+00 1851878480
15.506280 -8.851046 -2.221007 0.000000000000000e+00 1851878480
14.449841 -5.331327 -2.238437 0.000000000000000e+00 1851878480
14.426385 -6.013242 -2.238437 0.000000000000000e+00 1851878480
14.431556 -7.470566 -2.231188 0.000000000000000e+00 1851878480
14.453119 -8.254840 -2.222044 0.000000000000000e+00 1851878480
13.637504 -5.027729 -2.238438 0.000000000000000e+00 1851878480
13.592602 -5.663687 -2.238437 0.000000000000000e+00 1851878480
13.573811 -7.028767 -2.236625 0.000000000000000e+00 1851878480
13.563577 -7.751435 -2.228211 0.000000000000000e+00 1851878480
12.909998 -4.755832 -2.238437 0.000000000000000e+00 1851878480
12.848183 -5.351588 -2.238437 0.000000000000000e+00 1851878480
12.793023 -6.626552 -2.238437 0.000000000000000e+00 1851878480
12.775026 -7.305184 -2.233677 0.000000000000000e+00 1851878480
12.254605 -4.510886 -2.238438 0.000000000000000e+00 1851878480
12.179387 -5.071207 -2.238437 0.000000000000000e+00 1851878480
12.086508 -6.262574 -2.238438 0.000000000000000e+00 1851878480
12.070434 -6.906452 -2.238437 0.000000000000000e+00 1851878480
11.661041 -4.289052 -2.238438 0.000000000000000e+00 1851878480
11.575184 -4.817896 -2.238437 0.000000000000000e+00 1851878480
11.452116 -5.935750 -2.238438 0.000000000000000e+00 1851878480
11.415783 -6.535825 -2.238437 0.000000000000000e+00 1851878480
11.120866 -4.087168 -2.238437 0.000000000000000e+00 1851878480
11.026559 -4.587884 -2.238438 0.000000000000000e+00 1851878480
10.879246 -5.640616 -2.238437 0.000000000000000e+00 1851878480
10.826597 -6.202270 -2.238438 0.000000000000000e+00 1851878480
10.627124 -3.902643 -2.238437 0.000000000000000e+00 1851878480
10.526111 -4.378076 -2.238437 0.000000000000000e+00 1851878480
10.359290 -5.372747 -2.238438 0.000000000000000e+00 1851878480
10.293447 -5.900439 -2.238437 0.000000000000000e+00 1851878480
10.173990 -3.733297 -2.238437 0.000000000000000e+00 1851878480
10.067677 -4.185880 -2.238437 0.000000000000000e+00 1851878480
9.885146 -5.128488 -2.238437 0.000000000000000e+00 1851878480
9.808612 -5.625963 -2.238437 0.000000000000000e+00 1851878480
9.756620 -3.577316 -2.238437 0.000000000000000e+00 1851878480
9.646149 -4.009160 -2.238437 0.000000000000000e+00 1851878480
9.450985 -4.904819 -2.238438 0.000000000000000e+00 1851878480
9.365769 -5.375262 -2.238437 0.000000000000000e+00 1851878480
9.370876 -3.433157 -2.238437 0.000000000000000e+00 1851878480
9.257169 -3.846084 -2.238437 0.000000000000000e+00 1851878480
9.051873 -4.699208 -2.238437 0.000000000000000e+00 1851878480
8.959612 -5.145330 -2.238437 0.000000000000000e+00 1851878480
9.013246 -3.299503 -2.238437 0.000000000000000e+00 1851878480
8.897065 -3.695112 -2.238437 0.000000000000000e+00 1851878480
8.683688 -4.509528 -2.238437 0.000000000000000e+00 1851878480
8.585711 -4.933656 -2.238437 0.000000000000000e+00 1851878480
8.680712 -3.175236 -2.238437 0.000000000000000e+00 1851878480
8.562678 -3.554926 -2.238437 0.000000000000000e+00 1851878480
8.342907 -4.333969 -2.238437 0.000000000000000e+00 1851878480
8.240314 -4.738125 -2.238437 0.000000000000000e+00 1851878480
8.370682 -3.059376 -2.238437 0.000000000000000e+00 1851878480
8.251310 -3.424388 -2.238437 0.000000000000000e+00 1851878480
8.026536 -4.170987 -2.238437 0.000000000000000e+00 1851878480
7.920230 -4.556928 -2.238437 0.000000000000000e+00 1851878480
8.080899 -2.951082 -2.238437 0.000000000000000e+00 1851878480
7.960610 -3.302519 -2.238437 0.000000000000000e+00 1851878480
7.731999 -4.019247 -2.238438 0.000000000000000e+00 1851878480
7.622731 -4.388511 -2.238438 0.000000000000000e+00 1851878480
7.809417 -2.849624 -2.238437 0.000000000000000e+00 1851878480
7.688565 -3.188468 -2.238437 0.000000000000000e+00 1851878480
4.259906 -2.215117 -1.278724 1.880790849211783e-38 1684957512
4.196155 -2.417306 -1.278724 1.880790849211783e-38 1684957512
4.315570 -1.573453 -1.278724 1.880790849211783e-38 1684957512
4.246379 -1.760324 -1.278724 1.880790849211783e-38 1684957512
4.112950 -2.139410 -1.278724 1.880790849211783e-38 1684957512
4.048161 -2.333531 -1.278724 1.880790849211783e-38 1684957512
4.178563 -1.522254 -1.278724 1.880790849211783e-38 1684957512
4.109356 -1.702880 -1.278724 1.880790849211783e-38 1684957512
3.975127 -2.068408 -1.278724 1.880790849211783e-38 1684957512
3.909555 -2.255065 -1.278724 1.880790849211783e-38 1684957512
4.049399 -1.473990 -1.278724 1.880790849211783e-38 1684957512
3.980294 -1.648773 -1.278724 1.880790849211783e-38 1684957512
3.845587 -2.001673 -1.278724 1.880790849211783e-38 1684957512
3.779441 -2.181410 -1.278724 1.880790849211783e-38 1684957512
3.963594 -1.441563 -1.290503 1.880790849211783e-38 1684957512
3.858509 -1.597715 -1.278724 1.880790849211783e-38 1684957512
3.723595 -1.938827 -1.278724 1.880790849211783e-38 1684957512
3.657052 -2.112129 -1.278724 1.880790849211783e-38 1684957512
3.966890 -1.441563 -1.330677 1.880790849211783e-38 1684957512
3.743379 -1.549450 -1.278724 1.880790849211783e-38 1684957512
3.608487 -1.879530 -1.278724 1.880790849211783e-38 1684957512
3.541700 -2.046830 -1.278724 1.880790849211783e-38 1684957512
3.970205 -1.441563 -1.371125 1.880790849211783e-38 1684957512
3.634360 -1.503746 -1.278724 1.880790849211783e-38 1684957512
3.499682 -1.823477 -1.278724 1.880790849211783e-38 1684957512
3.432775 -1.985173 -1.278724 1.880790849211783e-38 1684957512
3.973540 -1.441564 -1.411855 1.880790849211783e-38 1684957512
3.530962 -1.460400 -1.278724 1.880790849211783e-38 1684957512
3.396658 -1.770404 -1.278724 1.880790849211783e-38 1684957512
3.329741 -1.926849 -1.278724 1.880790849211783e-38 1684957512
3.976901 -1.441563 -1.452879 1.880790849211783e-38 1684957512
3.486783 -1.441563 -1.298853 1.880790849211783e-38 1684957512
3.298953 -1.720070 -1.278724 1.880790849211783e-38 1684957512
3.232116 -1.871588 -1.278724 1.880790849211783e-38 1684957512
3.980283 -1.441563 -1.494202 1.880790849211783e-38 1684957512
3.488145 -1.441563 -1.335713 1.880790849211783e-38 1684957512
3.206152 -1.672264 -1.278724 1.880790849211783e-38 1684957512
3.139474 -1.819146 -1.278724 1.880790849211783e-38 1684957512
3.983687 -1.441563 -1.535834 1.880790849211783e-38 1684957512
3.489520 -1.441563 -1.372824 1.880790849211783e-38 1684957512
3.117882 -1.626790 -1.278724 1.880790849211783e-38 1684957512
3.051425 -1.769307 -1.278724 1.880790849211783e-38 1684957512
3.987120 -1.441563 -1.577787 1.880790849211783e-38 1684957512
3.490905 -1.441563 -1.410193 1.880790849211783e-38 1684957512
3.033804 -1.583478 -1.278724 1.880790849211783e-38 1684957512
2.967627 -1.721873 -1.278724 1.880790849211783e-38 1684957512
3.990577 -1.441563 -1.620070 1.880790849211783e-38 1684957512
3.492302 -1.441563 -1.447830 1.880790849211783e-38 1684957512
2.953617 -1.542169 -1.278724 1.880790849211783e-38 1684957512
2.887763 -1.676669 -1.278724 1.880790849211783e-38 1684957512
3.994058 -1.441563 -1.662692 1.880790849211783e-38 1684957512
3.493701 -1.441563 -1.485739 1.880790849211783e-38 1684957512
2.877041 -1.502722 -1.278724 1.880790849211783e-38 1684957512
2.811550 -1.633530 -1.278724 1.880790849211783e-38 1684957512
3.997569 -1.441563 -1.705665 1.880790849211783e-38 1684957512
3.495117 -1.441563 -1.523934 1.880790849211783e-38 1684957512
2.803830 -1.465007 -1.278724 1.880790849211783e-38 1684957512
2.738736 -1.592316 -1.278724 1.880790849211783e-38 1684957512
4.001108 -1.441563 -1.748998 1.880790849211783e-38 1684957512
3.496540 -1.441563 -1.562420 1.880790849211783e-38 1684957512
2.757966 -1.441563 -1.290048 1.880790849211783e-38 1684957512
2.669087 -1.552893 -1.278724 1.880790849211783e-38 1684957512
4.004673 -1.441563 -1.792703 1.880790849211783e-38 1684957512
3.497976 -1.441563 -1.601209 1.880790849211783e-38 1684957512
2.756967 -1.441563 -1.322052 1.880790849211783e-38 1684957512
2.602388 -1.515141 -1.278724 1.880790849211783e-38 1684957512
4.008265 -1.441563 -1.836788 1.880790849211783e-38 1684957512
3.499421 -1.441564 -1.640308 1.880790849211783e-38 1684957512
2.755957 -1.441563 -1.354278 1.880790849211783e-38 1684957512
2.538448 -1.478951 -1.278724 1.880790849211783e-38 1684957512
4.011898 -1.441563 -1.881274 1.880790849211783e-38 1684957512
3.500879 -1.441563 -1.679729 1.880790849211783e-38 1684957512
2.754940 -1.441563 -1.386735 1.880790849211783e-38 1684957512
2.477087 -1.444220 -1.278724 1.880790849211783e-38 1684957512
4.015554 -1.441563 -1.926162 1.880790849211783e-38 1684957512
3.502351 -1.441564 -1.719481 1.880790849211783e-38 1684957512
2.753914 -1.441563 -1.419427 1.880790849211783e-38 1684957512
2.470769 -1.441563 -1.306552 1.880790849211783e-38 1684957512
4.019248 -1.441563 -1.971469 1.880790849211783e-38 1684957512
3.503831 -1.441563 -1.759572 1.880790849211783e-38 1684957512
2.752882 -1.441563 -1.452367 1.880790849211783e-38 1684957512
2.468996 -1.441563 -1.336946 1.880790849211783e-38 1684957512
4.022965 -1.441563 -2.017205 1.880790849211783e-38 1684957512
3.505327 -1.441563 -1.800016 1.880790849211783e-38 1684957512
2.751844 -1.441563 -1.485560 1.880790849211783e-38 1684957512
2.467207 -1.441563 -1.367563 1.880790849211783e-38 1684957512
4.026729 -1.441563 -2.063390 1.880790849211783e-38 1684957512
3.506838 -1.441563 -1.840824 1.880790849211783e-38 1684957512
2.750795 -1.441563 -1.519015 1.880790849211783e-38 1684957512
2.465407 -1.441563 -1.398411 1.880790849211783e-38 1684957512
4.030518 -1.441563 -2.110027 1.880790849211783e-38 1684957512
3.508359 -1.441563 -1.882002 1.880790849211783e-38 1684957512
2.749736 -1.441563 -1.552739 1.880790849211783e-38 1684957512
2.463589 -1.441563 -1.429493 1.880790849211783e-38 1684957512
4.034356 -1.441563 -2.157140 1.880790849211783e-38 1684957512
3.509896 -1.441563 -1.923566 1.880790849211783e-38 1684957512
2.748670 -1.441563 -1.586742 1.880790849211783e-38 1684957512
2.461760 -1.441563 -1.460821 1.880790849211783e-38 1684957512
4.038222 -1.441563 -2.204734 1.880790849211783e-38 1684957512
3.511443 -1.441563 -1.965524 1.880790849211783e-38 1684957512
2.747592 -1.441563 -1.621031 1.880790849211783e-38 1684957512
2.459910 -1.441563 -1.492400 1.880790849211783e-38 1684957512
4.016308 -1.432354 -2.238438 0.000000000000000e+00 1851878480
3.513007 -1.441563 -2.007891 1.880790849211783e-38 1684957512
2.746507 -1.441563 -1.655618 1.880790849211783e-38 1684957512
2.458048 -1.441563 -1.524241 1.880790849211783e-38 1684957512
4.006146 -1.427336 -2.278725 0.000000000000000e+00 1634890835
3.514589 -1.441563 -2.050680 1.880790849211783e-38 1684957512
2.745411 -1.441563 -1.690510 1.880790849211783e-38 1684957512
2.456169 -1.441563 -1.556350 1.880790849211783e-38 1684957512
3.926261 -1.397495 -2.278725 0.000000000000000e+00 1634890835
3.516183 -1.441563 -2.093903 1.880790849211783e-38 1684957512
2.744310 -1.441564 -1.725720 1.880790849211783e-38 1684957512
2.454273 -1.441563 -1.588738 1.880790849211783e-38 1684957512
3.848816 -1.368568 -2.278726 0.000000000000000e+00 1634890835
3.517795 -1.441563 -2.137571 1.880790849211783e-38 1684957512
2.743193 -1.441564 -1.761252 1.880790849211783e-38 1684957512
2.452359 -1.441563 -1.621411 1.880790849211783e-38 1684957512
3.773685 -1.340506 -2.278727 0.000000000000000e+00 1634890835
3.519419 -1.441563 -2.181697 1.880790849211783e-38 1684957512
2.742063 -1.441563 -1.797119 1.880790849211783e-38 1684957512
2.450427 -1.441563 -1.654379 1.880790849211783e-38 1684957512
3.700757 -1.313266 -2.278727 0.000000000000000e+00 1634890835
3.521063 -1.441563 -2.226299 1.880790849211783e-38 1684957512
2.740925 -1.441563 -1.833332 1.880790849211783e-38 1684957512
2.448473 -1.441564 -1.687651 1.880790849211783e-38 1684957512
3.629923 -1.286810 -2.278727 0.000000000000000e+00 1634890835
3.471618 -1.420647 -2.238437 0.000000000000000e+00 1851878480
2.739777 -1.441563 -1.869904 1.880790849211783e-38 1684957512
2.446506 -1.441564 -1.721241 1.880790849211783e-38 1684957512
3.561089 -1.261100 -2.278726 0.000000000000000e+00 1634890835
3.466210 -1.417759 -2.278726 0.000000000000000e+00 1634890835
2.738616 -1.441563 -1.906841 1.880790849211783e-38 1684957512
2.444516 -1.441563 -1.755152 1.880790849211783e-38 1684957512
3.494161 -1.236102 -2.278727 0.000000000000000e+00 1634890835
3.400211 -1.390092 -2.278727 0.000000000000000e+00 1634890835
2.737445 -1.441563 -1.944159 1.880790849211783e-38 1684957512
2.442506 -1.441563 -1.789398 1.880790849211783e-38 1684957512
3.429049 -1.211785 -2.278726 0.000000000000000e+00 1634890835
3.336016 -1.363182 -2.278726 0.000000000000000e+00 1634890835
2.736260 -1.441563 -1.981865 1.880790849211783e-38 1684957512
2.440475 -1.441564 -1.823989 1.880790849211783e-38 1684957512
3.365674 -1.188116 -2.278727 0.000000000000000e+00 1634890835
3.273542 -1.336996 -2.278727 0.000000000000000e+00 1634890835
2.735061 -1.441563 -2.019975 1.880790849211783e-38 1684957512
2.438422 -1.441563 -1.858935 1.880790849211783e-38 1684957512
3.303955 -1.165064 -2.278726 0.000000000000000e+00 1634890835
3.212712 -1.311496 -2.278726 0.000000000000000e+00 1634890835
2.733850 -1.441563 -2.058501 1.880790849211783e-38 1684957512
2.436348 -1.441563 -1.894249 1.880790849211783e-38 1684957512
3.243822 -1.142608 -2.278727 0.000000000000000e+00 1634890835
3.153456 -1.286658 -2.278727 0.000000000000000e+00 1634890835
2.732624 -1.441563 -2.097454 1.880790849211783e-38 1684957512
2.434251 -1.441563 -1.929940 1.880790849211783e-38 1684957512
3.185204 -1.120717 -2.278726 0.000000000000000e+00 1634890835
3.095702 -1.262449 -2.278727 0.000000000000000e+00 1634890835
2.731386 -1.441563 -2.136850 1.880790849211783e-38 1684957512
2.432127 -1.441564 -1.966020 1.880790849211783e-38 1684957512
3.128041 -1.099368 -2.278727 0.000000000000000e+00 1634890835
3.039387 -1.238845 -2.278727 0.000000000000000e+00 1634890835
2.730129 -1.441563 -2.176697 1.880790849211783e-38 1684957512
2.429983 -1.441563 -2.002504 1.880790849211783e-38 1684957512
3.072265 -1.078540 -2.278727 0.000000000000000e+00 1634890835
2.984451 -1.215816 -2.278727 0.000000000000000e+00 1634890835
2.728863 -1.441563 -2.217019 1.880790849211783e-38 1684957512
0.840392 -0.499001 -0.705944 0.000000000000000e+00 1886740808
3.017821 -1.058209 -2.278726 0.000000000000000e+00 1634890835
2.930831 -1.193340 -2.278726 0.000000000000000e+00 1634890835
2.704159 -1.429187 -2.238437 0.000000000000000e+00 1851878480
0.824540 -0.490031 -0.705943 0.000000000000000e+00 1886740808
2.964655 -1.038356 -2.278727 0.000000000000000e+00 1634890835
2.878477 -1.171397 -2.278726 0.000000000000000e+00 1634890835
0.837100 -0.442630 -0.705943 0.000000000000000e+00 1886740808
0.809070 -0.481279 -0.705944 0.000000000000000e+00 1886740808
2.912716 -1.018961 -2.278727 0.000000000000000e+00 1634890835
2.827339 -1.149959 -2.278727 0.000000000000000e+00 1634890835
0.821749 -0.434723 -0.705944 0.000000000000000e+00 1886740808
0.793967 -0.472734 -0.705944 0.000000000000000e+00 1886740808
2.861952 -1.000005 -2.278727 0.000000000000000e+00 1634890835
2.777363 -1.129012 -2.278726 0.000000000000000e+00 1634890835
0.806752 -0.426998 -0.705944 0.000000000000000e+00 1886740808
0.779214 -0.464387 -0.705943 0.000000000000000e+00 1886740808
2.812317 -0.981473 -2.278727 0.000000000000000e+00 1634890835
2.728504 -1.108533 -2.278727 0.000000000000000e+00 1634890835
0.792094 -0.419448 -0.705943 0.000000000000000e+00 1886740808
0.764797 -0.456231 -0.705944 0.000000000000000e+00 1886740808
2.763766 -0.963343 -2.278727 0.000000000000000e+00 1634890835
0.830479 -0.337215 -0.705943 0.000000000000000e+00 1886740808
0.777762 -0.412066 -0.705943 0.000000000000000e+00 1886740808
0.750703 -0.448257 -0.705944 0.000000000000000e+00 1886740808
0.841490 -0.292946 -0.705943 0.000000000000000e+00 1886740808
0.815995 -0.331144 -0.705943 0.000000000000000e+00 1886740808
0.763744 -0.404846 -0.705944 0.000000000000000e+00 1886740808
0.744292 -0.444866 -0.713007 0.000000000000000e+00 1886740808
0.827083 -0.287567 -0.705943 0.000000000000000e+00 1886740808
0.801818 -0.325202 -0.705943 0.000000000000000e+00 1886740808
0.750026 -0.397780 -0.705944 0.000000000000000e+00 1886740808
0.744292 -0.445309 -0.726299 0.000000000000000e+00 1886740808
0.812975 -0.282300 -0.705943 0.000000000000000e+00 1886740808
0.787937 -0.319383 -0.705943 0.000000000000000e+00 1886740808
0.744292 -0.394946 -0.713318 0.000000000000000e+00 1886740808
0.744292 -0.445760 -0.739797 0.000000000000000e+00 1886740808
0.799155 -0.277140 -0.705944 0.000000000000000e+00 1886740808
0.774339 -0.313685 -0.705943 0.000000000000000e+00 1886740808
0.744292 -0.395157 -0.726286 0.000000000000000e+00 1886740808
0.744292 -0.446218 -0.753510 0.000000000000000e+00 1886740808
0.785612 -0.272084 -0.705943 0.000000000000000e+00 1886740808
0.761016 -0.308100 -0.705943 0.000000000000000e+00 1886740808
0.744292 -0.395371 -0.739454 0.000000000000000e+00 1886740808
0.744292 -0.446684 -0.767444 0.000000000000000e+00 1886740808
0.772336 -0.267127 -0.705943 0.000000000000000e+00 1886740808
0.747956 -0.302626 -0.705944 0.000000000000000e+00 1886740808
0.744292 -0.395588 -0.752831 0.000000000000000e+00 1886740808
0.744292 -0.447156 -0.781607 0.000000000000000e+00 1886740808
0.759317 -0.262267 -0.705943 0.000000000000000e+00 1886740808
0.744292 -0.300955 -0.714722 0.000000000000000e+00 1886740808
0.744292 -0.395809 -0.766423 0.000000000000000e+00 1886740808
0.744292 -0.447637 -0.796006 0.000000000000000e+00 1886740808
0.746546 -0.257499 -0.705944 0.000000000000000e+00 1886740808
0.744292 -0.300764 -0.727146 0.000000000000000e+00 1886740808
0.744292 -0.396033 -0.780238 0.000000000000000e+00 1886740808
2.092193 -1.259678 -2.278727 0.000000000000000e+00 1634890835
0.744292 -0.256361 -0.715828 0.000000000000000e+00 1886740808
0.744292 -0.300569 -0.739764 0.000000000000000e+00 1886740808
0.744292 -0.396261 -0.794285 0.000000000000000e+00 1886740808
2.054434 -1.238319 -2.278727 0.000000000000000e+00 1634890835
0.744292 -0.255995 -0.728030 0.000000000000000e+00 1886740808
0.744292 -0.300372 -0.752583 0.000000000000000e+00 1886740808
2.097579 -1.117404 -2.278727 0.000000000000000e+00 1634890835
2.017382 -1.217360 -2.278727 0.000000000000000e+00 1634890835
0.744292 -0.255623 -0.740421 0.000000000000000e+00 1886740808
0.744292 -0.300171 -0.765608 0.000000000000000e+00 1886740808
2.060544 -1.098330 -2.278727 0.000000000000000e+00 1634890835
0.796275 -0.481053 -0.915943 0.000000000000000e+00 1886740808
0.744292 -0.255245 -0.753011 0.000000000000000e+00 1886740808
0.744292 -0.299968 -0.778848 0.000000000000000e+00 1886740808
2.024177 -1.079599 -2.278727 0.000000000000000e+00 1634890835
0.784636 -0.474577 -0.919123 0.000000000000000e+00 1886740808
0.744292 -0.254862 -0.765803 0.000000000000000e+00 1886740808
0.744292 -0.299761 -0.792308 0.000000000000000e+00 1886740808
1.988453 -1.061199 -2.278727 0.000000000000000e+00 1634890835
0.775673 -0.469713 -0.925309 0.000000000000000e+00 1886740808
0.744292 -0.254472 -0.778807 0.000000000000000e+00 1886740808
2.104272 -0.846891 -2.278727 0.000000000000000e+00 1634890835
0.797389 -0.425818 -0.930214 0.000000000000000e+00 1886740808
0.768823 -0.466130 -0.933989 0.000000000000000e+00 1886740808
0.744292 -0.254076 -0.792029 0.000000000000000e+00 1886740808
2.068530 -0.831912 -2.278727 0.000000000000000e+00 1634890835
0.785519 -0.419747 -0.932845 0.000000000000000e+00 1886740808
0.764549 -0.464111 -0.945878 0.000000000000000e+00 1886740808
0.744292 -0.253673 -0.805476 0.000000000000000e+00 1886740808
2.033384 -0.817181 -2.278727 0.000000000000000e+00 1634890835
0.776431 -0.415161 -0.938648 0.000000000000000e+00 1886740808
1.808582 -1.099259 -2.278727 0.000000000000000e+00 1634890835
2.070472 -0.704526 -2.278727 0.000000000000000e+00 1634890835
1.998814 -0.802692 -2.278727 0.000000000000000e+00 1634890835
0.769417 -0.411684 -0.946931 0.000000000000000e+00 1886740808
1.775830 -1.080735 -2.278727 0.000000000000000e+00 1634890835
2.035872 -0.691612 -2.278727 0.000000000000000e+00 1634890835
1.964800 -0.788435 -2.278727 0.000000000000000e+00 1634890835
0.764805 -0.409492 -0.958243 0.000000000000000e+00 1886740808
0.749057 -0.456456 -0.978943 0.000000000000000e+00 1886740808
2.001818 -0.678901 -2.278727 0.000000000000000e+00 1634890835
1.931324 -0.774405 -2.278727 0.000000000000000e+00 1634890835
0.767168 -0.411040 -0.978586 0.000000000000000e+00 1886740808
1.711907 -1.044581 -2.278727 0.000000000000000e+00 1634890835
1.968293 -0.666389 -2.278727 0.000000000000000e+00 1634890835
0.797682 -0.319597 -0.957506 0.000000000000000e+00 1886740808
1.754623 -0.940768 -2.278727 0.000000000000000e+00 1634890835
1.680701 -1.026932 -2.278727 0.000000000000000e+00 1634890835
1.935280 -0.654068 -2.278727 0.000000000000000e+00 1634890835
0.785811 -0.314588 -0.959661 0.000000000000000e+00 1886740808
0.751063 -0.402982 -0.993126 0.000000000000000e+00 1886740808
1.649975 -1.009555 -2.278727 0.000000000000000e+00 1634890835
1.902762 -0.641932 -2.278726 0.000000000000000e+00 1634890835
0.776731 -0.310699 -0.965105 0.000000000000000e+00 1886740808
1.692478 -0.908759 -2.278727 0.000000000000000e+00 1634890835
1.619716 -0.992442 -2.278727 0.000000000000000e+00 1634890835
0.796758 -0.268312 -0.970530 0.000000000000000e+00 1886740808
0.769656 -0.307612 -0.973022 0.000000000000000e+00 1886740808
1.662097 -0.893113 -2.278727 0.000000000000000e+00 1634890835
1.589907 -0.975584 -2.278727 0.000000000000000e+00 1634890835
0.785168 -0.263918 -0.972832 0.000000000000000e+00 1886740808
0.764879 -0.305442 -0.983924 0.000000000000000e+00 1886740808
1.632161 -0.877695 -2.278727 0.000000000000000e+00 1634890835
1.560533 -0.958973 -2.278727 0.000000000000000e+00 1634890835
0.776222 -0.260416 -0.978303 0.000000000000000e+00 1886740808
0.765618 -0.305471 -1.002182 0.000000000000000e+00 1886740808
1.602653 -0.862498 -2.278727 0.000000000000000e+00 1634890835
1.531581 -0.942600 -2.278727 0.000000000000000e+00 1634890835
0.769283 -0.257587 -0.986298 0.000000000000000e+00 1886740808
1.710672 -0.681929 -2.278726 0.000000000000000e+00 1634890835
1.573560 -0.847513 -2.278727 0.000000000000000e+00 1634890835
1.503037 -0.926458 -2.278727 0.000000000000000e+00 1634890835
0.764662 -0.255532 -0.997357 0.000000000000000e+00 1886740808
1.680925 -0.669462 -2.278726 0.000000000000000e+00 1634890835
1.544869 -0.832737 -2.278727 0.000000000000000e+00 1634890835
1.474889 -0.910540 -2.278727 0.000000000000000e+00 1634890835
0.766225 -0.255535 -1.016771 0.000000000000000e+00 1886740808
0.744045 -0.296056 -1.026578 0.000000000000000e+00 1886740808
1.516567 -0.818161 -2.278727 0.000000000000000e+00 1634890835
1.447124 -0.894839 -2.278727 0.000000000000000e+00 1634890835
1.687758 -0.561696 -2.278727 0.000000000000000e+00 1634890835
1.622624 -0.645028 -2.278727 0.000000000000000e+00 1634890835
1.488642 -0.803779 -2.278727 0.000000000000000e+00 1634890835
1.419728 -0.879347 -2.278727 0.000000000000000e+00 1634890835
0.752069 -0.249761 -1.033205 0.000000000000000e+00 1886740808
1.594047 -0.633052 -2.278727 0.000000000000000e+00 1634890835
1.461082 -0.789587 -2.278727 0.000000000000000e+00 1634890835
1.392692 -0.864060 -2.278727 0.000000000000000e+00 1634890835
1.629982 -0.540137 -2.278727 0.000000000000000e+00 1634890835
1.565837 -0.621229 -2.278727 0.000000000000000e+00 1634890835
1.433877 -0.775575 -2.278727 0.000000000000000e+00 1634890835
1.366004 -0.848968 -2.278727 0.000000000000000e+00 1634890835
1.601642 -0.529563 -2.278727 0.000000000000000e+00 1634890835
1.537982 -0.609555 -2.278727 0.000000000000000e+00 1634890835
1.407014 -0.761740 -2.278727 0.000000000000000e+00 1634890835
1.339653 -0.834067 -2.278727 0.000000000000000e+00 1634890835
1.573652 -0.519120 -2.278727 0.000000000000000e+00 1634890835
1.510471 -0.598026 -2.278727 0.000000000000000e+00 1634890835
1.380485 -0.748077 -2.278727 0.000000000000000e+00 1634890835
1.313628 -0.819351 -2.278727 0.000000000000000e+00 1634890835
1.546004 -0.508803 -2.278727 0.000000000000000e+00 1634890835
1.483295 -0.586636 -2.278727 0.000000000000000e+00 1634890835
1.354277 -0.734580 -2.278727 0.000000000000000e+00 1634890835
1.287921 -0.804815 -2.278727 0.000000000000000e+00 1634890835
1.518686 -0.498610 -2.278727 0.000000000000000e+00 1634890835
1.456443 -0.575382 -2.278727 0.000000000000000e+00 1634890835
1.328382 -0.721244 -2.278727 0.000000000000000e+00 1634890835
1.262519 -0.790452 -2.278727 0.000000000000000e+00 1634890835
1.491688 -0.488535 -2.278726 0.000000000000000e+00 1634890835
1.429906 -0.564261 -2.278727 0.000000000000000e+00 1634890835
1.302791 -0.708064 -2.278727 0.000000000000000e+00 1634890835
1.237416 -0.776258 -2.278727 0.000000000000000e+00 1634890835
1.465000 -0.478579 -2.278727 0.000000000000000e+00 1634890835
1.403673 -0.553268 -2.278727 0.000000000000000e+00 1634890835
1.277493 -0.695036 -2.278727 0.000000000000000e+00 1634890835
1.212600 -0.762228 -2.278727 0.000000000000000e+00 1634890835
1.438615 -0.468734 -2.278727 0.000000000000000e+00 1634890835
1.377737 -0.542399 -2.278727 0.000000000000000e+00 1634890835
1.252480 -0.682154 -2.278727 0.000000000000000e+00 1634890835
1.188066 -0.748353 -2.278727 0.000000000000000e+00 1634890835
1.412522 -0.458998 -2.278727 0.000000000000000e+00 1634890835
1.352087 -0.531649 -2.278727 0.000000000000000e+00 1634890835
1.227743 -0.669413 -2.278727 0.000000000000000e+00 1634890835
1.163801 -0.734634 -2.278727 0.000000000000000e+00 1634890835
1.386713 -0.449370 -2.278727 0.000000000000000e+00 1634890835
1.326717 -0.521017 -2.278727 0.000000000000000e+00 1634890835
1.203275 -0.656813 -2.278727 0.000000000000000e+00 1634890835
1.139799 -0.721064 -2.278727 0.000000000000000e+00 1634890835
1.361180 -0.439844 -2.278727 0.000000000000000e+00 1634890835
1.301617 -0.510498 -2.278727 0.000000000000000e+00 1634890835
1.179066 -0.644345 -2.278727 0.000000000000000e+00 1634890835
1.116052 -0.707638 -2.278727 0.000000000000000e+00 1634890835
1.335915 -0.430417 -2.278727 0.000000000000000e+00 1634890835
1.276779 -0.500089 -2.278727 0.000000000000000e+00 1634890835
1.155110 -0.632009 -2.278727 0.000000000000000e+00 1634890835
1.092553 -0.694350 -2.278727 0.000000000000000e+00 1634890835
1.310909 -0.421088 -2.278727 0.000000000000000e+00 1634890835
1.252195 -0.489786 -2.278727 0.000000000000000e+00 1634890835
1.131398 -0.619797 -2.278727 0.000000000000000e+00 1634890835
1.069293 -0.681200 -2.278727 0.000000000000000e+00 1634890835
1.286156 -0.411854 -2.278727 0.000000000000000e+00 1634890835
1.227860 -0.479588 -2.278727 0.000000000000000e+00 1634890835
1.107924 -0.607707 -2.278727 0.000000000000000e+00 1634890835
1.046266 -0.668181 -2.278727 0.000000000000000e+00 1634890835
1.261648 -0.402710 -2.278727 0.000000000000000e+00 1634890835
1.203764 -0.469490 -2.278727 0.000000000000000e+00 1634890835
1.084680 -0.595737 -2.278727 0.000000000000000e+00 1634890835
1.023464 -0.655289 -2.278727 0.000000000000000e+00 1634890835
1.237376 -0.393657 -2.278727 0.000000000000000e+00 1634890835
1.179900 -0.459490 -2.278727 0.000000000000000e+00 1634890835
1.061658 -0.583882 -2.278727 0.000000000000000e+00 1634890835
1.000880 -0.642522 -2.278727 0.000000000000000e+00 1634890835
1.213336 -0.384688 -2.278727 0.000000000000000e+00 1634890835
1.156262 -0.449584 -2.278727 0.000000000000000e+00 1634890835
1.038854 -0.572138 -2.278727 0.000000000000000e+00 1634890835
0.978510 -0.629874 -2.278727 0.000000000000000e+00 1634890835
1.189520 -0.375802 -2.278727 0.000000000000000e+00 1634890835
1.132844 -0.439770 -2.278727 0.000000000000000e+00 1634890835
1.016261 -0.560501 -2.278727 0.000000000000000e+00 1634890835
0.956343 -0.617343 -2.278727 0.000000000000000e+00 1634890835
1.165920 -0.366999 -2.278727 0.000000000000000e+00 1634890835
1.109637 -0.430046 -2.278727 0.000000000000000e+00 1634890835
0.993869 -0.548971 -2.278727 0.000000000000000e+00 1634890835
0.934377 -0.604923 -2.278727 0.000000000000000e+00 1634890835
1.142533 -0.358274 -2.278727 0.000000000000000e+00 1634890835
1.086638 -0.420407 -2.278727 0.000000000000000e+00 1634890835
0.971676 -0.537541 -2.278727 0.000000000000000e+00 1634890835
0.912604 -0.592614 -2.278727 0.000000000000000e+00 1634890835
1.119349 -0.349626 -2.278727 0.000000000000000e+00 1634890835
1.063839 -0.410853 -2.278727 0.000000000000000e+00 1634890835
0.949675 -0.526211 -2.278727 0.000000000000000e+00 1634890835
0.891018 -0.580411 -2.278727 0.000000000000000e+00 1634890835
1.096363 -0.341051 -2.278727 0.000000000000000e+00 1634890835
1.041233 -0.401379 -2.278727 0.000000000000000e+00 1634890835
0.927858 -0.514976 -2.278727 0.000000000000000e+00 1634890835
0.869613 -0.568309 -2.278727 0.000000000000000e+00 1634890835
1.073571 -0.332549 -2.278727 0.000000000000000e+00 1634890835
1.018817 -0.391985 -2.278727 0.000000000000000e+00 1634890835
0.906222 -0.503834 -2.278727 0.000000000000000e+00 1634890835
0.848384 -0.556308 -2.278727 0.000000000000000e+00 1634890835
1.050966 -0.324117 -2.278727 0.000000000000000e+00 1634890835
0.996582 -0.382668 -2.278726 0.000000000000000e+00 1634890835
0.884761 -0.492782 -2.278727 0.000000000000000e+00 1634890835
0.827326 -0.544404 -2.278727 0.000000000000000e+00 1634890835
1.028542 -0.315752 -2.278727 0.000000000000000e+00 1634890835
0.974527 -0.373425 -2.278727 0.000000000000000e+00 1634890835
0.863469 -0.481816 -2.278727 0.000000000000000e+00 1634890835
0.451010 -0.297860 -1.274412 0.000000000000000e+00 1936876886
1.006294 -0.307453 -2.278727 0.000000000000000e+00 1634890835
0.952641 -0.364254 -2.278727 0.000000000000000e+00 1634890835
0.842340 -0.470936 -2.278727 0.000000000000000e+00 1634890835
0.433313 -0.287261 -1.256715 0.000000000000000e+00 1936876886
0.984217 -0.299218 -2.278727 0.000000000000000e+00 1634890835
0.930923 -0.355153 -2.278727 0.000000000000000e+00 1634890835
0.821371 -0.460137 -2.278727 0.000000000000000e+00 1634890835
0.421238 -0.280361 -1.254551 0.000000000000000e+00 1936876886
0.962305 -0.291044 -2.278727 0.000000000000000e+00 1634890835
0.909366 -0.346119 -2.278727 0.000000000000000e+00 1634890835
0.445942 -0.250344 -1.269344 0.000000000000000e+00 1936876886
0.335128 -0.223971 -1.025473 0.000000000000000e+00 1953264973
0.940553 -0.282931 -2.278727 0.000000000000000e+00 1634890835
0.887966 -0.337151 -2.278727 0.000000000000000e+00 1634890835
0.428905 -0.241307 -1.253204 0.000000000000000e+00 1936876886
0.306472 -0.205704 -0.964046 0.000000000000000e+00 1953264973
0.495093 -0.148090 -1.227675 0.000000000000000e+00 1936876886
0.866717 -0.328247 -2.278727 0.000000000000000e+00 1634890835
0.358555 -0.202189 -1.075963 0.000000000000000e+00 1953264973
0.281223 -0.189608 -0.909920 0.000000000000000e+00 1953264973
0.483539 -0.143780 -1.227675 0.000000000000000e+00 1936876886
0.845615 -0.319403 -2.278727 0.000000000000000e+00 1634890835
0.326695 -0.184664 -1.007396 0.000000000000000e+00 1953264973
0.258802 -0.175315 -0.861857 0.000000000000000e+00 1953264973
0.472064 -0.139500 -1.227676 0.000000000000000e+00 1936876886
0.824655 -0.310620 -2.278727 0.000000000000000e+00 1634890835
0.299054 -0.169464 -0.948144 0.000000000000000e+00 1953264973
0.238756 -0.162537 -0.818886 0.000000000000000e+00 1953264973
