# .PCD v0.7 - Point Cloud Data file format
VERSION 0.7
FIELDS x y z rgb label
SIZE 4 4 4 4 4
TYPE F F F F U
COUNT 1 1 1 1 1
WIDTH 533
HEIGHT 1
VIEWPOINT 0 0 0 1 0 0 0
POINTS 533
DATA ascii
35.294113 -13.121801 -2.242383 0.000000000000000e+00 1851878480
29.312208 -10.889558 -2.128618 0.000000000000000e+00 1851878480
28.756025 -12.024312 -2.022238 0.000000000000000e+00 1851878480
27.160463 -14.020379 -1.739805 0.000000000000000e+00 1851878480
25.962511 -14.749299 -1.557426 0.000000000000000e+00 1851878480
26.600487 -9.874639 -2.173570 0.000000000000000e+00 1851878480
26.054533 -10.890853 -2.076412 0.000000000000000e+00 1851878480
24.916552 -12.866044 -1.845057 0.000000000000000e+00 1851878480
24.289799 -13.807166 -1.708275 0.000000000000000e+00 1851878480
24.087135 -8.934836 -2.187453 0.000000000000000e+00 1851878480
24.227600 -10.123633 -2.158109 0.000000000000000e+00 1851878480
23.197714 -11.982201 -1.949902 0.000000000000000e+00 1851878480
22.890186 -13.019280 -1.846906 0.000000000000000e+00 1851878480
22.125843 -8.201067 -2.210979 0.000000000000000e+00 1851878480
22.247927 -9.293157 -2.190752 0.000000000000000e+00 1851878480
21.916115 -11.323747 -2.061800 0.000000000000000e+00 1851878480
21.692579 -12.345416 -1.975294 0.000000000000000e+00 1851878480
20.419580 -7.562863 -2.226810 0.000000000000000e+00 1851878480
20.508141 -8.563409 -2.212350 0.000000000000000e+00 1851878480
20.662695 -10.679431 -2.151280 0.000000000000000e+00 1851878480
20.378567 -11.604486 -2.067398 0.000000000000000e+00 1851878480
18.930679 -7.006057 -2.237448 0.000000000000000e+00 1851878480
19.025854 -7.941661 -2.231701 0.000000000000000e+00 1851878480
19.433546 -10.047285 -2.218721 0.000000000000000e+00 1851878480
19.157644 -10.915710 -2.142994 0.000000000000000e+00 1851878480
17.577663 -6.500334 -2.238437 0.000000000000000e+00 1851878480
17.636080 -7.358948 -2.235132 0.000000000000000e+00 1851878480
17.888763 -9.251506 -2.222587 0.000000000000000e+00 1851878480
17.955578 -10.236883 -2.195863 0.000000000000000e+00 1851878480
16.396885 -6.059024 -2.238437 0.000000000000000e+00 1851878480
16.435156 -6.855419 -2.238341 0.000000000000000e+00 1851878480
16.575056 -8.574781 -2.226719 0.000000000000000e+00 1851878480
16.702465 -9.528136 -2.217269 0.000000000000000e+00 1851878480
15.362922 -5.672592 -2.238438 0.000000000000000e+00 1851878480
15.366795 -6.407504 -2.238437 0.000000000000000e+00 1851878480
15.411394 -7.975278 -2.226344 0.000000000000000e+00 1851878480
15.477568 -8.834657 -2.216895 0.000000000000000e+00 1851878480
14.449850 -5.331330 -2.238438 0.000000000000000e+00 1851878480
14.426385 -6.013242 -2.238437 0.000000000000000e+00 1851878480
14.432824 -7.471222 -2.231384 0.000000000000000e+00 1851878480
14.454391 -8.255567 -2.222239 0.000000000000000e+00 1851878480
13.637503 -5.027728 -2.238437 0.000000000000000e+00 1851878480
13.592605 -5.663688 -2.238438 0.000000000000000e+00 1851878480
13.575005 -7.029385 -2.236822 0.000000000000000e+00 1851878480
13.559107 -7.748880 -2.227476 0.000000000000000e+00 1851878480
12.910004 -4.755835 -2.238438 0.000000000000000e+00 1851878480
12.848187 -5.351590 -2.238438 0.000000000000000e+00 1851878480
12.793031 -6.626556 -2.238438 0.000000000000000e+00 1851878480
12.767497 -7.300879 -2.232361 0.000000000000000e+00 1851878480
12.254608 -4.510887 -2.238439 0.000000000000000e+00 1851878480
12.179391 -5.071208 -2.238438 0.000000000000000e+00 1851878480
12.086508 -6.262574 -2.238438 0.000000000000000e+00 1851878480
12.070437 -6.906455 -2.238438 0.000000000000000e+00 1851878480
11.661045 -4.289052 -2.238438 0.000000000000000e+00 1851878480
11.575185 -4.817896 -2.238437 0.000000000000000e+00 1851878480
11.452120 -5.935752 -2.238438 0.000000000000000e+00 1851878480
11.415786 -6.535827 -2.238438 0.000000000000000e+00 1851878480
11.120869 -4.087169 -2.238438 0.000000000000000e+00 1851878480
11.026560 -4.587885 -2.238438 0.000000000000000e+00 1851878480
10.879251 -5.640619 -2.238438 0.000000000000000e+00 1851878480
10.826604 -6.202273 -2.238439 0.000000000000000e+00 1851878480
10.627126 -3.902643 -2.238438 0.000000000000000e+00 1851878480
10.526115 -4.378078 -2.238438 0.000000000000000e+00 1851878480
10.359295 -5.372750 -2.238439 0.000000000000000e+00 1851878480
10.293452 -5.900442 -2.238439 0.000000000000000e+00 1851878480
10.173991 -3.733298 -2.238438 0.000000000000000e+00 1851878480
10.067680 -4.185881 -2.238438 0.000000000000000e+00 1851878480
9.885150 -5.128490 -2.238438 0.000000000000000e+00 1851878480
9.808618 -5.625967 -2.238438 0.000000000000000e+00 1851878480
9.756623 -3.577317 -2.238438 0.000000000000000e+00 1851878480
9.646152 -4.009161 -2.238438 0.000000000000000e+00 1851878480
9.450990 -4.904821 -2.238439 0.000000000000000e+00 1851878480
9.365772 -5.375263 -2.238438 0.000000000000000e+00 1851878480
9.370879 -3.433158 -2.238438 0.000000000000000e+00 1851878480
9.257172 -3.846085 -2.238438 0.000000000000000e+00 1851878480
9.051879 -4.699212 -2.238439 0.000000000000000e+00 1851878480
8.959615 -5.145332 -2.238438 0.000000000000000e+00 1851878480
9.013248 -3.299504 -2.238437 0.000000000000000e+00 1851878480
8.897067 -3.695113 -2.238438 0.000000000000000e+00 1851878480
8.683690 -4.509529 -2.238438 0.000000000000000e+00 1851878480
4.904654 -2.818389 -1.278724 1.880790849211783e-38 1684957512
8.680714 -3.175236 -2.238438 0.000000000000000e+00 1851878480
4.891496 -2.030779 -1.278724 1.880790849211783e-38 1684957512
4.765950 -2.475813 -1.278725 1.880790849211783e-38 1684957512
4.707342 -2.706691 -1.278724 1.880790849211783e-38 1684957512
4.781816 -1.747692 -1.278724 1.880790849211783e-38 1684957512
4.713624 -1.956208 -1.278724 1.880790849211783e-38 1684957512
4.585220 -2.382709 -1.278724 1.880790849211783e-38 1684957512
4.524493 -2.603180 -1.278725 1.880790849211783e-38 1684957512
4.616276 -1.685828 -1.278725 1.880790849211783e-38 1684957512
4.547561 -1.886589 -1.278725 1.880790849211783e-38 1684957512
4.416963 -2.296025 -1.278724 1.880790849211783e-38 1684957512
4.354543 -2.506970 -1.278725 1.880790849211783e-38 1684957512
4.461190 -1.627870 -1.278725 1.880790849211783e-38 1684957512
4.392151 -1.821437 -1.278724 1.880790849211783e-38 1684957512
4.259909 -2.215118 -1.278725 1.880790849211783e-38 1684957512
4.196156 -2.417307 -1.278725 1.880790849211783e-38 1684957512
4.315573 -1.573454 -1.278725 1.880790849211783e-38 1684957512
4.246382 -1.760325 -1.278725 1.880790849211783e-38 1684957512
4.112952 -2.139411 -1.278724 1.880790849211783e-38 1684957512
4.048162 -2.333532 -1.278724 1.880790849211783e-38 1684957512
4.178565 -1.522255 -1.278724 1.880790849211783e-38 1684957512
4.109357 -1.702880 -1.278724 1.880790849211783e-38 1684957512
3.975130 -2.068409 -1.278725 1.880790849211783e-38 1684957512
3.909557 -2.255066 -1.278725 1.880790849211783e-38 1684957512
4.049400 -1.473990 -1.278724 1.880790849211783e-38 1684957512
3.980296 -1.648774 -1.278725 1.880790849211783e-38 1684957512
3.845589 -2.001674 -1.278725 1.880790849211783e-38 1684957512
3.779443 -2.181412 -1.278725 1.880790849211783e-38 1684957512
3.963596 -1.441564 -1.290504 1.880790849211783e-38 1684957512
3.858510 -1.597716 -1.278725 1.880790849211783e-38 1684957512
3.723597 -1.938828 -1.278724 1.880790849211783e-38 1684957512
3.657054 -2.112130 -1.278724 1.880790849211783e-38 1684957512
3.966892 -1.441564 -1.330678 1.880790849211783e-38 1684957512
3.743381 -1.549451 -1.278725 1.880790849211783e-38 1684957512
3.608488 -1.879531 -1.278725 1.880790849211783e-38 1684957512
3.541701 -2.046831 -1.278724 1.880790849211783e-38 1684957512
3.970207 -1.441564 -1.371126 1.880790849211783e-38 1684957512
3.634362 -1.503747 -1.278725 1.880790849211783e-38 1684957512
3.499684 -1.823478 -1.278725 1.880790849211783e-38 1684957512
3.432776 -1.985174 -1.278724 1.880790849211783e-38 1684957512
3.973542 -1.441564 -1.411856 1.880790849211783e-38 1684957512
3.530964 -1.460400 -1.278724 1.880790849211783e-38 1684957512
3.396660 -1.770406 -1.278725 1.880790849211783e-38 1684957512
3.329743 -1.926850 -1.278724 1.880790849211783e-38 1684957512
3.976903 -1.441564 -1.452880 1.880790849211783e-38 1684957512
3.486784 -1.441564 -1.298854 1.880790849211783e-38 1684957512
3.298954 -1.720071 -1.278725 1.880790849211783e-38 1684957512
3.232117 -1.871589 -1.278725 1.880790849211783e-38 1684957512
3.980285 -1.441564 -1.494202 1.880790849211783e-38 1684957512
3.488147 -1.441564 -1.335714 1.880790849211783e-38 1684957512
3.206154 -1.672265 -1.278724 1.880790849211783e-38 1684957512
3.139475 -1.819147 -1.278724 1.880790849211783e-38 1684957512
3.983690 -1.441564 -1.535835 1.880790849211783e-38 1684957512
3.489522 -1.441564 -1.372825 1.880790849211783e-38 1684957512
3.117883 -1.626791 -1.278724 1.880790849211783e-38 1684957512
3.051426 -1.769308 -1.278724 1.880790849211783e-38 1684957512
3.987123 -1.441564 -1.577789 1.880790849211783e-38 1684957512
3.490907 -1.441564 -1.410194 1.880790849211783e-38 1684957512
3.033806 -1.583479 -1.278724 1.880790849211783e-38 1684957512
2.967628 -1.721874 -1.278724 1.880790849211783e-38 1684957512
3.990580 -1.441564 -1.620071 1.880790849211783e-38 1684957512
3.492304 -1.441564 -1.447831 1.880790849211783e-38 1684957512
2.953618 -1.542170 -1.278725 1.880790849211783e-38 1684957512
2.940688 -1.707398 -1.302160 1.880790849211783e-38 1684957512
3.994060 -1.441564 -1.662693 1.880790849211783e-38 1684957512
3.493703 -1.441564 -1.485740 1.880790849211783e-38 1684957512
2.940687 -1.535965 -1.307012 1.880790849211783e-38 1684957512
2.940687 -1.708560 -1.337457 1.880790849211783e-38 1684957512
3.997572 -1.441564 -1.705666 1.880790849211783e-38 1684957512
3.495119 -1.441564 -1.523935 1.880790849211783e-38 1684957512
2.940687 -1.536515 -1.341139 1.880790849211783e-38 1684957512
2.940688 -1.709732 -1.373016 1.880790849211783e-38 1684957512
4.001110 -1.441564 -1.748999 1.880790849211783e-38 1684957512
3.496542 -1.441564 -1.562421 1.880790849211783e-38 1684957512
2.940687 -1.537070 -1.375517 1.880790849211783e-38 1684957512
2.940687 -1.710911 -1.408844 1.880790849211783e-38 1684957512
4.004675 -1.441564 -1.792704 1.880790849211783e-38 1684957512
3.497978 -1.441564 -1.601210 1.880790849211783e-38 1684957512
2.940687 -1.537627 -1.410152 1.880790849211783e-38 1684957512
2.940688 -1.712103 -1.444952 1.880790849211783e-38 1684957512
4.008266 -1.441564 -1.836789 1.880790849211783e-38 1684957512
3.499423 -1.441564 -1.640309 1.880790849211783e-38 1684957512
2.940687 -1.538191 -1.445054 1.880790849211783e-38 1684957512
2.940688 -1.713303 -1.481349 1.880790849211783e-38 1684957512
4.011901 -1.441564 -1.881275 1.880790849211783e-38 1684957512
3.500880 -1.441564 -1.679730 1.880790849211783e-38 1684957512
2.940688 -1.538758 -1.480233 1.880790849211783e-38 1684957512
2.940687 -1.714514 -1.518044 1.880790849211783e-38 1684957512
4.015556 -1.441564 -1.926163 1.880790849211783e-38 1684957512
3.502353 -1.441564 -1.719482 1.880790849211783e-38 1684957512
2.940687 -1.539331 -1.515694 1.880790849211783e-38 1684957512
2.940687 -1.715735 -1.555046 1.880790849211783e-38 1684957512
4.019250 -1.441564 -1.971470 1.880790849211783e-38 1684957512
3.503834 -1.441564 -1.759573 1.880790849211783e-38 1684957512
2.940687 -1.539909 -1.551449 1.880790849211783e-38 1684957512
2.940687 -1.716968 -1.592364 1.880790849211783e-38 1684957512
4.022968 -1.441564 -2.017206 1.880790849211783e-38 1684957512
3.505329 -1.441564 -1.800017 1.880790849211783e-38 1684957512
2.940687 -1.540489 -1.587505 1.880790849211783e-38 1684957512
2.940687 -1.718213 -1.630011 1.880790849211783e-38 1684957512
4.026731 -1.441564 -2.063391 1.880790849211783e-38 1684957512
3.506840 -1.441564 -1.840824 1.880790849211783e-38 1684957512
2.940687 -1.541077 -1.623876 1.880790849211783e-38 1684957512
2.940688 -1.719468 -1.667996 1.880790849211783e-38 1684957512
4.030520 -1.441564 -2.110028 1.880790849211783e-38 1684957512
3.508360 -1.441564 -1.882003 1.880790849211783e-38 1684957512
2.940688 -1.541671 -1.660567 1.880790849211783e-38 1684957512
2.940687 -1.720736 -1.706328 1.880790849211783e-38 1684957512
4.034358 -1.441564 -2.157141 1.880790849211783e-38 1684957512
3.509897 -1.441564 -1.923567 1.880790849211783e-38 1684957512
2.940687 -1.542269 -1.697589 1.880790849211783e-38 1684957512
2.940687 -1.722015 -1.745019 1.880790849211783e-38 1684957512
4.038224 -1.441564 -2.204735 1.880790849211783e-38 1684957512
3.511445 -1.441564 -1.965525 1.880790849211783e-38 1684957512
2.940687 -1.542874 -1.734954 1.880790849211783e-38 1684957512
2.940687 -1.723310 -1.784082 1.880790849211783e-38 1684957512
4.016310 -1.432355 -2.238438 0.000000000000000e+00 1851878480
3.513009 -1.441564 -2.007893 1.880790849211783e-38 1684957512
2.940687 -1.543483 -1.772671 1.880790849211783e-38 1684957512
2.940688 -1.724615 -1.823526 1.880790849211783e-38 1684957512
4.006148 -1.427337 -2.278727 0.000000000000000e+00 1634890835
3.514591 -1.441564 -2.050681 1.880790849211783e-38 1684957512
2.940688 -1.544100 -1.810753 1.880790849211783e-38 1684957512
2.940688 -1.725935 -1.863365 1.880790849211783e-38 1684957512
3.926263 -1.397496 -2.278727 0.000000000000000e+00 1634890835
3.516185 -1.441564 -2.093904 1.880790849211783e-38 1684957512
2.940687 -1.544719 -1.849209 1.880790849211783e-38 1684957512
2.940687 -1.727268 -1.903611 1.880790849211783e-38 1684957512
3.848818 -1.368568 -2.278727 0.000000000000000e+00 1634890835
3.517796 -1.441564 -2.137571 1.880790849211783e-38 1684957512
2.940687 -1.545348 -1.888052 1.880790849211783e-38 1684957512
2.940687 -1.728616 -1.944276 1.880790849211783e-38 1684957512
3.773686 -1.340506 -2.278727 0.000000000000000e+00 1634890835
3.519420 -1.441564 -2.181698 1.880790849211783e-38 1684957512
2.940687 -1.545984 -1.927294 1.880790849211783e-38 1684957512
2.940687 -1.729979 -1.985374 1.880790849211783e-38 1684957512
3.700758 -1.313266 -2.278727 0.000000000000000e+00 1634890835
3.521065 -1.441564 -2.226300 1.880790849211783e-38 1684957512
2.940687 -1.546626 -1.966948 1.880790849211783e-38 1684957512
2.940687 -1.731360 -2.026918 1.880790849211783e-38 1684957512
3.629924 -1.286810 -2.278727 0.000000000000000e+00 1634890835
3.471620 -1.420648 -2.238438 0.000000000000000e+00 1851878480
2.940687 -1.547274 -2.007025 1.880790849211783e-38 1684957512
2.940687 -1.732752 -2.068923 1.880790849211783e-38 1684957512
3.561090 -1.261100 -2.278727 0.000000000000000e+00 1634890835
3.466211 -1.417759 -2.278727 0.000000000000000e+00 1634890835
2.940687 -1.547930 -2.047539 1.880790849211783e-38 1684957512
2.940687 -1.734162 -2.111402 1.880790849211783e-38 1684957512
3.494162 -1.236102 -2.278727 0.000000000000000e+00 1634890835
3.400212 -1.390092 -2.278727 0.000000000000000e+00 1634890835
2.940687 -1.548593 -2.088503 1.880790849211783e-38 1684957512
2.940687 -1.735589 -2.154369 1.880790849211783e-38 1684957512
3.429050 -1.211785 -2.278727 0.000000000000000e+00 1634890835
3.336017 -1.363182 -2.278727 0.000000000000000e+00 1634890835
2.940686 -1.549263 -2.129931 1.880790849211783e-38 1684957512
2.940687 -1.737034 -2.197843 1.880790849211783e-38 1684957512
3.365674 -1.188117 -2.278727 0.000000000000000e+00 1634890835
3.273543 -1.336996 -2.278727 0.000000000000000e+00 1634890835
2.940687 -1.549943 -2.171840 1.880790849211783e-38 1684957512
2.936230 -1.735861 -2.238439 0.000000000000000e+00 1851878480
3.303956 -1.165064 -2.278727 0.000000000000000e+00 1634890835
3.212713 -1.311497 -2.278727 0.000000000000000e+00 1634890835
2.940687 -1.550629 -2.214243 1.880790849211783e-38 1684957512
2.879039 -1.703499 -2.238439 0.000000000000000e+00 1851878480
3.243823 -1.142608 -2.278727 0.000000000000000e+00 1634890835
3.153456 -1.286658 -2.278727 0.000000000000000e+00 1634890835
2.916302 -1.538460 -2.238438 0.000000000000000e+00 1851878480
2.823362 -1.671995 -2.238438 0.000000000000000e+00 1851878480
3.185205 -1.120717 -2.278727 0.000000000000000e+00 1634890835
3.095703 -1.262449 -2.278727 0.000000000000000e+00 1634890835
2.861240 -1.510097 -2.238438 0.000000000000000e+00 1851878480
2.769130 -1.641311 -2.238438 0.000000000000000e+00 1851878480
3.128042 -1.099369 -2.278727 0.000000000000000e+00 1634890835
3.039388 -1.238845 -2.278727 0.000000000000000e+00 1634890835
2.807567 -1.482453 -2.238438 0.000000000000000e+00 1851878480
2.716283 -1.611408 -2.238438 0.000000000000000e+00 1851878480
3.072266 -1.078540 -2.278727 0.000000000000000e+00 1634890835
2.984451 -1.215816 -2.278727 0.000000000000000e+00 1634890835
2.755228 -1.455491 -2.238439 0.000000000000000e+00 1851878480
0.840393 -0.499001 -0.705944 0.000000000000000e+00 1886740808
3.017822 -1.058209 -2.278727 0.000000000000000e+00 1634890835
2.930832 -1.193341 -2.278727 0.000000000000000e+00 1634890835
2.704160 -1.429188 -2.238439 0.000000000000000e+00 1851878480
0.824541 -0.490031 -0.705944 0.000000000000000e+00 1886740808
2.964656 -1.038357 -2.278727 0.000000000000000e+00 1634890835
2.878478 -1.171397 -2.278727 0.000000000000000e+00 1634890835
0.837100 -0.442630 -0.705944 0.000000000000000e+00 1886740808
0.809071 -0.481279 -0.705944 0.000000000000000e+00 1886740808
2.912716 -1.018962 -2.278727 0.000000000000000e+00 1634890835
2.827339 -1.149960 -2.278727 0.000000000000000e+00 1634890835
0.821749 -0.434723 -0.705944 0.000000000000000e+00 1886740808
0.793967 -0.472734 -0.705944 0.000000000000000e+00 1886740808
2.861953 -1.000006 -2.278727 0.000000000000000e+00 1634890835
2.777363 -1.129012 -2.278727 0.000000000000000e+00 1634890835
0.806752 -0.426999 -0.705944 0.000000000000000e+00 1886740808
0.779214 -0.464387 -0.705944 0.000000000000000e+00 1886740808
2.812317 -0.981473 -2.278727 0.000000000000000e+00 1634890835
2.728504 -1.108533 -2.278727 0.000000000000000e+00 1634890835
0.792095 -0.419449 -0.705944 0.000000000000000e+00 1886740808
0.764798 -0.456231 -0.705944 0.000000000000000e+00 1886740808
2.763767 -0.963343 -2.278727 0.000000000000000e+00 1634890835
0.830480 -0.337216 -0.705944 0.000000000000000e+00 1886740808
0.777763 -0.412067 -0.705944 0.000000000000000e+00 1886740808
0.750703 -0.448257 -0.705944 0.000000000000000e+00 1886740808
0.841491 -0.292946 -0.705944 0.000000000000000e+00 1886740808
0.815996 -0.331144 -0.705944 0.000000000000000e+00 1886740808
0.763744 -0.404846 -0.705944 0.000000000000000e+00 1886740808
0.744296 -0.444868 -0.713010 0.000000000000000e+00 1886740808
0.827083 -0.287567 -0.705944 0.000000000000000e+00 1886740808
0.801819 -0.325202 -0.705944 0.000000000000000e+00 1886740808
0.750026 -0.397780 -0.705944 0.000000000000000e+00 1886740808
0.744296 -0.445312 -0.726303 0.000000000000000e+00 1886740808
0.812976 -0.282300 -0.705944 0.000000000000000e+00 1886740808
0.787937 -0.319383 -0.705944 0.000000000000000e+00 1886740808
0.744296 -0.394948 -0.713322 0.000000000000000e+00 1886740808
0.744296 -0.445762 -0.739801 0.000000000000000e+00 1886740808
0.799155 -0.277140 -0.705944 0.000000000000000e+00 1886740808
0.774339 -0.313685 -0.705944 0.000000000000000e+00 1886740808
0.744296 -0.395159 -0.726289 0.000000000000000e+00 1886740808
0.744296 -0.446221 -0.753514 0.000000000000000e+00 1886740808
0.785612 -0.272084 -0.705944 0.000000000000000e+00 1886740808
0.761016 -0.308100 -0.705944 0.000000000000000e+00 1886740808
0.744296 -0.395373 -0.739458 0.000000000000000e+00 1886740808
0.744296 -0.446686 -0.767449 0.000000000000000e+00 1886740808
0.772336 -0.267127 -0.705944 0.000000000000000e+00 1886740808
0.747956 -0.302626 -0.705944 0.000000000000000e+00 1886740808
0.744296 -0.395590 -0.752835 0.000000000000000e+00 1886740808
0.744296 -0.447159 -0.781611 0.000000000000000e+00 1886740808
0.759317 -0.262267 -0.705944 0.000000000000000e+00 1886740808
0.744296 -0.300957 -0.714726 0.000000000000000e+00 1886740808
0.744296 -0.395811 -0.766427 0.000000000000000e+00 1886740808
0.744296 -0.447640 -0.796011 0.000000000000000e+00 1886740808
0.746547 -0.257499 -0.705944 0.000000000000000e+00 1886740808
0.744296 -0.300765 -0.727150 0.000000000000000e+00 1886740808
0.744296 -0.396035 -0.780243 0.000000000000000e+00 1886740808
2.092193 -1.259678 -2.278728 0.000000000000000e+00 1634890835
0.744296 -0.256362 -0.715832 0.000000000000000e+00 1886740808
0.744296 -0.300571 -0.739768 0.000000000000000e+00 1886740808
0.744296 -0.396264 -0.794289 0.000000000000000e+00 1886740808
2.054434 -1.238319 -2.278727 0.000000000000000e+00 1634890835
0.744296 -0.255996 -0.728034 0.000000000000000e+00 1886740808
0.744296 -0.300374 -0.752587 0.000000000000000e+00 1886740808
2.097579 -1.117405 -2.278727 0.000000000000000e+00 1634890835
2.017382 -1.217361 -2.278727 0.000000000000000e+00 1634890835
0.744296 -0.255624 -0.740426 0.000000000000000e+00 1886740808
0.744296 -0.300173 -0.765612 0.000000000000000e+00 1886740808
2.060544 -1.098331 -2.278727 0.000000000000000e+00 1634890835
0.796276 -0.481054 -0.915944 0.000000000000000e+00 1886740808
0.744296 -0.255247 -0.753015 0.000000000000000e+00 1886740808
0.744296 -0.299970 -0.778852 0.000000000000000e+00 1886740808
2.024177 -1.079599 -2.278727 0.000000000000000e+00 1634890835
0.784637 -0.474577 -0.919125 0.000000000000000e+00 1886740808
0.744296 -0.254863 -0.765807 0.000000000000000e+00 1886740808
0.744296 -0.299762 -0.792312 0.000000000000000e+00 1886740808
1.988454 -1.061199 -2.278728 0.000000000000000e+00 1634890835
0.775675 -0.469715 -0.925311 0.000000000000000e+00 1886740808
0.744296 -0.254473 -0.778812 0.000000000000000e+00 1886740808
2.104272 -0.846891 -2.278727 0.000000000000000e+00 1634890835
0.797389 -0.425819 -0.930215 0.000000000000000e+00 1886740808
0.768825 -0.466131 -0.933992 0.000000000000000e+00 1886740808
0.744296 -0.254077 -0.792033 0.000000000000000e+00 1886740808
2.068530 -0.831912 -2.278727 0.000000000000000e+00 1634890835
0.785520 -0.419748 -0.932846 0.000000000000000e+00 1886740808
0.764552 -0.464113 -0.945882 0.000000000000000e+00 1886740808
0.744296 -0.253674 -0.805480 0.000000000000000e+00 1886740808
2.033384 -0.817181 -2.278727 0.000000000000000e+00 1634890835
0.776433 -0.415162 -0.938650 0.000000000000000e+00 1886740808
1.808582 -1.099259 -2.278727 0.000000000000000e+00 1634890835
2.070472 -0.704526 -2.278727 0.000000000000000e+00 1634890835
1.998814 -0.802692 -2.278728 0.000000000000000e+00 1634890835
0.769419 -0.411685 -0.946934 0.000000000000000e+00 1886740808
1.775831 -1.080735 -2.278727 0.000000000000000e+00 1634890835
2.035872 -0.691612 -2.278727 0.000000000000000e+00 1634890835
1.964800 -0.788436 -2.278727 0.000000000000000e+00 1634890835
0.764808 -0.409493 -0.958247 0.000000000000000e+00 1886740808
0.749058 -0.456457 -0.978944 0.000000000000000e+00 1886740808
2.001819 -0.678902 -2.278728 0.000000000000000e+00 1634890835
1.931324 -0.774405 -2.278728 0.000000000000000e+00 1634890835
0.767176 -0.411044 -0.978596 0.000000000000000e+00 1886740808
1.711908 -1.044582 -2.278727 0.000000000000000e+00 1634890835
1.968293 -0.666389 -2.278727 0.000000000000000e+00 1634890835
0.797683 -0.319597 -0.957507 0.000000000000000e+00 1886740808
1.754623 -0.940768 -2.278728 0.000000000000000e+00 1634890835
1.680701 -1.026932 -2.278728 0.000000000000000e+00 1634890835
1.935281 -0.654068 -2.278727 0.000000000000000e+00 1634890835
0.785812 -0.314588 -0.959663 0.000000000000000e+00 1886740808
0.751063 -0.402982 -0.993125 0.000000000000000e+00 1886740808
1.649976 -1.009556 -2.278727 0.000000000000000e+00 1634890835
1.902762 -0.641932 -2.278727 0.000000000000000e+00 1634890835
0.776733 -0.310700 -0.965107 0.000000000000000e+00 1886740808
1.692478 -0.908759 -2.278727 0.000000000000000e+00 1634890835
1.619717 -0.992443 -2.278727 0.000000000000000e+00 1634890835
0.796759 -0.268312 -0.970531 0.000000000000000e+00 1886740808
0.769658 -0.307612 -0.973024 0.000000000000000e+00 1886740808
1.662098 -0.893114 -2.278727 0.000000000000000e+00 1634890835
1.589907 -0.975584 -2.278727 0.000000000000000e+00 1634890835
0.785170 -0.263919 -0.972834 0.000000000000000e+00 1886740808
0.764881 -0.305443 -0.983927 0.000000000000000e+00 1886740808
1.632161 -0.877695 -2.278727 0.000000000000000e+00 1634890835
1.560533 -0.958973 -2.278728 0.000000000000000e+00 1634890835
0.776224 -0.260416 -0.978305 0.000000000000000e+00 1886740808
0.765622 -0.305473 -1.002187 0.000000000000000e+00 1886740808
1.602653 -0.862498 -2.278728 0.000000000000000e+00 1634890835
1.531582 -0.942600 -2.278727 0.000000000000000e+00 1634890835
0.769284 -0.257587 -0.986300 0.000000000000000e+00 1886740808
1.710672 -0.681929 -2.278727 0.000000000000000e+00 1634890835
1.573560 -0.847514 -2.278727 0.000000000000000e+00 1634890835
1.503038 -0.926458 -2.278727 0.000000000000000e+00 1634890835
0.764664 -0.255533 -0.997360 0.000000000000000e+00 1886740808
1.680925 -0.669462 -2.278727 0.000000000000000e+00 1634890835
1.544870 -0.832737 -2.278727 0.000000000000000e+00 1634890835
1.474890 -0.910540 -2.278727 0.000000000000000e+00 1634890835
0.766234 -0.255538 -1.016783 0.000000000000000e+00 1886740808
0.744049 -0.296057 -1.026583 0.000000000000000e+00 1886740808
1.516568 -0.818161 -2.278728 0.000000000000000e+00 1634890835
1.447124 -0.894839 -2.278728 0.000000000000000e+00 1634890835
1.687759 -0.561696 -2.278727 0.000000000000000e+00 1634890835
1.622624 -0.645028 -2.278727 0.000000000000000e+00 1634890835
1.488642 -0.803779 -2.278727 0.000000000000000e+00 1634890835
1.419728 -0.879347 -2.278727 0.000000000000000e+00 1634890835
0.752066 -0.249760 -1.033201 0.000000000000000e+00 1886740808
1.594047 -0.633052 -2.278727 0.000000000000000e+00 1634890835
1.461082 -0.789587 -2.278727 0.000000000000000e+00 1634890835
1.392692 -0.864060 -2.278727 0.000000000000000e+00 1634890835
1.629982 -0.540137 -2.278727 0.000000000000000e+00 1634890835
1.565838 -0.621229 -2.278727 0.000000000000000e+00 1634890835
1.433877 -0.775575 -2.278727 0.000000000000000e+00 1634890835
1.366005 -0.848968 -2.278727 0.000000000000000e+00 1634890835
1.601642 -0.529563 -2.278727 0.000000000000000e+00 1634890835
1.537982 -0.609556 -2.278727 0.000000000000000e+00 1634890835
1.407015 -0.761741 -2.278727 0.000000000000000e+00 1634890835
1.339654 -0.834067 -2.278727 0.000000000000000e+00 1634890835
1.573652 -0.519120 -2.278727 0.000000000000000e+00 1634890835
1.510471 -0.598026 -2.278727 0.000000000000000e+00 1634890835
1.380485 -0.748077 -2.278727 0.000000000000000e+00 1634890835
1.313628 -0.819352 -2.278728 0.000000000000000e+00 1634890835
1.546005 -0.508803 -2.278727 0.000000000000000e+00 1634890835
1.483295 -0.586636 -2.278727 0.000000000000000e+00 1634890835
1.354277 -0.734580 -2.278727 0.000000000000000e+00 1634890835
1.287921 -0.804815 -2.278727 0.000000000000000e+00 1634890835
1.518686 -0.498610 -2.278727 0.000000000000000e+00 1634890835
1.456444 -0.575383 -2.278727 0.000000000000000e+00 1634890835
1.328382 -0.721244 -2.278728 0.000000000000000e+00 1634890835
1.262520 -0.790452 -2.278727 0.000000000000000e+00 1634890835
1.491689 -0.488535 -2.278727 0.000000000000000e+00 1634890835
1.429907 -0.564262 -2.278727 0.000000000000000e+00 1634890835
1.302791 -0.708064 -2.278727 0.000000000000000e+00 1634890835
1.237417 -0.776259 -2.278727 0.000000000000000e+00 1634890835
1.465001 -0.478579 -2.278728 0.000000000000000e+00 1634890835
1.403674 -0.553269 -2.278727 0.000000000000000e+00 1634890835
1.277493 -0.695036 -2.278728 0.000000000000000e+00 1634890835
1.212601 -0.762228 -2.278727 0.000000000000000e+00 1634890835
1.438616 -0.468734 -2.278727 0.000000000000000e+00 1634890835
1.377737 -0.542399 -2.278727 0.000000000000000e+00 1634890835
1.252481 -0.682154 -2.278727 0.000000000000000e+00 1634890835
1.188066 -0.748354 -2.278727 0.000000000000000e+00 1634890835
1.412523 -0.458999 -2.278728 0.000000000000000e+00 1634890835
1.352088 -0.531649 -2.278727 0.000000000000000e+00 1634890835
1.227744 -0.669414 -2.278727 0.000000000000000e+00 1634890835
1.163801 -0.734634 -2.278727 0.000000000000000e+00 1634890835
1.386714 -0.449370 -2.278727 0.000000000000000e+00 1634890835
1.326717 -0.521017 -2.278727 0.000000000000000e+00 1634890835
1.203275 -0.656814 -2.278728 0.000000000000000e+00 1634890835
1.139799 -0.721065 -2.278727 0.000000000000000e+00 1634890835
1.361181 -0.439844 -2.278727 0.000000000000000e+00 1634890835
1.301617 -0.510498 -2.278727 0.000000000000000e+00 1634890835
1.179067 -0.644345 -2.278728 0.000000000000000e+00 1634890835
1.116052 -0.707638 -2.278727 0.000000000000000e+00 1634890835
1.335915 -0.430417 -2.278727 0.000000000000000e+00 1634890835
1.276779 -0.500089 -2.278727 0.000000000000000e+00 1634890835
1.155110 -0.632009 -2.278728 0.000000000000000e+00 1634890835
1.092553 -0.694350 -2.278727 0.000000000000000e+00 1634890835
1.310909 -0.421088 -2.278727 0.000000000000000e+00 1634890835
1.252196 -0.489786 -2.278727 0.000000000000000e+00 1634890835
1.131398 -0.619797 -2.278727 0.000000000000000e+00 1634890835
1.069293 -0.681201 -2.278727 0.000000000000000e+00 1634890835
1.286156 -0.411854 -2.278727 0.000000000000000e+00 1634890835
1.227860 -0.479588 -2.278727 0.000000000000000e+00 1634890835
1.107924 -0.607707 -2.278727 0.000000000000000e+00 1634890835
1.046266 -0.668181 -2.278727 0.000000000000000e+00 1634890835
1.261648 -0.402710 -2.278727 0.000000000000000e+00 1634890835
1.203764 -0.469490 -2.278727 0.000000000000000e+00 1634890835
1.084680 -0.595737 -2.278727 0.000000000000000e+00 1634890835
1.023464 -0.655289 -2.278727 0.000000000000000e+00 1634890835
1.237376 -0.393657 -2.278727 0.000000000000000e+00 1634890835
1.179900 -0.459490 -2.278727 0.000000000000000e+00 1634890835
1.061659 -0.583882 -2.278727 0.000000000000000e+00 1634890835
1.000881 -0.642522 -2.278727 0.000000000000000e+00 1634890835
1.213337 -0.384688 -2.278727 0.000000000000000e+00 1634890835
1.156262 -0.449584 -2.278727 0.000000000000000e+00 1634890835
1.038855 -0.572138 -2.278727 0.000000000000000e+00 1634890835
0.978510 -0.629874 -2.278727 0.000000000000000e+00 1634890835
1.189520 -0.375803 -2.278727 0.000000000000000e+00 1634890835
1.132844 -0.439770 -2.278727 0.000000000000000e+00 1634890835
1.016261 -0.560501 -2.278727 0.000000000000000e+00 1634890835
0.956344 -0.617343 -2.278727 0.000000000000000e+00 1634890835
1.165921 -0.366999 -2.278727 0.000000000000000e+00 1634890835
1.109637 -0.430046 -2.278727 0.000000000000000e+00 1634890835
0.993869 -0.548971 -2.278727 0.000000000000000e+00 1634890835
0.934377 -0.604923 -2.278727 0.000000000000000e+00 1634890835
1.142533 -0.358274 -2.278728 0.000000000000000e+00 1634890835
1.086638 -0.420407 -2.278728 0.000000000000000e+00 1634890835
0.971676 -0.537541 -2.278727 0.000000000000000e+00 1634890835
0.912604 -0.592614 -2.278728 0.000000000000000e+00 1634890835
1.119349 -0.349626 -2.278727 0.000000000000000e+00 1634890835
1.063839 -0.410853 -2.278727 0.000000000000000e+00 1634890835
0.949675 -0.526211 -2.278727 0.000000000000000e+00 1634890835
0.891018 -0.580411 -2.278727 0.000000000000000e+00 1634890835
1.096364 -0.341051 -2.278727 0.000000000000000e+00 1634890835
1.041233 -0.401379 -2.278727 0.000000000000000e+00 1634890835
0.927858 -0.514976 -2.278728 0.000000000000000e+00 1634890835
0.869613 -0.568309 -2.278727 0.000000000000000e+00 1634890835
1.073572 -0.332549 -2.278728 0.000000000000000e+00 1634890835
1.018817 -0.391985 -2.278727 0.000000000000000e+00 1634890835
0.906222 -0.503834 -2.278728 0.000000000000000e+00 1634890835
0.848384 -0.556308 -2.278727 0.000000000000000e+00 1634890835
1.050966 -0.324117 -2.278727 0.000000000000000e+00 1634890835
0.996583 -0.382668 -2.278727 0.000000000000000e+00 1634890835
0.884761 -0.492782 -2.278728 0.000000000000000e+00 1634890835
0.827326 -0.544404 -2.278727 0.000000000000000e+00 1634890835
1.028543 -0.315752 -2.278727 0.000000000000000e+00 1634890835
0.974527 -0.373425 -2.278727 0.000000000000000e+00 1634890835
0.863469 -0.481816 -2.278727 0.000000000000000e+00 1634890835
0.451011 -0.297860 -1.274413 0.000000000000000e+00 1936876886
1.006295 -0.307453 -2.278727 0.000000000000000e+00 1634890835
0.952641 -0.364254 -2.278727 0.000000000000000e+00 1634890835
0.842340 -0.470936 -2.278727 0.000000000000000e+00 1634890835
0.433313 -0.287261 -1.256715 0.000000000000000e+00 1936876886
0.984217 -0.299218 -2.278727 0.000000000000000e+00 1634890835
0.930923 -0.355153 -2.278727 0.000000000000000e+00 1634890835
0.821371 -0.460138 -2.278728 0.000000000000000e+00 1634890835
0.421232 -0.280357 -1.254533 0.000000000000000e+00 1936876886
0.962305 -0.291044 -2.278727 0.000000000000000e+00 1634890835
0.909366 -0.346119 -2.278727 0.000000000000000e+00 1634890835
0.445942 -0.250344 -1.269344 0.000000000000000e+00 1936876886
0.335125 -0.223969 -1.025465 0.000000000000000e+00 1953264973
0.940553 -0.282931 -2.278727 0.000000000000000e+00 1634890835
0.887966 -0.337151 -2.278727 0.000000000000000e+00 1634890835
0.428906 -0.241308 -1.253205 0.000000000000000e+00 1936876886
0.306470 -0.205702 -0.964038 0.000000000000000e+00 1953264973
0.495093 -0.148090 -1.227674 0.000000000000000e+00 1936876886
0.866717 -0.328247 -2.278728 0.000000000000000e+00 1634890835
0.358552 -0.202187 -1.075953 0.000000000000000e+00 1953264973
0.281221 -0.189607 -0.909913 0.000000000000000e+00 1953264973
0.483539 -0.143780 -1.227675 0.000000000000000e+00 1936876886
0.845615 -0.319403 -2.278727 0.000000000000000e+00 1634890835
0.326692 -0.184662 -1.007388 0.000000000000000e+00 1953264973
0.258800 -0.175314 -0.861851 0.000000000000000e+00 1953264973
0.472064 -0.139500 -1.227675 0.000000000000000e+00 1936876886
0.824655 -0.310620 -2.278727 0.000000000000000e+00 1634890835
0.299052 -0.169463 -0.948137 0.000000000000000e+00 1953264973
0.238754 -0.162536 -0.818879 0.000000000000000e+00 1953264973
