# .PCD v0.7 - Point Cloud Data file format
VERSION 0.7
FIELDS x y z rgb label
SIZE 4 4 4 4 4
TYPE F F F F U
COUNT 1 1 1 1 1
WIDTH 543
HEIGHT 1
VIEWPOINT 0 0 0 1 0 0 0
POINTS 543
DATA ascii
43.917000 -18.572502 10.207077 0.000000000000000e+00 1954047316
40.985340 -22.872118 10.307160 0.000000000000000e+00 1954047316
41.052521 -22.923649 9.886290 0.000000000000000e+00 1954047316
35.536087 -13.221773 -1.935170 0.000000000000000e+00 1851878480
33.791084 -14.139599 -1.743903 0.000000000000000e+00 1851878480
30.750477 -15.863749 -1.356231 0.000000000000000e+00 1851878480
30.033100 -17.041687 -1.181596 0.000000000000000e+00 1851878480
31.298784 -11.636401 -1.988543 0.000000000000000e+00 1851878480
30.531088 -12.771004 -1.861244 0.000000000000000e+00 1851878480
28.856173 -14.891094 -1.560407 0.000000000000000e+00 1851878480
28.127052 -15.969551 -1.396776 0.000000000000000e+00 1851878480
28.920851 -10.744167 -2.100197 0.000000000000000e+00 1851878480
28.355543 -11.856851 -1.994076 0.000000000000000e+00 1851878480
27.426832 -14.157880 -1.756869 0.000000000000000e+00 1851878480
26.475090 -15.040496 -1.588174 0.000000000000000e+00 1851878480
26.909101 -9.989202 -2.198787 0.000000000000000e+00 1851878480
26.541636 -11.094461 -2.115232 0.000000000000000e+00 1851878480
25.878616 -13.362820 -1.916298 0.000000000000000e+00 1851878480
24.758720 -14.073716 -1.741254 0.000000000000000e+00 1851878480
24.547033 -9.105431 -2.229219 0.000000000000000e+00 1851878480
24.621611 -10.288273 -2.193207 0.000000000000000e+00 1851878480
23.959562 -12.375714 -2.013940 0.000000000000000e+00 1851878480
23.324451 -13.266278 -1.881944 0.000000000000000e+00 1851878480
22.407137 -8.305330 -2.239088 0.000000000000000e+00 1851878480
22.507376 -9.401530 -2.216300 0.000000000000000e+00 1851878480
21.997486 -11.365790 -2.069454 0.000000000000000e+00 1851878480
21.532133 -12.254105 -1.960684 0.000000000000000e+00 1851878480
20.449093 -7.573793 -2.230028 0.000000000000000e+00 1851878480
20.551844 -8.581657 -2.217064 0.000000000000000e+00 1851878480
20.376789 -10.531662 -2.121513 0.000000000000000e+00 1851878480
19.974342 -11.374302 -2.026390 0.000000000000000e+00 1851878480
18.959671 -7.016786 -2.240875 0.000000000000000e+00 1851878480
19.022190 -7.940133 -2.231271 0.000000000000000e+00 1851878480
19.075188 -9.862011 -2.177808 0.000000000000000e+00 1851878480
18.691845 -10.650305 -2.090889 0.000000000000000e+00 1851878480
17.541086 -6.486808 -2.233780 0.000000000000000e+00 1851878480
17.724134 -7.395690 -2.246292 0.000000000000000e+00 1851878480
17.746943 -9.178161 -2.204966 0.000000000000000e+00 1851878480
17.721643 -10.103512 -2.167253 0.000000000000000e+00 1851878480
16.418869 -6.067148 -2.241438 0.000000000000000e+00 1851878480
16.449219 -6.861285 -2.240256 0.000000000000000e+00 1851878480
16.532270 -8.552647 -2.220970 0.000000000000000e+00 1851878480
16.539297 -9.435054 -2.195608 0.000000000000000e+00 1851878480
9.146479 -3.377238 -1.332677 1.880790849211783e-38 1684957512
15.417650 -6.428710 -2.245846 0.000000000000000e+00 1851878480
15.435301 -7.987650 -2.229798 0.000000000000000e+00 1851878480
15.412451 -8.797487 -2.207567 0.000000000000000e+00 1851878480
9.119493 -3.364674 -1.412708 1.880790849211783e-38 1684957512
14.473986 -6.033082 -2.245823 0.000000000000000e+00 1851878480
14.515923 -7.514239 -2.244231 0.000000000000000e+00 1851878480
14.427141 -8.240003 -2.218050 0.000000000000000e+00 1851878480
9.203640 -3.393099 -1.510670 1.880790849211783e-38 1684957512
13.625903 -5.677563 -2.243921 0.000000000000000e+00 1851878480
13.623134 -7.054307 -2.244752 0.000000000000000e+00 1851878480
13.586975 -7.764807 -2.232055 0.000000000000000e+00 1851878480
9.115661 -3.358060 -1.580545 1.880790849211783e-38 1684957512
12.851827 -5.353106 -2.239072 0.000000000000000e+00 1851878480
12.807330 -6.633962 -2.240940 0.000000000000000e+00 1851878480
12.816070 -7.328654 -2.240854 0.000000000000000e+00 1851878480
9.111998 -3.354101 -1.664406 1.880790849211783e-38 1684957512
12.194816 -5.077631 -2.241273 0.000000000000000e+00 1851878480
12.125138 -6.282591 -2.245592 0.000000000000000e+00 1851878480
12.070706 -6.906609 -2.238488 0.000000000000000e+00 1851878480
9.139063 -3.361442 -1.754322 1.880790849211783e-38 1684957512
11.605032 -4.830319 -2.244210 0.000000000000000e+00 1851878480
11.522280 -5.972117 -2.252152 0.000000000000000e+00 1851878480
11.446069 -6.553164 -2.244376 0.000000000000000e+00 1851878480
9.161390 -3.367017 -1.844029 1.880790849211783e-38 1684957512
11.051325 -4.598189 -2.243465 0.000000000000000e+00 1851878480
10.885034 -5.643618 -2.239628 0.000000000000000e+00 1851878480
10.906737 -6.248180 -2.255007 0.000000000000000e+00 1851878480
9.160345 -3.363991 -1.929484 1.880790849211783e-38 1684957512
10.540598 -4.384102 -2.241518 0.000000000000000e+00 1851878480
10.417225 -5.402795 -2.250956 0.000000000000000e+00 1851878480
10.326619 -5.919454 -2.245651 0.000000000000000e+00 1851878480
9.162920 -3.362290 -2.015986 1.880790849211783e-38 1684957512
10.107136 -4.202285 -2.247210 0.000000000000000e+00 1851878480
9.936416 -5.155088 -2.250047 0.000000000000000e+00 1851878480
9.817616 -5.631127 -2.240491 0.000000000000000e+00 1851878480
9.148789 -3.354452 -2.098984 1.880790849211783e-38 1684957512
9.675206 -4.021236 -2.245180 0.000000000000000e+00 1851878480
9.470284 -4.914834 -2.243009 0.000000000000000e+00 1851878480
9.401525 -5.395782 -2.246983 0.000000000000000e+00 1851878480
9.133546 -3.346208 -2.181746 1.880790849211783e-38 1684957512
9.266752 -3.850065 -2.240754 0.000000000000000e+00 1851878480
9.077556 -4.712541 -2.244788 0.000000000000000e+00 1851878480
8.947087 -5.138138 -2.235308 0.000000000000000e+00 1851878480
9.044001 -3.310761 -2.246075 0.000000000000000e+00 1851878480
8.905497 -3.698614 -2.240558 0.000000000000000e+00 1851878480
8.738094 -4.537782 -2.252462 0.000000000000000e+00 1851878480
8.635195 -4.962091 -2.251338 0.000000000000000e+00 1851878480
8.703753 -3.183663 -2.244379 0.000000000000000e+00 1851878480
8.602537 -3.571474 -2.248857 0.000000000000000e+00 1851878480
8.350389 -4.337855 -2.240445 0.000000000000000e+00 1851878480
8.248181 -4.742650 -2.240574 0.000000000000000e+00 1851878480
8.393581 -3.067746 -2.244561 0.000000000000000e+00 1851878480
8.245296 -3.421892 -2.236806 0.000000000000000e+00 1851878480
8.106449 -4.212514 -2.260723 0.000000000000000e+00 1851878480
7.903847 -4.547502 -2.233807 0.000000000000000e+00 1851878480
8.145235 -2.974576 -2.256258 0.000000000000000e+00 1851878480
8.028664 -3.330751 -2.257573 0.000000000000000e+00 1851878480
7.710049 -4.007836 -2.232083 0.000000000000000e+00 1851878480
7.656024 -4.407678 -2.248214 0.000000000000000e+00 1851878480
7.820344 -2.853612 -2.241570 0.000000000000000e+00 1851878480
7.713476 -3.198799 -2.245690 0.000000000000000e+00 1851878480
7.537875 -3.919633 -2.262693 0.000000000000000e+00 1851878480
7.298003 -4.204208 -2.223972 0.000000000000000e+00 1851878480
7.599276 -2.770690 -2.251701 0.000000000000000e+00 1851878480
7.484214 -3.102558 -2.253742 0.000000000000000e+00 1851878480
7.224771 -3.758068 -2.246195 0.000000000000000e+00 1851878480
7.076741 -4.079332 -2.235384 0.000000000000000e+00 1851878480
7.362453 -2.682148 -2.253058 0.000000000000000e+00 1851878480
7.177315 -2.974214 -2.233392 0.000000000000000e+00 1851878480
7.007639 -3.646337 -2.254226 0.000000000000000e+00 1851878480
6.900479 -3.980256 -2.256985 0.000000000000000e+00 1851878480
7.095880 -2.582915 -2.240745 0.000000000000000e+00 1851878480
7.049680 -2.920216 -2.264806 0.000000000000000e+00 1851878480
6.789743 -3.534141 -2.257706 0.000000000000000e+00 1851878480
6.588949 -3.802997 -2.229284 0.000000000000000e+00 1851878480
6.916150 -2.515411 -2.251823 0.000000000000000e+00 1851878480
6.791018 -2.811997 -2.250569 0.000000000000000e+00 1851878480
6.565655 -3.418650 -2.254719 0.000000000000000e+00 1851878480
6.458848 -3.730306 -2.258399 0.000000000000000e+00 1851878480
6.663077 -2.421355 -2.235103 0.000000000000000e+00 1851878480
6.567028 -2.718208 -2.243272 0.000000000000000e+00 1851878480
6.347389 -3.306125 -2.249297 0.000000000000000e+00 1851878480
6.184788 -3.574332 -2.233006 0.000000000000000e+00 1851878480
6.513518 -2.365029 -2.249468 0.000000000000000e+00 1851878480
6.364553 -2.633385 -2.239323 0.000000000000000e+00 1851878480
6.151981 -3.205434 -2.247829 0.000000000000000e+00 1851878480
6.026176 -3.484936 -2.244777 0.000000000000000e+00 1851878480
6.305684 -2.287644 -2.240499 0.000000000000000e+00 1851878480
6.194254 -2.561932 -2.243224 0.000000000000000e+00 1851878480
6.006442 -3.130674 -2.261216 0.000000000000000e+00 1851878480
5.843304 -3.381393 -2.244009 0.000000000000000e+00 1851878480
6.134387 -2.223618 -2.241072 0.000000000000000e+00 1851878480
6.081088 -2.514144 -2.265251 0.000000000000000e+00 1851878480
5.851314 -3.050868 -2.268058 0.000000000000000e+00 1851878480
5.687797 -3.293573 -2.250266 0.000000000000000e+00 1851878480
5.960790 -2.158856 -2.237686 0.000000000000000e+00 1851878480
5.898829 -2.437838 -2.258834 0.000000000000000e+00 1851878480
5.617754 -2.930107 -2.240554 0.000000000000000e+00 1851878480
5.510388 -3.192955 -2.244410 0.000000000000000e+00 1851878480
5.833052 -2.110787 -2.248821 0.000000000000000e+00 1851878480
5.708904 -2.358418 -2.245959 0.000000000000000e+00 1851878480
5.467597 -2.852781 -2.242403 0.000000000000000e+00 1851878480
5.384032 -3.121822 -2.256221 0.000000000000000e+00 1851878480
5.697517 -2.059966 -2.254628 0.000000000000000e+00 1851878480
5.596241 -2.310958 -2.260669 0.000000000000000e+00 1851878480
5.379438 -2.807770 -2.267390 0.000000000000000e+00 1851878480
5.164044 -2.996276 -2.225141 0.000000000000000e+00 1851878480
5.512802 -1.991455 -2.238053 0.000000000000000e+00 1851878480
5.427058 -2.240198 -2.249936 0.000000000000000e+00 1851878480
5.216060 -2.723456 -2.258214 0.000000000000000e+00 1851878480
5.058370 -2.936949 -2.239886 0.000000000000000e+00 1851878480
5.344002 -1.928795 -2.224663 0.000000000000000e+00 1851878480
5.272047 -2.175341 -2.242003 0.000000000000000e+00 1851878480
5.037827 -2.631333 -2.239103 0.000000000000000e+00 1851878480
4.910760 -2.853186 -2.233468 0.000000000000000e+00 1851878480
5.276920 -1.902910 -2.251533 0.000000000000000e+00 1851878480
5.186263 -2.139078 -2.261305 0.000000000000000e+00 1851878480
4.903767 -2.562228 -2.236428 0.000000000000000e+00 1851878480
4.815551 -2.799788 -2.248395 0.000000000000000e+00 1851878480
5.173480 -1.863958 -2.261476 0.000000000000000e+00 1851878480
5.069059 -2.089886 -2.265097 0.000000000000000e+00 1851878480
4.839994 -2.529821 -2.263924 0.000000000000000e+00 1851878480
4.715806 -2.743687 -2.259280 0.000000000000000e+00 1851878480
4.994825 -1.797989 -2.235947 0.000000000000000e+00 1851878480
4.951108 -2.040418 -2.266384 0.000000000000000e+00 1851878480
4.662531 -2.437944 -2.235830 0.000000000000000e+00 1851878480
4.601728 -2.679181 -2.261131 0.000000000000000e+00 1851878480
4.888881 -1.758275 -2.240331 0.000000000000000e+00 1851878480
4.873443 -2.007583 -2.284363 0.000000000000000e+00 1851878480
4.581909 -2.396667 -2.251551 0.000000000000000e+00 1851878480
4.464466 -2.601087 -2.248941 0.000000000000000e+00 1851878480
4.774420 -1.715555 -2.238839 0.000000000000000e+00 1851878480
4.661634 -1.919530 -2.236662 0.000000000000000e+00 1851878480
4.462016 -2.334816 -2.246013 0.000000000000000e+00 1851878480
4.363780 -2.544222 -2.252674 0.000000000000000e+00 1851878480
4.707158 -1.689845 -2.257907 0.000000000000000e+00 1851878480
4.574704 -1.882943 -2.245953 0.000000000000000e+00 1851878480
4.414868 -2.311006 -2.275519 0.000000000000000e+00 1851878480
4.217691 -2.460800 -2.230330 0.000000000000000e+00 1851878480
4.557719 -1.634694 -2.235593 0.000000000000000e+00 1851878480
4.482577 -1.844243 -2.251084 0.000000000000000e+00 1851878480
4.212647 -2.205978 -2.222510 0.000000000000000e+00 1851878480
4.132830 -2.413020 -2.237903 0.000000000000000e+00 1851878480
4.420445 -1.583994 -2.216510 0.000000000000000e+00 1851878480
4.388374 -1.804716 -2.253468 0.000000000000000e+00 1851878480
4.191444 -2.195704 -2.262717 0.000000000000000e+00 1851878480
4.074465 -2.380667 -2.258460 0.000000000000000e+00 1851878480
4.361237 -1.561317 -2.234799 0.000000000000000e+00 1851878480
4.301599 -1.768267 -2.258012 0.000000000000000e+00 1851878480
4.108782 -2.153221 -2.268909 0.000000000000000e+00 1851878480
3.966065 -2.319022 -2.249603 0.000000000000000e+00 1851878480
4.297891 -1.537192 -2.250000 0.000000000000000e+00 1851878480
4.178964 -1.717111 -2.241737 0.000000000000000e+00 1851878480
4.008217 -2.101329 -2.263386 0.000000000000000e+00 1851878480
3.888363 -2.275266 -2.256215 0.000000000000000e+00 1851878480
4.199618 -1.500615 -2.245504 0.000000000000000e+00 1851878480
4.123548 -1.693599 -2.259872 0.000000000000000e+00 1851878480
3.918887 -2.055294 -2.262280 0.000000000000000e+00 1851878480
3.814346 -2.233615 -2.263453 0.000000000000000e+00 1851878480
4.122164 -1.471529 -2.250564 0.000000000000000e+00 1851878480
4.030150 -1.654510 -2.255869 0.000000000000000e+00 1851878480
3.824188 -2.006415 -2.256204 0.000000000000000e+00 1851878480
3.733266 -2.187779 -2.264930 0.000000000000000e+00 1851878480
4.009250 -1.429837 -2.234504 0.000000000000000e+00 1851878480
3.923820 -1.610141 -2.242696 0.000000000000000e+00 1851878480
3.751216 -1.968906 -2.261265 0.000000000000000e+00 1851878480
3.603843 -2.113534 -2.234750 0.000000000000000e+00 1851878480
4.009180 -1.428417 -2.280451 0.000000000000000e+00 1634890835
3.849478 -1.578923 -2.246081 0.000000000000000e+00 1851878480
3.665064 -1.924456 -2.256793 0.000000000000000e+00 1851878480
3.527894 -2.070575 -2.235448 0.000000000000000e+00 1851878480
3.965730 -1.411544 -2.301633 0.000000000000000e+00 1634890835
3.812402 -1.563007 -2.270302 0.000000000000000e+00 1851878480
3.554345 -1.867068 -2.235100 0.000000000000000e+00 1851878480
3.452755 -2.028041 -2.235091 0.000000000000000e+00 1851878480
3.849433 -1.368787 -2.279091 0.000000000000000e+00 1634890835
3.689865 -1.512076 -2.242128 0.000000000000000e+00 1851878480
3.531366 -1.855753 -2.267294 0.000000000000000e+00 1851878480
3.409233 -2.004040 -2.254062 0.000000000000000e+00 1851878480
3.837312 -1.363108 -2.317148 0.000000000000000e+00 1634890835
3.613752 -1.480202 -2.240175 0.000000000000000e+00 1851878480
3.433387 -1.805007 -2.250205 0.000000000000000e+00 1851878480
3.363516 -1.978725 -2.270842 0.000000000000000e+00 1851878480
3.698159 -1.312344 -2.277127 0.000000000000000e+00 1634890835
3.564692 -1.459426 -2.253885 0.000000000000000e+00 1851878480
3.345836 -1.759710 -2.237941 0.000000000000000e+00 1851878480
3.269969 -1.925228 -2.253881 0.000000000000000e+00 1851878480
3.642747 -1.291356 -2.286777 0.000000000000000e+00 1634890835
3.478528 -1.423474 -2.242893 0.000000000000000e+00 1851878480
3.330272 -1.752259 -2.272918 0.000000000000000e+00 1851878480
3.165001 -1.864925 -2.226739 0.000000000000000e+00 1851878480
3.583259 -1.268951 -2.292913 0.000000000000000e+00 1634890835
3.466140 -1.417730 -2.278680 0.000000000000000e+00 1634890835
3.225912 -1.698068 -2.246135 0.000000000000000e+00 1851878480
3.145926 -1.855194 -2.258762 0.000000000000000e+00 1851878480
3.519537 -1.245079 -2.295276 0.000000000000000e+00 1634890835
3.432459 -1.403275 -2.300338 0.000000000000000e+00 1634890835
3.183547 -1.676485 -2.260984 0.000000000000000e+00 1851878480
3.109876 -1.835444 -2.278318 0.000000000000000e+00 1851878480
3.441524 -1.216193 -2.287016 0.000000000000000e+00 1634890835
3.405494 -1.391573 -2.326185 0.000000000000000e+00 1634890835
3.104209 -1.635413 -2.248370 0.000000000000000e+00 1851878480
3.004376 -1.774654 -2.245443 0.000000000000000e+00 1851878480
3.414239 -1.205261 -2.311608 0.000000000000000e+00 1634890835
3.267849 -1.334671 -2.274764 0.000000000000000e+00 1634890835
3.052619 -1.608938 -2.254507 0.000000000000000e+00 1851878480
2.976908 -1.759909 -2.269450 0.000000000000000e+00 1851878480
3.281028 -1.156980 -2.262914 0.000000000000000e+00 1634890835
3.245863 -1.325029 -2.302240 0.000000000000000e+00 1634890835
3.017271 -1.591012 -2.271908 0.000000000000000e+00 1851878480
2.881450 -1.704926 -2.240313 0.000000000000000e+00 1851878480
3.277119 -1.154336 -2.302117 0.000000000000000e+00 1634890835
3.193879 -1.303151 -2.307937 0.000000000000000e+00 1634890835
2.946487 -1.554384 -2.261607 0.000000000000000e+00 1851878480
2.794327 -1.654801 -2.215419 0.000000000000000e+00 1851878480
3.207922 -1.128710 -2.294978 0.000000000000000e+00 1634890835
3.155598 -1.286875 -2.322815 0.000000000000000e+00 1634890835
2.915035 -1.538489 -2.280525 0.000000000000000e+00 1851878480
2.810483 -1.665822 -2.271866 0.000000000000000e+00 1851878480
3.140280 -1.103670 -2.287642 0.000000000000000e+00 1634890835
3.062101 -1.248103 -2.295756 0.000000000000000e+00 1634890835
2.856832 -1.508465 -2.277716 0.000000000000000e+00 1851878480
2.698905 -1.601099 -2.224118 0.000000000000000e+00 1851878480
3.079067 -1.080928 -2.283771 0.000000000000000e+00 1634890835
2.999563 -1.221972 -2.290266 0.000000000000000e+00 1634890835
2.779997 -1.468576 -2.258562 0.000000000000000e+00 1851878480
0.867912 -0.515341 -0.729061 0.000000000000000e+00 1886740808
3.014073 -1.056894 -2.275896 0.000000000000000e+00 1634890835
2.999640 -1.221357 -2.332226 0.000000000000000e+00 1634890835
2.778586 -1.468523 -2.300047 0.000000000000000e+00 1851878480
0.853373 -0.507166 -0.730629 0.000000000000000e+00 1886740808
2.974058 -1.041650 -2.285954 0.000000000000000e+00 1634890835
2.932288 -1.193295 -2.321325 0.000000000000000e+00 1634890835
0.879214 -0.464899 -0.741459 0.000000000000000e+00 1886740808
0.847468 -0.504120 -0.739447 0.000000000000000e+00 1886740808
2.939900 -1.028471 -2.299994 0.000000000000000e+00 1634890835
2.888616 -1.174882 -2.328114 0.000000000000000e+00 1634890835
0.832737 -0.440536 -0.715383 0.000000000000000e+00 1886740808
0.815647 -0.485642 -0.725220 0.000000000000000e+00 1886740808
2.931648 -1.024358 -2.334220 0.000000000000000e+00 1634890835
2.808659 -1.141734 -2.304404 0.000000000000000e+00 1634890835
0.831612 -0.440156 -0.727697 0.000000000000000e+00 1886740808
0.817464 -0.487182 -0.740597 0.000000000000000e+00 1886740808
2.852469 -0.995486 -2.311261 0.000000000000000e+00 1634890835
2.782490 -1.130467 -2.323813 0.000000000000000e+00 1634890835
0.824383 -0.436547 -0.734720 0.000000000000000e+00 1886740808
0.833569 -0.497256 -0.769423 0.000000000000000e+00 1886740808
2.784275 -0.970492 -2.295636 0.000000000000000e+00 1634890835
0.891288 -0.361907 -0.757634 0.000000000000000e+00 1886740808
0.788091 -0.417539 -0.715319 0.000000000000000e+00 1886740808
0.744551 -0.444584 -0.700159 0.000000000000000e+00 1886740808
0.836649 -0.291261 -0.701882 0.000000000000000e+00 1886740808
0.867471 -0.352034 -0.750477 0.000000000000000e+00 1886740808
0.797810 -0.422903 -0.737432 0.000000000000000e+00 1886740808
0.800497 -0.478460 -0.766849 0.000000000000000e+00 1886740808
0.842383 -0.292886 -0.719002 0.000000000000000e+00 1886740808
0.779301 -0.316069 -0.686119 0.000000000000000e+00 1886740808
0.748197 -0.396809 -0.704222 0.000000000000000e+00 1886740808
0.753262 -0.450676 -0.735051 0.000000000000000e+00 1886740808
0.813689 -0.282548 -0.706563 0.000000000000000e+00 1886740808
0.803482 -0.325684 -0.719871 0.000000000000000e+00 1886740808
0.770939 -0.409086 -0.738856 0.000000000000000e+00 1886740808
0.754467 -0.451854 -0.749911 0.000000000000000e+00 1886740808
0.793797 -0.275281 -0.701210 0.000000000000000e+00 1886740808
0.787713 -0.319102 -0.718136 0.000000000000000e+00 1886740808
0.786045 -0.417324 -0.767028 0.000000000000000e+00 1886740808
0.757655 -0.454229 -0.767038 0.000000000000000e+00 1886740808
0.793928 -0.274964 -0.713416 0.000000000000000e+00 1886740808
0.757031 -0.306486 -0.702247 0.000000000000000e+00 1886740808
0.788179 -0.418683 -0.783055 0.000000000000000e+00 1886740808
0.721892 -0.433240 -0.744347 0.000000000000000e+00 1886740808
0.760924 -0.263180 -0.695512 0.000000000000000e+00 1886740808
0.800160 -0.323748 -0.755215 0.000000000000000e+00 1886740808
0.803811 -0.427222 -0.813032 0.000000000000000e+00 1886740808
0.759641 -0.456377 -0.797725 0.000000000000000e+00 1886740808
0.740319 -0.255705 -0.688281 0.000000000000000e+00 1886740808
0.778733 -0.314881 -0.747794 0.000000000000000e+00 1886740808
0.798349 -0.424556 -0.822088 0.000000000000000e+00 1886740808
0.728769 -0.438302 -0.779405 0.000000000000000e+00 1886740808
0.765256 -0.263953 -0.723636 0.000000000000000e+00 1886740808
0.744270 -0.300755 -0.727125 0.000000000000000e+00 1886740808
0.832639 -0.443042 -0.872852 0.000000000000000e+00 1886740808
2.110454 -1.270673 -2.298617 0.000000000000000e+00 1634890835
0.780941 -0.268984 -0.751076 0.000000000000000e+00 1886740808
0.770883 -0.311308 -0.766193 0.000000000000000e+00 1886740808
0.781440 -0.416039 -0.833927 0.000000000000000e+00 1886740808
2.061910 -1.242825 -2.287019 0.000000000000000e+00 1634890835
0.779743 -0.268188 -0.762706 0.000000000000000e+00 1886740808
0.754770 -0.304600 -0.763177 0.000000000000000e+00 1886740808
2.140440 -1.140237 -2.325290 0.000000000000000e+00 1634890835
2.015058 -1.215958 -2.276103 0.000000000000000e+00 1634890835
0.735769 -0.252695 -0.731942 0.000000000000000e+00 1886740808
0.777956 -0.313748 -0.800236 0.000000000000000e+00 1886740808
2.118212 -1.129069 -2.342501 0.000000000000000e+00 1634890835
0.801603 -0.484272 -0.922071 0.000000000000000e+00 1886740808
0.805758 -0.276324 -0.815196 0.000000000000000e+00 1886740808
0.772991 -0.311534 -0.808878 0.000000000000000e+00 1886740808
2.064925 -1.101332 -2.324599 0.000000000000000e+00 1634890835
0.825090 -0.499044 -0.966511 0.000000000000000e+00 1886740808
0.748419 -0.256274 -0.770049 0.000000000000000e+00 1886740808
0.778638 -0.313593 -0.828869 0.000000000000000e+00 1886740808
2.033357 -1.085163 -2.330186 0.000000000000000e+00 1634890835
0.802400 -0.485898 -0.957192 0.000000000000000e+00 1886740808
0.751078 -0.256792 -0.785908 0.000000000000000e+00 1886740808
2.128444 -0.856619 -2.304903 0.000000000000000e+00 1634890835
0.836757 -0.446841 -0.976140 0.000000000000000e+00 1886740808
0.753849 -0.457051 -0.915798 0.000000000000000e+00 1886740808
0.761345 -0.259897 -0.810175 0.000000000000000e+00 1886740808
2.103647 -0.846035 -2.317412 0.000000000000000e+00 1634890835
0.835918 -0.446679 -0.992696 0.000000000000000e+00 1886740808
0.806777 -0.489745 -0.998121 0.000000000000000e+00 1886740808
0.755703 -0.257562 -0.817824 0.000000000000000e+00 1886740808
2.036136 -0.818287 -2.281811 0.000000000000000e+00 1634890835
0.773678 -0.413689 -0.935320 0.000000000000000e+00 1886740808
1.827173 -1.110559 -2.302151 0.000000000000000e+00 1634890835
2.045669 -0.696086 -2.251430 0.000000000000000e+00 1634890835
1.998662 -0.802630 -2.278553 0.000000000000000e+00 1634890835
0.793448 -0.424542 -0.976507 0.000000000000000e+00 1886740808
1.795439 -1.092668 -2.303888 0.000000000000000e+00 1634890835
2.038854 -0.692626 -2.282065 0.000000000000000e+00 1634890835
1.999797 -0.802479 -2.319315 0.000000000000000e+00 1634890835
0.783766 -0.419644 -0.982000 0.000000000000000e+00 1886740808
0.748009 -0.455817 -0.977573 0.000000000000000e+00 1886740808
2.006356 -0.680441 -2.283893 0.000000000000000e+00 1634890835
1.977020 -0.792728 -2.332642 0.000000000000000e+00 1634890835
0.776185 -0.415871 -0.990087 0.000000000000000e+00 1886740808
1.734052 -1.058094 -2.308204 0.000000000000000e+00 1634890835
1.978071 -0.669699 -2.290047 0.000000000000000e+00 1634890835
0.833684 -0.334021 -1.000722 0.000000000000000e+00 1886740808
1.774950 -0.951667 -2.305126 0.000000000000000e+00 1634890835
1.692876 -1.034371 -2.295235 0.000000000000000e+00 1634890835
1.966150 -0.664501 -2.315074 0.000000000000000e+00 1634890835
0.792201 -0.317146 -0.967465 0.000000000000000e+00 1886740808
0.771305 -0.413843 -1.019892 0.000000000000000e+00 1886740808
1.674007 -1.024259 -2.311916 0.000000000000000e+00 1634890835
1.936058 -0.653165 -2.318601 0.000000000000000e+00 1634890835
0.808399 -0.323367 -1.004453 0.000000000000000e+00 1886740808
1.719108 -0.923058 -2.314581 0.000000000000000e+00 1634890835
1.637351 -1.003247 -2.303536 0.000000000000000e+00 1634890835
0.829921 -0.279480 -1.010926 0.000000000000000e+00 1886740808
0.780781 -0.312058 -0.987087 0.000000000000000e+00 1886740808
1.665509 -0.894946 -2.283404 0.000000000000000e+00 1634890835
1.604958 -0.984819 -2.300299 0.000000000000000e+00 1634890835
0.817588 -0.274815 -1.013001 0.000000000000000e+00 1886740808
0.776617 -0.310130 -0.999024 0.000000000000000e+00 1886740808
1.656633 -0.890854 -2.312893 0.000000000000000e+00 1634890835
1.580635 -0.971326 -2.308080 0.000000000000000e+00 1634890835
0.782450 -0.262505 -0.986153 0.000000000000000e+00 1886740808
0.805596 -0.321422 -1.054513 0.000000000000000e+00 1886740808
1.635610 -0.880234 -2.325587 0.000000000000000e+00 1634890835
1.520217 -0.935606 -2.261819 0.000000000000000e+00 1634890835
0.814406 -0.272696 -1.044151 0.000000000000000e+00 1886740808
1.725078 -0.687671 -2.297917 0.000000000000000e+00 1634890835
1.569632 -0.845398 -2.273039 0.000000000000000e+00 1634890835
1.487042 -0.916599 -2.254477 0.000000000000000e+00 1634890835
0.750483 -0.250794 -0.978863 0.000000000000000e+00 1886740808
1.700556 -0.677280 -2.305339 0.000000000000000e+00 1634890835
1.570285 -0.846437 -2.316215 0.000000000000000e+00 1634890835
1.488337 -0.918842 -2.299504 0.000000000000000e+00 1634890835
0.776933 -0.259106 -1.030980 0.000000000000000e+00 1886740808
0.767949 -0.305567 -1.059558 0.000000000000000e+00 1886740808
1.550256 -0.836335 -2.329345 0.000000000000000e+00 1634890835
1.456431 -0.900593 -2.293382 0.000000000000000e+00 1634890835
1.663342 -0.553570 -2.245761 0.000000000000000e+00 1634890835
1.644511 -0.653729 -2.309464 0.000000000000000e+00 1634890835
1.528342 -0.825214 -2.339497 0.000000000000000e+00 1634890835
1.424542 -0.882329 -2.286454 0.000000000000000e+00 1634890835
0.776392 -0.257839 -1.066621 0.000000000000000e+00 1886740808
1.596664 -0.634092 -2.282469 0.000000000000000e+00 1634890835
1.458828 -0.788369 -2.275211 0.000000000000000e+00 1634890835
1.393827 -0.864764 -2.280585 0.000000000000000e+00 1634890835
1.617231 -0.535912 -2.260901 0.000000000000000e+00 1634890835
1.598433 -0.634161 -2.326163 0.000000000000000e+00 1634890835
1.469756 -0.794981 -2.335745 0.000000000000000e+00 1634890835
1.383722 -0.859980 -2.308283 0.000000000000000e+00 1634890835
1.606340 -0.531117 -2.285412 0.000000000000000e+00 1634890835
1.552990 -0.615504 -2.300963 0.000000000000000e+00 1634890835
1.435359 -0.777086 -2.324632 0.000000000000000e+00 1634890835
1.338943 -0.833625 -2.277518 0.000000000000000e+00 1634890835
1.575010 -0.519568 -2.280694 0.000000000000000e+00 1634890835
1.523531 -0.603197 -2.298430 0.000000000000000e+00 1634890835
1.411145 -0.764691 -2.329336 0.000000000000000e+00 1634890835
1.307341 -0.815430 -2.267820 0.000000000000000e+00 1634890835
1.576706 -0.518907 -2.323979 0.000000000000000e+00 1634890835
1.525730 -0.603419 -2.343918 0.000000000000000e+00 1634890835
1.393125 -0.755652 -2.344093 0.000000000000000e+00 1634890835
1.296154 -0.809960 -2.293294 0.000000000000000e+00 1634890835
1.525596 -0.500879 -2.289096 0.000000000000000e+00 1634890835
1.475093 -0.582750 -2.307905 0.000000000000000e+00 1634890835
1.339641 -0.727357 -2.298040 0.000000000000000e+00 1634890835
1.257532 -0.787330 -2.269725 0.000000000000000e+00 1634890835
1.502180 -0.491971 -2.294753 0.000000000000000e+00 1634890835
1.458468 -0.575532 -2.324243 0.000000000000000e+00 1634890835
1.289886 -0.701050 -2.256154 0.000000000000000e+00 1634890835
1.242873 -0.779682 -2.288776 0.000000000000000e+00 1634890835
1.482791 -0.484390 -2.306399 0.000000000000000e+00 1634890835
1.402852 -0.552945 -2.277393 0.000000000000000e+00 1634890835
1.295507 -0.704836 -2.310859 0.000000000000000e+00 1634890835
1.251586 -0.786734 -2.351990 0.000000000000000e+00 1634890835
1.430954 -0.466238 -2.266591 0.000000000000000e+00 1634890835
1.395235 -0.549288 -2.307669 0.000000000000000e+00 1634890835
1.300872 -0.708510 -2.366770 0.000000000000000e+00 1634890835
1.193940 -0.752054 -2.289994 0.000000000000000e+00 1634890835
1.428332 -0.464136 -2.304231 0.000000000000000e+00 1634890835
1.360622 -0.535005 -2.293110 0.000000000000000e+00 1634890835
1.249947 -0.681520 -2.319937 0.000000000000000e+00 1634890835
1.174427 -0.741341 -2.299532 0.000000000000000e+00 1634890835
1.370702 -0.444182 -2.252416 0.000000000000000e+00 1634890835
1.348335 -0.529507 -2.315857 0.000000000000000e+00 1634890835
1.205855 -0.658222 -2.283613 0.000000000000000e+00 1634890835
1.140188 -0.721310 -2.279504 0.000000000000000e+00 1634890835
1.369376 -0.442493 -2.292447 0.000000000000000e+00 1634890835
1.332197 -0.522491 -2.332263 0.000000000000000e+00 1634890835
1.212431 -0.662579 -2.343210 0.000000000000000e+00 1634890835
1.128233 -0.715361 -2.303597 0.000000000000000e+00 1634890835
1.357198 -0.437274 -2.315031 0.000000000000000e+00 1634890835
1.285805 -0.503624 -2.294836 0.000000000000000e+00 1634890835
1.181448 -0.646420 -2.330686 0.000000000000000e+00 1634890835
1.106055 -0.702931 -2.306887 0.000000000000000e+00 1634890835
1.302270 -0.418313 -2.263709 0.000000000000000e+00 1634890835
1.274552 -0.498531 -2.319411 0.000000000000000e+00 1634890835
1.151236 -0.630664 -2.318683 0.000000000000000e+00 1634890835
1.101963 -0.702013 -2.348349 0.000000000000000e+00 1634890835
1.309674 -0.419385 -2.320395 0.000000000000000e+00 1634890835
1.236512 -0.482967 -2.294784 0.000000000000000e+00 1634890835
1.129492 -0.619538 -2.323087 0.000000000000000e+00 1634890835
1.040435 -0.664458 -2.266028 0.000000000000000e+00 1634890835
1.259162 -0.401917 -2.274237 0.000000000000000e+00 1634890835
1.216085 -0.474295 -2.302051 0.000000000000000e+00 1634890835
1.111935 -0.610706 -2.335986 0.000000000000000e+00 1634890835
1.017386 -0.651397 -2.265193 0.000000000000000e+00 1634890835
1.219671 -0.388024 -2.246122 0.000000000000000e+00 1634890835
1.192646 -0.464454 -2.303344 0.000000000000000e+00 1634890835
1.075221 -0.591341 -2.307837 0.000000000000000e+00 1634890835
1.005533 -0.645508 -2.289319 0.000000000000000e+00 1634890835
1.222761 -0.387676 -2.296426 0.000000000000000e+00 1634890835
1.159601 -0.450882 -2.285306 0.000000000000000e+00 1634890835
1.082881 -0.596385 -2.375298 0.000000000000000e+00 1634890835
1.010048 -0.650175 -2.352172 0.000000000000000e+00 1634890835
1.163538 -0.367594 -2.228953 0.000000000000000e+00 1634890835
1.113555 -0.432282 -2.239928 0.000000000000000e+00 1634890835
1.040309 -0.573765 -2.332650 0.000000000000000e+00 1634890835
0.966602 -0.623965 -2.303169 0.000000000000000e+00 1634890835
1.163159 -0.366130 -2.273330 0.000000000000000e+00 1634890835
1.124653 -0.435865 -2.309562 0.000000000000000e+00 1634890835
1.036670 -0.572612 -2.376861 0.000000000000000e+00 1634890835
0.923871 -0.598122 -2.253107 0.000000000000000e+00 1634890835
1.150112 -0.360650 -2.293844 0.000000000000000e+00 1634890835
1.104010 -0.427128 -2.315157 0.000000000000000e+00 1634890835
0.988889 -0.547063 -2.319093 0.000000000000000e+00 1634890835
0.912838 -0.592766 -2.279311 0.000000000000000e+00 1634890835
1.108377 -0.346198 -2.256390 0.000000000000000e+00 1634890835
1.101269 -0.425308 -2.358902 0.000000000000000e+00 1634890835
0.959642 -0.531734 -2.302643 0.000000000000000e+00 1634890835
0.900278 -0.586443 -2.302409 0.000000000000000e+00 1634890835
1.094957 -0.340613 -2.275802 0.000000000000000e+00 1634890835
1.064036 -0.410169 -2.328630 0.000000000000000e+00 1634890835
0.938862 -0.521083 -2.305750 0.000000000000000e+00 1634890835
0.888320 -0.580535 -2.327747 0.000000000000000e+00 1634890835
1.070684 -0.331655 -2.272599 0.000000000000000e+00 1634890835
1.041223 -0.400606 -2.328841 0.000000000000000e+00 1634890835
0.905957 -0.503687 -2.278061 0.000000000000000e+00 1634890835
0.862480 -0.565551 -2.316588 0.000000000000000e+00 1634890835
1.036928 -0.319788 -2.248289 0.000000000000000e+00 1634890835
1.004005 -0.385518 -2.295698 0.000000000000000e+00 1634890835
0.901769 -0.502255 -2.322531 0.000000000000000e+00 1634890835
0.838653 -0.551857 -2.309925 0.000000000000000e+00 1634890835
1.050528 -0.322502 -2.327437 0.000000000000000e+00 1634890835
0.989833 -0.379290 -2.314517 0.000000000000000e+00 1634890835
0.879886 -0.490977 -2.322051 0.000000000000000e+00 1634890835
0.444466 -0.293538 -1.255919 0.000000000000000e+00 1936876886
1.019336 -0.311437 -2.308259 0.000000000000000e+00 1634890835
0.966632 -0.369604 -2.312194 0.000000000000000e+00 1634890835
0.852746 -0.476754 -2.306878 0.000000000000000e+00 1634890835
0.437277 -0.289888 -1.268211 0.000000000000000e+00 1936876886
0.998564 -0.303580 -2.311945 0.000000000000000e+00 1634890835
0.941032 -0.359010 -2.303473 0.000000000000000e+00 1634890835
0.828954 -0.464386 -2.299766 0.000000000000000e+00 1634890835
0.427187 -0.284321 -1.272269 0.000000000000000e+00 1936876886
0.974775 -0.294815 -2.308255 0.000000000000000e+00 1634890835
0.890384 -0.338894 -2.231161 0.000000000000000e+00 1634890835
0.461591 -0.259129 -1.313890 0.000000000000000e+00 1936876886
0.351519 -0.234926 -1.075630 0.000000000000000e+00 1953264973
0.965774 -0.290518 -2.339831 0.000000000000000e+00 1634890835
0.908314 -0.344877 -2.330945 0.000000000000000e+00 1634890835
0.433492 -0.243888 -1.266606 0.000000000000000e+00 1936876886
0.304135 -0.204135 -0.956693 0.000000000000000e+00 1953264973
0.499090 -0.149286 -1.237587 0.000000000000000e+00 1936876886
0.894317 -0.338700 -2.351293 0.000000000000000e+00 1634890835
0.367211 -0.207070 -1.101937 0.000000000000000e+00 1953264973
0.270020 -0.182055 -0.873671 0.000000000000000e+00 1953264973
0.485638 -0.144404 -1.233004 0.000000000000000e+00 1936876886
0.868920 -0.328206 -2.341527 0.000000000000000e+00 1634890835
0.343378 -0.194094 -1.058840 0.000000000000000e+00 1953264973
0.286157 -0.193846 -0.952957 0.000000000000000e+00 1953264973
0.478911 -0.141524 -1.245483 0.000000000000000e+00 1936876886
0.841696 -0.317038 -2.325814 0.000000000000000e+00 1634890835
0.321706 -0.182300 -1.019961 0.000000000000000e+00 1953264973
0.239771 -0.163228 -0.822369 0.000000000000000e+00 1953264973
