# .PCD v0.7 - Point Cloud Data file format
VERSION 0.7
FIELDS x y z rgb label
SIZE 4 4 4 4 4
TYPE F F F F U
COUNT 1 1 1 1 1
WIDTH 538
HEIGHT 1
VIEWPOINT 0 0 0 1 0 0 0
POINTS 538
DATA ascii
38.229755 -19.531633 10.265409 0.000000000000000e+00 1954047316
38.226585 -19.536369 9.865432 0.000000000000000e+00 1954047316
33.872726 -12.593353 -2.152077 0.000000000000000e+00 1851878480
36.785072 -15.387012 -2.242501 0.000000000000000e+00 1851878480
29.823164 -15.390106 -1.612697 0.000000000000000e+00 1851878480
28.405451 -16.127617 -1.410602 0.000000000000000e+00 1851878480
29.064190 -10.797419 -2.110607 0.000000000000000e+00 1851878480
28.555016 -11.940260 -2.008103 0.000000000000000e+00 1851878480
26.739544 -13.803099 -1.712843 0.000000000000000e+00 1851878480
25.900688 -14.714177 -1.553716 0.000000000000000e+00 1851878480
26.532667 -9.849462 -2.168027 0.000000000000000e+00 1851878480
26.054096 -10.890670 -2.076377 0.000000000000000e+00 1851878480
24.858604 -12.836122 -1.840767 0.000000000000000e+00 1851878480
24.372770 -13.854329 -1.714110 0.000000000000000e+00 1851878480
24.091030 -8.936281 -2.187808 0.000000000000000e+00 1851878480
24.297541 -10.152859 -2.164339 0.000000000000000e+00 1851878480
23.423590 -12.098870 -1.968888 0.000000000000000e+00 1851878480
23.217323 -13.205347 -1.873301 0.000000000000000e+00 1851878480
22.177130 -8.220077 -2.216104 0.000000000000000e+00 1851878480
22.320805 -9.323598 -2.197928 0.000000000000000e+00 1851878480
22.096174 -11.416781 -2.078739 0.000000000000000e+00 1851878480
21.825903 -12.421292 -1.987434 0.000000000000000e+00 1851878480
20.484467 -7.586895 -2.233886 0.000000000000000e+00 1851878480
20.648832 -8.622155 -2.227527 0.000000000000000e+00 1851878480
20.745550 -10.722255 -2.159906 0.000000000000000e+00 1851878480
20.453068 -11.646909 -2.074956 0.000000000000000e+00 1851878480
18.930534 -7.006003 -2.237431 0.000000000000000e+00 1851878480
19.023468 -7.940666 -2.231421 0.000000000000000e+00 1851878480
19.407515 -10.033826 -2.215750 0.000000000000000e+00 1851878480
19.115345 -10.891607 -2.138263 0.000000000000000e+00 1851878480
17.577663 -6.500334 -2.238437 0.000000000000000e+00 1851878480
17.634583 -7.358323 -2.234942 0.000000000000000e+00 1851878480
17.872803 -9.243251 -2.220604 0.000000000000000e+00 1851878480
17.896824 -10.203387 -2.188678 0.000000000000000e+00 1851878480
16.396889 -6.059026 -2.238437 0.000000000000000e+00 1851878480
16.434841 -6.855288 -2.238299 0.000000000000000e+00 1851878480
16.520544 -8.546580 -2.219395 0.000000000000000e+00 1851878480
16.642538 -9.493950 -2.209313 0.000000000000000e+00 1851878480
15.362926 -5.672593 -2.238438 0.000000000000000e+00 1851878480
15.366796 -6.407505 -2.238438 0.000000000000000e+00 1851878480
15.406286 -7.972635 -2.225606 0.000000000000000e+00 1851878480
15.460559 -8.824948 -2.214458 0.000000000000000e+00 1851878480
14.449845 -5.331329 -2.238437 0.000000000000000e+00 1851878480
14.426387 -6.013242 -2.238438 0.000000000000000e+00 1851878480
14.424874 -7.467107 -2.230154 0.000000000000000e+00 1851878480
14.420879 -8.236427 -2.217087 0.000000000000000e+00 1851878480
13.637497 -5.027726 -2.238437 0.000000000000000e+00 1851878480
13.592600 -5.663686 -2.238436 0.000000000000000e+00 1851878480
13.583755 -7.033916 -2.238264 0.000000000000000e+00 1851878480
13.548081 -7.742580 -2.225665 0.000000000000000e+00 1851878480
12.909998 -4.755832 -2.238437 0.000000000000000e+00 1851878480
12.848186 -5.351590 -2.238438 0.000000000000000e+00 1851878480
12.793028 -6.626554 -2.238437 0.000000000000000e+00 1851878480
12.787354 -7.312234 -2.235833 0.000000000000000e+00 1851878480
12.254607 -4.510886 -2.238438 0.000000000000000e+00 1851878480
12.179391 -5.071208 -2.238438 0.000000000000000e+00 1851878480
12.086511 -6.262576 -2.238438 0.000000000000000e+00 1851878480
12.070438 -6.906456 -2.238438 0.000000000000000e+00 1851878480
11.661038 -4.289051 -2.238437 0.000000000000000e+00 1851878480
11.575185 -4.817896 -2.238437 0.000000000000000e+00 1851878480
11.452115 -5.935749 -2.238437 0.000000000000000e+00 1851878480
11.415783 -6.535825 -2.238437 0.000000000000000e+00 1851878480
11.120872 -4.087171 -2.238438 0.000000000000000e+00 1851878480
11.026556 -4.587883 -2.238437 0.000000000000000e+00 1851878480
10.879246 -5.640616 -2.238437 0.000000000000000e+00 1851878480
10.826599 -6.202271 -2.238438 0.000000000000000e+00 1851878480
6.070824 -2.229414 -1.278724 1.880790849211783e-38 1684957512
6.013121 -2.501009 -1.278724 1.880790849211783e-38 1684957512
5.917822 -3.069222 -1.278724 1.880790849211783e-38 1684957512
5.880210 -3.370671 -1.278724 1.880790849211783e-38 1684957512
5.811969 -2.132674 -1.278724 1.880790849211783e-38 1684957512
5.751238 -2.391216 -1.278724 1.880790849211783e-38 1684957512
5.646964 -2.929688 -1.278724 1.880790849211783e-38 1684957512
5.603243 -3.213874 -1.278724 1.880790849211783e-38 1684957512
5.573544 -2.043569 -1.278724 1.880790849211783e-38 1684957512
5.510436 -2.290263 -1.278724 1.880790849211783e-38 1684957512
5.398946 -2.801914 -1.278724 1.880790849211783e-38 1684957512
5.350267 -3.070659 -1.278724 1.880790849211783e-38 1684957512
5.353184 -1.961217 -1.278724 1.880790849211783e-38 1684957512
5.288228 -2.197105 -1.278724 1.880790849211783e-38 1684957512
5.170951 -2.684458 -1.278724 1.880790849211783e-38 1684957512
5.118247 -2.939309 -1.278724 1.880790849211783e-38 1684957512
5.148886 -1.884866 -1.278724 1.880790849211783e-38 1684957512
5.082516 -2.110861 -1.278724 1.880790849211783e-38 1684957512
4.960622 -2.576102 -1.278724 1.880790849211783e-38 1684957512
4.904653 -2.818389 -1.278724 1.880790849211783e-38 1684957512
4.958921 -1.813877 -1.278724 1.880790849211783e-38 1684957512
4.891495 -2.030778 -1.278724 1.880790849211783e-38 1684957512
4.765949 -2.475812 -1.278724 1.880790849211783e-38 1684957512
4.707341 -2.706690 -1.278724 1.880790849211783e-38 1684957512
4.781815 -1.747692 -1.278724 1.880790849211783e-38 1684957512
4.713622 -1.956207 -1.278724 1.880790849211783e-38 1684957512
4.585220 -2.382708 -1.278724 1.880790849211783e-38 1684957512
4.524492 -2.603180 -1.278724 1.880790849211783e-38 1684957512
4.616275 -1.685828 -1.278724 1.880790849211783e-38 1684957512
4.547558 -1.886589 -1.278724 1.880790849211783e-38 1684957512
4.416962 -2.296025 -1.278724 1.880790849211783e-38 1684957512
4.354542 -2.506970 -1.278724 1.880790849211783e-38 1684957512
4.461189 -1.627869 -1.278724 1.880790849211783e-38 1684957512
4.392151 -1.821437 -1.278724 1.880790849211783e-38 1684957512
4.259908 -2.215117 -1.278724 1.880790849211783e-38 1684957512
4.196155 -2.417307 -1.278724 1.880790849211783e-38 1684957512
4.315572 -1.573454 -1.278724 1.880790849211783e-38 1684957512
4.246381 -1.760324 -1.278724 1.880790849211783e-38 1684957512
4.112952 -2.139411 -1.278724 1.880790849211783e-38 1684957512
4.103323 -2.365328 -1.296148 1.880790849211783e-38 1684957512
4.178564 -1.522255 -1.278724 1.880790849211783e-38 1684957512
4.109357 -1.702880 -1.278724 1.880790849211783e-38 1684957512
4.103323 -2.135113 -1.319962 1.880790849211783e-38 1684957512
4.103323 -2.366832 -1.342101 1.880790849211783e-38 1684957512
4.103323 -1.493618 -1.295752 1.880790849211783e-38 1684957512
4.103323 -1.699736 -1.318249 1.880790849211783e-38 1684957512
4.103323 -2.135828 -1.364425 1.880790849211783e-38 1684957512
4.103324 -2.368349 -1.388305 1.880790849211783e-38 1684957512
4.103323 -1.492383 -1.335997 1.880790849211783e-38 1684957512
4.103323 -1.699087 -1.359856 1.880790849211783e-38 1684957512
4.103323 -2.136546 -1.409127 1.880790849211783e-38 1684957512
4.103323 -2.369873 -1.434767 1.880790849211783e-38 1684957512
4.103323 -1.491143 -1.376443 1.880790849211783e-38 1684957512
4.103323 -1.698437 -1.401680 1.880790849211783e-38 1684957512
4.103323 -2.137273 -1.454077 1.880790849211783e-38 1684957512
4.103323 -2.371406 -1.481497 1.880790849211783e-38 1684957512
4.103323 -1.489898 -1.417098 1.880790849211783e-38 1684957512
4.103323 -1.697783 -1.443725 1.880790849211783e-38 1684957512
4.103323 -2.137999 -1.499284 1.880790849211783e-38 1684957512
4.103323 -2.372951 -1.528506 1.880790849211783e-38 1684957512
4.103323 -1.488648 -1.457969 1.880790849211783e-38 1684957512
4.103324 -1.697127 -1.486002 1.880790849211783e-38 1684957512
4.103323 -2.138732 -1.544759 1.880790849211783e-38 1684957512
4.103323 -2.374504 -1.575803 1.880790849211783e-38 1684957512
4.103323 -1.487389 -1.499065 1.880790849211783e-38 1684957512
4.103323 -1.696464 -1.528519 1.880790849211783e-38 1684957512
4.103323 -2.139468 -1.590510 1.880790849211783e-38 1684957512
4.103323 -2.376069 -1.623400 1.880790849211783e-38 1684957512
4.103323 -1.486126 -1.540391 1.880790849211783e-38 1684957512
4.103324 -1.695801 -1.571283 1.880790849211783e-38 1684957512
4.103323 -2.140209 -1.636546 1.880790849211783e-38 1684957512
4.103324 -2.377642 -1.671305 1.880790849211783e-38 1684957512
4.103323 -1.484856 -1.581957 1.880790849211783e-38 1684957512
4.103323 -1.695133 -1.614302 1.880790849211783e-38 1684957512
4.103323 -2.140956 -1.682879 1.880790849211783e-38 1684957512
4.103323 -2.379229 -1.719530 1.880790849211783e-38 1684957512
4.103323 -1.483577 -1.623772 1.880790849211783e-38 1684957512
4.103323 -1.694460 -1.657587 1.880790849211783e-38 1684957512
4.103323 -2.141708 -1.729517 1.880790849211783e-38 1684957512
4.103323 -2.380826 -1.768086 1.880790849211783e-38 1684957512
4.103323 -1.482292 -1.665842 1.880790849211783e-38 1684957512
4.103323 -1.693783 -1.701146 1.880790849211783e-38 1684957512
4.103324 -2.142464 -1.776472 1.880790849211783e-38 1684957512
4.103324 -2.382438 -1.816984 1.880790849211783e-38 1684957512
4.103323 -1.481000 -1.708179 1.880790849211783e-38 1684957512
4.103324 -1.693105 -1.744989 1.880790849211783e-38 1684957512
4.103323 -2.143228 -1.823755 1.880790849211783e-38 1684957512
4.103324 -2.384060 -1.866237 1.880790849211783e-38 1684957512
4.103323 -1.479699 -1.750788 1.880790849211783e-38 1684957512
4.103323 -1.692418 -1.789123 1.880790849211783e-38 1684957512
4.103323 -2.143995 -1.871375 1.880790849211783e-38 1684957512
4.103323 -2.385695 -1.915854 1.880790849211783e-38 1684957512
4.103324 -1.478391 -1.793680 1.880790849211783e-38 1684957512
4.103323 -1.691730 -1.833560 1.880790849211783e-38 1684957512
4.103323 -2.144769 -1.919344 1.880790849211783e-38 1684957512
4.103323 -2.387341 -1.965847 1.880790849211783e-38 1684957512
4.103323 -1.477075 -1.836864 1.880790849211783e-38 1684957512
4.103323 -1.691035 -1.878309 1.880790849211783e-38 1684957512
4.103323 -2.145546 -1.967672 1.880790849211783e-38 1684957512
4.103323 -2.389004 -2.016232 1.880790849211783e-38 1684957512
4.103324 -1.475751 -1.880349 1.880790849211783e-38 1684957512
4.103323 -1.690337 -1.923379 1.880790849211783e-38 1684957512
4.103323 -2.146333 -2.016374 1.880790849211783e-38 1684957512
4.103323 -2.390678 -2.067018 1.880790849211783e-38 1684957512
4.103323 -1.474414 -1.924146 1.880790849211783e-38 1684957512
4.103323 -1.689633 -1.968783 1.880790849211783e-38 1684957512
4.103323 -2.147125 -2.065460 1.880790849211783e-38 1684957512
4.103323 -2.392367 -2.118221 1.880790849211783e-38 1684957512
4.103323 -1.473072 -1.968262 1.880790849211783e-38 1684957512
4.103323 -1.688923 -2.014529 1.880790849211783e-38 1684957512
4.103323 -2.147925 -2.114942 1.880790849211783e-38 1684957512
4.103323 -2.394072 -2.169852 1.880790849211783e-38 1684957512
4.103323 -1.471719 -2.012709 1.880790849211783e-38 1684957512
4.103323 -1.688209 -2.060628 1.880790849211783e-38 1684957512
4.103323 -2.148730 -2.164833 1.880790849211783e-38 1684957512
4.103323 -2.395792 -2.221925 1.880790849211783e-38 1684957512
4.103323 -1.470358 -2.057498 1.880790849211783e-38 1684957512
4.103323 -1.687489 -2.107092 1.880790849211783e-38 1684957512
4.103323 -2.149541 -2.215145 1.880790849211783e-38 1684957512
4.038343 -2.359562 -2.238437 0.000000000000000e+00 1851878480
4.103323 -1.468984 -2.102638 1.880790849211783e-38 1684957512
4.103323 -1.686762 -2.153933 1.880790849211783e-38 1684957512
4.053602 -2.124304 -2.238438 0.000000000000000e+00 1851878480
3.946381 -2.307513 -2.238438 0.000000000000000e+00 1851878480
4.103323 -1.467603 -2.148141 1.880790849211783e-38 1684957512
4.103324 -1.686031 -2.201161 1.880790849211783e-38 1684957512
3.964036 -2.078166 -2.238438 0.000000000000000e+00 1851878480
3.857726 -2.257339 -2.238438 0.000000000000000e+00 1851878480
4.103323 -1.466207 -2.194016 1.880790849211783e-38 1684957512
4.084437 -1.677535 -2.238438 0.000000000000000e+00 1851878480
3.877584 -2.033633 -2.238438 0.000000000000000e+00 1851878480
3.772190 -2.208929 -2.238437 0.000000000000000e+00 1851878480
4.099953 -1.463600 -2.238437 0.000000000000000e+00 1851878480
3.999008 -1.641725 -2.238437 0.000000000000000e+00 1851878480
3.794075 -1.990616 -2.238438 0.000000000000000e+00 1851878480
3.689598 -2.162189 -2.238438 0.000000000000000e+00 1851878480
4.016308 -1.432354 -2.238438 0.000000000000000e+00 1851878480
3.916370 -1.607083 -2.238437 0.000000000000000e+00 1851878480
3.713348 -1.949031 -2.238438 0.000000000000000e+00 1851878480
3.609789 -2.117021 -2.238438 0.000000000000000e+00 1851878480
4.006151 -1.427338 -2.278728 0.000000000000000e+00 1634890835
3.836379 -1.573551 -2.238437 0.000000000000000e+00 1851878480
3.635253 -1.908803 -2.238437 0.000000000000000e+00 1851878480
3.532612 -2.073344 -2.238437 0.000000000000000e+00 1851878480
3.926266 -1.397497 -2.278728 0.000000000000000e+00 1634890835
3.758893 -1.541070 -2.238437 0.000000000000000e+00 1851878480
3.559654 -1.869857 -2.238438 0.000000000000000e+00 1851878480
3.457925 -2.031078 -2.238438 0.000000000000000e+00 1851878480
3.848820 -1.368569 -2.278728 0.000000000000000e+00 1634890835
3.683791 -1.509587 -2.238437 0.000000000000000e+00 1851878480
3.486421 -1.832134 -2.238437 0.000000000000000e+00 1851878480
3.385602 -1.990149 -2.238438 0.000000000000000e+00 1851878480
3.773688 -1.340507 -2.278728 0.000000000000000e+00 1634890835
3.610950 -1.479055 -2.238437 0.000000000000000e+00 1851878480
3.415432 -1.795568 -2.238437 0.000000000000000e+00 1851878480
3.315519 -1.950489 -2.238437 0.000000000000000e+00 1851878480
3.700760 -1.313267 -2.278728 0.000000000000000e+00 1634890835
3.540261 -1.449423 -2.238437 0.000000000000000e+00 1851878480
3.346579 -1.760101 -2.238438 0.000000000000000e+00 1851878480
3.247563 -1.912036 -2.238438 0.000000000000000e+00 1851878480
3.629926 -1.286811 -2.278729 0.000000000000000e+00 1634890835
3.471618 -1.420647 -2.238437 0.000000000000000e+00 1851878480
3.279752 -1.725677 -2.238437 0.000000000000000e+00 1851878480
3.181629 -1.874723 -2.238437 0.000000000000000e+00 1851878480
3.561092 -1.261101 -2.278728 0.000000000000000e+00 1634890835
3.466213 -1.417760 -2.278728 0.000000000000000e+00 1634890835
3.214857 -1.692249 -2.238438 0.000000000000000e+00 1851878480
3.117619 -1.838501 -2.238438 0.000000000000000e+00 1851878480
3.494164 -1.236102 -2.278728 0.000000000000000e+00 1634890835
3.400214 -1.390093 -2.278728 0.000000000000000e+00 1634890835
3.151800 -1.659767 -2.238438 0.000000000000000e+00 1851878480
3.055439 -1.803316 -2.238437 0.000000000000000e+00 1851878480
3.429053 -1.211786 -2.278728 0.000000000000000e+00 1634890835
3.336019 -1.363183 -2.278728 0.000000000000000e+00 1634890835
3.090495 -1.628188 -2.238437 0.000000000000000e+00 1851878480
2.995003 -1.769117 -2.238438 0.000000000000000e+00 1851878480
3.365677 -1.188118 -2.278728 0.000000000000000e+00 1634890835
3.273545 -1.336997 -2.278729 0.000000000000000e+00 1634890835
3.030861 -1.597471 -2.238438 0.000000000000000e+00 1851878480
2.936229 -1.735860 -2.238438 0.000000000000000e+00 1851878480
3.303958 -1.165065 -2.278728 0.000000000000000e+00 1634890835
3.212715 -1.311498 -2.278728 0.000000000000000e+00 1634890835
2.972819 -1.567572 -2.238438 0.000000000000000e+00 1851878480
2.879037 -1.703498 -2.238437 0.000000000000000e+00 1851878480
3.243825 -1.142609 -2.278729 0.000000000000000e+00 1634890835
3.153458 -1.286659 -2.278728 0.000000000000000e+00 1634890835
2.916301 -1.538460 -2.238438 0.000000000000000e+00 1851878480
2.823361 -1.671995 -2.238437 0.000000000000000e+00 1851878480
3.185207 -1.120718 -2.278728 0.000000000000000e+00 1634890835
3.095705 -1.262450 -2.278728 0.000000000000000e+00 1634890835
2.861238 -1.510096 -2.238438 0.000000000000000e+00 1851878480
2.769130 -1.641310 -2.238437 0.000000000000000e+00 1851878480
3.128044 -1.099369 -2.278728 0.000000000000000e+00 1634890835
3.039390 -1.238846 -2.278728 0.000000000000000e+00 1634890835
2.807566 -1.482452 -2.238437 0.000000000000000e+00 1851878480
2.716282 -1.611408 -2.238438 0.000000000000000e+00 1851878480
3.072268 -1.078541 -2.278728 0.000000000000000e+00 1634890835
2.984453 -1.215817 -2.278729 0.000000000000000e+00 1634890835
2.755226 -1.455490 -2.238437 0.000000000000000e+00 1851878480
0.840392 -0.499000 -0.705943 0.000000000000000e+00 1886740808
3.017824 -1.058209 -2.278728 0.000000000000000e+00 1634890835
2.930834 -1.193341 -2.278728 0.000000000000000e+00 1634890835
2.704159 -1.429187 -2.238437 0.000000000000000e+00 1851878480
0.824540 -0.490031 -0.705943 0.000000000000000e+00 1886740808
2.964658 -1.038357 -2.278728 0.000000000000000e+00 1634890835
2.878480 -1.171398 -2.278728 0.000000000000000e+00 1634890835
0.837099 -0.442630 -0.705943 0.000000000000000e+00 1886740808
0.809070 -0.481279 -0.705943 0.000000000000000e+00 1886740808
2.912718 -1.018962 -2.278729 0.000000000000000e+00 1634890835
2.827341 -1.149960 -2.278729 0.000000000000000e+00 1634890835
0.821749 -0.434723 -0.705943 0.000000000000000e+00 1886740808
0.793967 -0.472733 -0.705943 0.000000000000000e+00 1886740808
2.861954 -1.000006 -2.278728 0.000000000000000e+00 1634890835
2.777365 -1.129013 -2.278728 0.000000000000000e+00 1634890835
0.806752 -0.426998 -0.705943 0.000000000000000e+00 1886740808
0.779214 -0.464386 -0.705943 0.000000000000000e+00 1886740808
2.812319 -0.981474 -2.278728 0.000000000000000e+00 1634890835
2.728506 -1.108534 -2.278728 0.000000000000000e+00 1634890835
0.792094 -0.419448 -0.705943 0.000000000000000e+00 1886740808
0.764797 -0.456231 -0.705943 0.000000000000000e+00 1886740808
2.763768 -0.963344 -2.278728 0.000000000000000e+00 1634890835
0.830479 -0.337215 -0.705943 0.000000000000000e+00 1886740808
0.777762 -0.412066 -0.705943 0.000000000000000e+00 1886740808
0.750703 -0.448257 -0.705943 0.000000000000000e+00 1886740808
0.841490 -0.292946 -0.705943 0.000000000000000e+00 1886740808
0.815995 -0.331144 -0.705943 0.000000000000000e+00 1886740808
0.763744 -0.404845 -0.705943 0.000000000000000e+00 1886740808
0.744295 -0.444867 -0.713009 0.000000000000000e+00 1886740808
0.827083 -0.287567 -0.705943 0.000000000000000e+00 1886740808
0.801818 -0.325202 -0.705943 0.000000000000000e+00 1886740808
0.750026 -0.397779 -0.705943 0.000000000000000e+00 1886740808
0.744295 -0.445311 -0.726301 0.000000000000000e+00 1886740808
0.812975 -0.282300 -0.705943 0.000000000000000e+00 1886740808
0.787937 -0.319383 -0.705943 0.000000000000000e+00 1886740808
0.744295 -0.394947 -0.713321 0.000000000000000e+00 1886740808
0.744295 -0.445761 -0.739800 0.000000000000000e+00 1886740808
0.799155 -0.277140 -0.705943 0.000000000000000e+00 1886740808
0.774339 -0.313684 -0.705943 0.000000000000000e+00 1886740808
0.744295 -0.395158 -0.726288 0.000000000000000e+00 1886740808
0.744295 -0.446220 -0.753513 0.000000000000000e+00 1886740808
0.785612 -0.272084 -0.705943 0.000000000000000e+00 1886740808
0.761016 -0.308100 -0.705943 0.000000000000000e+00 1886740808
0.744295 -0.395372 -0.739456 0.000000000000000e+00 1886740808
0.744295 -0.446685 -0.767447 0.000000000000000e+00 1886740808
0.772336 -0.267127 -0.705943 0.000000000000000e+00 1886740808
0.747956 -0.302626 -0.705943 0.000000000000000e+00 1886740808
0.744294 -0.395589 -0.752833 0.000000000000000e+00 1886740808
0.744295 -0.447158 -0.781609 0.000000000000000e+00 1886740808
0.759317 -0.262267 -0.705943 0.000000000000000e+00 1886740808
0.744295 -0.300956 -0.714724 0.000000000000000e+00 1886740808
0.744295 -0.395810 -0.766425 0.000000000000000e+00 1886740808
0.744294 -0.447639 -0.796009 0.000000000000000e+00 1886740808
0.746546 -0.257499 -0.705943 0.000000000000000e+00 1886740808
0.744295 -0.300765 -0.727149 0.000000000000000e+00 1886740808
0.744295 -0.396034 -0.780241 0.000000000000000e+00 1886740808
2.092194 -1.259679 -2.278729 0.000000000000000e+00 1634890835
0.744295 -0.256362 -0.715831 0.000000000000000e+00 1886740808
0.744295 -0.300570 -0.739767 0.000000000000000e+00 1886740808
0.744295 -0.396263 -0.794287 0.000000000000000e+00 1886740808
2.054435 -1.238320 -2.278729 0.000000000000000e+00 1634890835
0.744295 -0.255996 -0.728032 0.000000000000000e+00 1886740808
0.744295 -0.300373 -0.752585 0.000000000000000e+00 1886740808
2.097580 -1.117405 -2.278729 0.000000000000000e+00 1634890835
2.017384 -1.217362 -2.278729 0.000000000000000e+00 1634890835
0.744295 -0.255624 -0.740424 0.000000000000000e+00 1886740808
0.744295 -0.300172 -0.765611 0.000000000000000e+00 1886740808
2.060546 -1.098331 -2.278729 0.000000000000000e+00 1634890835
0.796275 -0.481053 -0.915943 0.000000000000000e+00 1886740808
0.744295 -0.255246 -0.753013 0.000000000000000e+00 1886740808
0.744295 -0.299969 -0.778850 0.000000000000000e+00 1886740808
2.024179 -1.079600 -2.278729 0.000000000000000e+00 1634890835
0.784637 -0.474577 -0.919124 0.000000000000000e+00 1886740808
0.744295 -0.254862 -0.765806 0.000000000000000e+00 1886740808
0.744295 -0.299762 -0.792310 0.000000000000000e+00 1886740808
1.988455 -1.061200 -2.278729 0.000000000000000e+00 1634890835
0.775674 -0.469714 -0.925310 0.000000000000000e+00 1886740808
0.744295 -0.254473 -0.778810 0.000000000000000e+00 1886740808
2.104273 -0.846892 -2.278729 0.000000000000000e+00 1634890835
0.797389 -0.425818 -0.930214 0.000000000000000e+00 1886740808
0.768824 -0.466131 -0.933991 0.000000000000000e+00 1886740808
0.744295 -0.254076 -0.792031 0.000000000000000e+00 1886740808
2.068532 -0.831913 -2.278729 0.000000000000000e+00 1634890835
0.785519 -0.419748 -0.932845 0.000000000000000e+00 1886740808
0.764551 -0.464112 -0.945880 0.000000000000000e+00 1886740808
0.744295 -0.253673 -0.805478 0.000000000000000e+00 1886740808
2.033386 -0.817182 -2.278729 0.000000000000000e+00 1634890835
0.776432 -0.415162 -0.938649 0.000000000000000e+00 1886740808
1.808581 -1.099258 -2.278726 0.000000000000000e+00 1634890835
2.070473 -0.704527 -2.278728 0.000000000000000e+00 1634890835
1.998816 -0.802692 -2.278729 0.000000000000000e+00 1634890835
0.769418 -0.411685 -0.946933 0.000000000000000e+00 1886740808
1.775830 -1.080734 -2.278726 0.000000000000000e+00 1634890835
2.035873 -0.691613 -2.278728 0.000000000000000e+00 1634890835
1.964801 -0.788436 -2.278728 0.000000000000000e+00 1634890835
0.764807 -0.409493 -0.958245 0.000000000000000e+00 1886740808
0.749057 -0.456456 -0.978943 0.000000000000000e+00 1886740808
2.001820 -0.678902 -2.278729 0.000000000000000e+00 1634890835
1.931325 -0.774406 -2.278729 0.000000000000000e+00 1634890835
0.767173 -0.411043 -0.978592 0.000000000000000e+00 1886740808
1.711907 -1.044581 -2.278726 0.000000000000000e+00 1634890835
1.968295 -0.666389 -2.278729 0.000000000000000e+00 1634890835
0.797682 -0.319597 -0.957506 0.000000000000000e+00 1886740808
1.754622 -0.940768 -2.278726 0.000000000000000e+00 1634890835
1.680700 -1.026932 -2.278726 0.000000000000000e+00 1634890835
1.935282 -0.654068 -2.278728 0.000000000000000e+00 1634890835
0.785811 -0.314588 -0.959662 0.000000000000000e+00 1886740808
0.751062 -0.402982 -0.993125 0.000000000000000e+00 1886740808
1.649975 -1.009555 -2.278726 0.000000000000000e+00 1634890835
1.902763 -0.641933 -2.278728 0.000000000000000e+00 1634890835
0.776732 -0.310699 -0.965106 0.000000000000000e+00 1886740808
1.692477 -0.908759 -2.278726 0.000000000000000e+00 1634890835
1.619716 -0.992442 -2.278726 0.000000000000000e+00 1634890835
0.796758 -0.268312 -0.970530 0.000000000000000e+00 1886740808
0.769657 -0.307612 -0.973023 0.000000000000000e+00 1886740808
1.662097 -0.893113 -2.278726 0.000000000000000e+00 1634890835
1.589906 -0.975583 -2.278726 0.000000000000000e+00 1634890835
0.785169 -0.263918 -0.972833 0.000000000000000e+00 1886740808
0.764880 -0.305443 -0.983926 0.000000000000000e+00 1886740808
1.632161 -0.877695 -2.278726 0.000000000000000e+00 1634890835
1.560533 -0.958973 -2.278726 0.000000000000000e+00 1634890835
0.776223 -0.260416 -0.978304 0.000000000000000e+00 1886740808
0.765621 -0.305473 -1.002186 0.000000000000000e+00 1886740808
1.602653 -0.862498 -2.278726 0.000000000000000e+00 1634890835
1.531581 -0.942599 -2.278726 0.000000000000000e+00 1634890835
0.769284 -0.257587 -0.986299 0.000000000000000e+00 1886740808
1.710671 -0.681928 -2.278726 0.000000000000000e+00 1634890835
1.573560 -0.847513 -2.278726 0.000000000000000e+00 1634890835
1.503037 -0.926458 -2.278726 0.000000000000000e+00 1634890835
0.764663 -0.255533 -0.997359 0.000000000000000e+00 1886740808
1.680925 -0.669462 -2.278726 0.000000000000000e+00 1634890835
1.544869 -0.832737 -2.278726 0.000000000000000e+00 1634890835
1.474889 -0.910540 -2.278726 0.000000000000000e+00 1634890835
0.766231 -0.255537 -1.016779 0.000000000000000e+00 1886740808
0.744048 -0.296057 -1.026582 0.000000000000000e+00 1886740808
1.516567 -0.818161 -2.278726 0.000000000000000e+00 1634890835
1.447124 -0.894838 -2.278726 0.000000000000000e+00 1634890835
1.687758 -0.561696 -2.278726 0.000000000000000e+00 1634890835
1.622623 -0.645028 -2.278727 0.000000000000000e+00 1634890835
1.488642 -0.803778 -2.278726 0.000000000000000e+00 1634890835
1.419728 -0.879347 -2.278727 0.000000000000000e+00 1634890835
0.752066 -0.249760 -1.033200 0.000000000000000e+00 1886740808
1.594047 -0.633052 -2.278726 0.000000000000000e+00 1634890835
1.461081 -0.789587 -2.278726 0.000000000000000e+00 1634890835
1.392691 -0.864060 -2.278726 0.000000000000000e+00 1634890835
1.629982 -0.540137 -2.278727 0.000000000000000e+00 1634890835
1.565837 -0.621229 -2.278726 0.000000000000000e+00 1634890835
1.433877 -0.775575 -2.278727 0.000000000000000e+00 1634890835
1.366004 -0.848968 -2.278726 0.000000000000000e+00 1634890835
1.601641 -0.529563 -2.278726 0.000000000000000e+00 1634890835
1.537981 -0.609555 -2.278726 0.000000000000000e+00 1634890835
1.407014 -0.761740 -2.278726 0.000000000000000e+00 1634890835
1.339653 -0.834067 -2.278726 0.000000000000000e+00 1634890835
1.573652 -0.519120 -2.278726 0.000000000000000e+00 1634890835
1.510471 -0.598026 -2.278726 0.000000000000000e+00 1634890835
1.380484 -0.748077 -2.278726 0.000000000000000e+00 1634890835
1.313628 -0.819351 -2.278726 0.000000000000000e+00 1634890835
1.546004 -0.508802 -2.278726 0.000000000000000e+00 1634890835
1.483294 -0.586636 -2.278726 0.000000000000000e+00 1634890835
1.354277 -0.734580 -2.278727 0.000000000000000e+00 1634890835
1.287920 -0.804815 -2.278726 0.000000000000000e+00 1634890835
1.518685 -0.498609 -2.278726 0.000000000000000e+00 1634890835
1.456443 -0.575382 -2.278726 0.000000000000000e+00 1634890835
1.328382 -0.721244 -2.278727 0.000000000000000e+00 1634890835
1.262519 -0.790452 -2.278727 0.000000000000000e+00 1634890835
1.491688 -0.488535 -2.278726 0.000000000000000e+00 1634890835
1.429906 -0.564261 -2.278726 0.000000000000000e+00 1634890835
1.302791 -0.708064 -2.278726 0.000000000000000e+00 1634890835
1.237416 -0.776258 -2.278727 0.000000000000000e+00 1634890835
1.465000 -0.478578 -2.278726 0.000000000000000e+00 1634890835
1.403673 -0.553268 -2.278726 0.000000000000000e+00 1634890835
1.277493 -0.695036 -2.278726 0.000000000000000e+00 1634890835
1.212600 -0.762228 -2.278726 0.000000000000000e+00 1634890835
1.438615 -0.468734 -2.278726 0.000000000000000e+00 1634890835
1.377737 -0.542399 -2.278726 0.000000000000000e+00 1634890835
1.252480 -0.682154 -2.278726 0.000000000000000e+00 1634890835
1.188066 -0.748353 -2.278727 0.000000000000000e+00 1634890835
1.412522 -0.458998 -2.278726 0.000000000000000e+00 1634890835
1.352087 -0.531649 -2.278726 0.000000000000000e+00 1634890835
1.227743 -0.669413 -2.278726 0.000000000000000e+00 1634890835
1.163801 -0.734634 -2.278727 0.000000000000000e+00 1634890835
1.386713 -0.449370 -2.278726 0.000000000000000e+00 1634890835
1.326717 -0.521017 -2.278726 0.000000000000000e+00 1634890835
1.203274 -0.656813 -2.278727 0.000000000000000e+00 1634890835
1.139799 -0.721064 -2.278727 0.000000000000000e+00 1634890835
1.361180 -0.439844 -2.278726 0.000000000000000e+00 1634890835
1.301617 -0.510498 -2.278726 0.000000000000000e+00 1634890835
1.179066 -0.644345 -2.278727 0.000000000000000e+00 1634890835
1.116052 -0.707638 -2.278727 0.000000000000000e+00 1634890835
1.335915 -0.430417 -2.278727 0.000000000000000e+00 1634890835
1.276778 -0.500089 -2.278726 0.000000000000000e+00 1634890835
1.155109 -0.632009 -2.278727 0.000000000000000e+00 1634890835
1.092553 -0.694350 -2.278727 0.000000000000000e+00 1634890835
1.310909 -0.421088 -2.278726 0.000000000000000e+00 1634890835
1.252195 -0.489786 -2.278727 0.000000000000000e+00 1634890835
1.131398 -0.619796 -2.278727 0.000000000000000e+00 1634890835
1.069293 -0.681200 -2.278727 0.000000000000000e+00 1634890835
1.286156 -0.411854 -2.278726 0.000000000000000e+00 1634890835
1.227859 -0.479588 -2.278726 0.000000000000000e+00 1634890835
1.107924 -0.607707 -2.278726 0.000000000000000e+00 1634890835
1.046266 -0.668181 -2.278727 0.000000000000000e+00 1634890835
1.261647 -0.402710 -2.278727 0.000000000000000e+00 1634890835
1.203763 -0.469490 -2.278727 0.000000000000000e+00 1634890835
1.084680 -0.595737 -2.278727 0.000000000000000e+00 1634890835
1.023464 -0.655289 -2.278727 0.000000000000000e+00 1634890835
1.237376 -0.393656 -2.278726 0.000000000000000e+00 1634890835
1.179899 -0.459490 -2.278727 0.000000000000000e+00 1634890835
1.061658 -0.583882 -2.278727 0.000000000000000e+00 1634890835
1.000880 -0.642521 -2.278727 0.000000000000000e+00 1634890835
1.213336 -0.384687 -2.278726 0.000000000000000e+00 1634890835
1.156262 -0.449584 -2.278727 0.000000000000000e+00 1634890835
1.038854 -0.572138 -2.278727 0.000000000000000e+00 1634890835
0.978510 -0.629874 -2.278727 0.000000000000000e+00 1634890835
1.189520 -0.375802 -2.278727 0.000000000000000e+00 1634890835
1.132843 -0.439770 -2.278726 0.000000000000000e+00 1634890835
1.016260 -0.560501 -2.278726 0.000000000000000e+00 1634890835
0.956343 -0.617343 -2.278726 0.000000000000000e+00 1634890835
1.165920 -0.366999 -2.278726 0.000000000000000e+00 1634890835
1.109637 -0.430046 -2.278727 0.000000000000000e+00 1634890835
0.993869 -0.548971 -2.278727 0.000000000000000e+00 1634890835
0.934377 -0.604923 -2.278727 0.000000000000000e+00 1634890835
1.142532 -0.358274 -2.278726 0.000000000000000e+00 1634890835
1.086638 -0.420407 -2.278727 0.000000000000000e+00 1634890835
0.971676 -0.537541 -2.278726 0.000000000000000e+00 1634890835
0.912604 -0.592614 -2.278727 0.000000000000000e+00 1634890835
1.119349 -0.349626 -2.278727 0.000000000000000e+00 1634890835
1.063839 -0.410853 -2.278726 0.000000000000000e+00 1634890835
0.949675 -0.526211 -2.278727 0.000000000000000e+00 1634890835
0.891018 -0.580410 -2.278727 0.000000000000000e+00 1634890835
1.096364 -0.341051 -2.278727 0.000000000000000e+00 1634890835
1.041233 -0.401379 -2.278727 0.000000000000000e+00 1634890835
0.927858 -0.514976 -2.278727 0.000000000000000e+00 1634890835
0.869613 -0.568309 -2.278726 0.000000000000000e+00 1634890835
1.073571 -0.332549 -2.278727 0.000000000000000e+00 1634890835
1.018817 -0.391985 -2.278727 0.000000000000000e+00 1634890835
0.906222 -0.503834 -2.278727 0.000000000000000e+00 1634890835
0.848384 -0.556308 -2.278727 0.000000000000000e+00 1634890835
1.050966 -0.324117 -2.278727 0.000000000000000e+00 1634890835
0.996582 -0.382668 -2.278727 0.000000000000000e+00 1634890835
0.884761 -0.492782 -2.278727 0.000000000000000e+00 1634890835
0.827326 -0.544404 -2.278727 0.000000000000000e+00 1634890835
1.028542 -0.315752 -2.278727 0.000000000000000e+00 1634890835
0.974526 -0.373425 -2.278727 0.000000000000000e+00 1634890835
0.863469 -0.481816 -2.278727 0.000000000000000e+00 1634890835
0.451008 -0.297859 -1.274407 0.000000000000000e+00 1936876886
1.006294 -0.307453 -2.278726 0.000000000000000e+00 1634890835
0.952641 -0.364254 -2.278726 0.000000000000000e+00 1634890835
0.842340 -0.470936 -2.278726 0.000000000000000e+00 1634890835
0.433311 -0.287259 -1.256709 0.000000000000000e+00 1936876886
0.984217 -0.299218 -2.278727 0.000000000000000e+00 1634890835
0.930923 -0.355153 -2.278727 0.000000000000000e+00 1634890835
0.821371 -0.460137 -2.278727 0.000000000000000e+00 1634890835
0.421236 -0.280360 -1.254547 0.000000000000000e+00 1936876886
0.962305 -0.291044 -2.278726 0.000000000000000e+00 1634890835
0.909366 -0.346118 -2.278727 0.000000000000000e+00 1634890835
0.445940 -0.250343 -1.269338 0.000000000000000e+00 1936876886
0.335119 -0.223965 -1.025446 0.000000000000000e+00 1953264973
0.940553 -0.282931 -2.278727 0.000000000000000e+00 1634890835
0.887966 -0.337151 -2.278727 0.000000000000000e+00 1634890835
0.428905 -0.241307 -1.253203 0.000000000000000e+00 1936876886
0.306464 -0.205699 -0.964021 0.000000000000000e+00 1953264973
0.495093 -0.148090 -1.227675 0.000000000000000e+00 1936876886
0.866717 -0.328247 -2.278727 0.000000000000000e+00 1634890835
0.358545 -0.202183 -1.075932 0.000000000000000e+00 1953264973
0.281216 -0.189603 -0.909896 0.000000000000000e+00 1953264973
0.483540 -0.143780 -1.227676 0.000000000000000e+00 1936876886
0.845615 -0.319403 -2.278727 0.000000000000000e+00 1634890835
0.326686 -0.184659 -1.007370 0.000000000000000e+00 1953264973
0.258795 -0.175311 -0.861835 0.000000000000000e+00 1953264973
0.472064 -0.139500 -1.227675 0.000000000000000e+00 1936876886
0.824655 -0.310620 -2.278727 0.000000000000000e+00 1634890835
0.299046 -0.169459 -0.948119 0.000000000000000e+00 1953264973
0.238750 -0.162533 -0.818864 0.000000000000000e+00 1953264973
