# .PCD v0.7 - Point Cloud Data file format
VERSION 0.7
FIELDS x y z rgb label
SIZE 4 4 4 4 4
TYPE F F F F U
COUNT 1 1 1 1 1
WIDTH 539
HEIGHT 1
VIEWPOINT 0 0 0 1 0 0 0
POINTS 539
DATA ascii
41.658527 -17.623848 10.091398 0.000000000000000e+00 1954047316
39.897491 -20.390316 10.296657 0.000000000000000e+00 1954047316
39.875042 -20.385439 9.876135 0.000000000000000e+00 1954047316
31.956062 -11.880766 -2.030303 0.000000000000000e+00 1851878480
31.241226 -13.068050 -1.904536 0.000000000000000e+00 1851878480
28.680845 -14.800617 -1.550926 0.000000000000000e+00 1851878480
27.707302 -15.731231 -1.375932 0.000000000000000e+00 1851878480
28.882481 -10.729914 -2.097412 0.000000000000000e+00 1851878480
28.196709 -11.790434 -1.982904 0.000000000000000e+00 1851878480
26.790131 -13.829211 -1.716083 0.000000000000000e+00 1851878480
26.067732 -14.809074 -1.563736 0.000000000000000e+00 1851878480
26.549759 -9.855806 -2.169425 0.000000000000000e+00 1851878480
26.148287 -10.930042 -2.083884 0.000000000000000e+00 1851878480
25.406164 -13.118862 -1.881313 0.000000000000000e+00 1851878480
24.888163 -14.147296 -1.750357 0.000000000000000e+00 1851878480
24.275324 -9.004642 -2.204544 0.000000000000000e+00 1851878480
24.570274 -10.266821 -2.188634 0.000000000000000e+00 1851878480
23.895311 -12.342526 -2.008539 0.000000000000000e+00 1851878480
23.578648 -13.410858 -1.902454 0.000000000000000e+00 1851878480
22.351034 -8.284534 -2.233482 0.000000000000000e+00 1851878480
22.624750 -9.450558 -2.227858 0.000000000000000e+00 1851878480
22.225803 -11.483759 -2.090935 0.000000000000000e+00 1851878480
21.974543 -12.505884 -2.000969 0.000000000000000e+00 1851878480
20.537951 -7.606704 -2.239718 0.000000000000000e+00 1851878480
20.707621 -8.646703 -2.233869 0.000000000000000e+00 1851878480
20.718494 -10.708271 -2.157089 0.000000000000000e+00 1851878480
20.367092 -11.597951 -2.066234 0.000000000000000e+00 1851878480
18.934555 -7.007492 -2.237907 0.000000000000000e+00 1851878480
19.016388 -7.937711 -2.230591 0.000000000000000e+00 1851878480
19.297260 -9.976824 -2.203161 0.000000000000000e+00 1851878480
18.995979 -10.823594 -2.124910 0.000000000000000e+00 1851878480
17.580378 -6.501338 -2.238783 0.000000000000000e+00 1851878480
17.625601 -7.354575 -2.233804 0.000000000000000e+00 1851878480
17.754126 -9.181875 -2.205859 0.000000000000000e+00 1851878480
17.735243 -10.111266 -2.168916 0.000000000000000e+00 1851878480
16.416790 -6.066379 -2.241154 0.000000000000000e+00 1851878480
16.473789 -6.871533 -2.243603 0.000000000000000e+00 1851878480
16.500616 -8.536271 -2.216718 0.000000000000000e+00 1851878480
16.551561 -9.442051 -2.197236 0.000000000000000e+00 1851878480
15.312490 -5.653970 -2.231089 0.000000000000000e+00 1851878480
15.346748 -6.399146 -2.235517 0.000000000000000e+00 1851878480
15.448204 -7.994328 -2.231662 0.000000000000000e+00 1851878480
15.479370 -8.835685 -2.217153 0.000000000000000e+00 1851878480
8.281494 -3.055490 -1.282893 1.880790849211783e-38 1684957512
8.249865 -3.438729 -1.280071 1.880790849211783e-38 1684957512
14.487374 -7.499461 -2.239817 0.000000000000000e+00 1851878480
14.437496 -8.245917 -2.219642 0.000000000000000e+00 1851878480
7.809829 -2.879244 -1.281893 1.880790849211783e-38 1684957512
7.836762 -3.265377 -1.290562 1.880790849211783e-38 1684957512
13.645542 -7.065910 -2.248445 0.000000000000000e+00 1851878480
13.646882 -7.799043 -2.241896 0.000000000000000e+00 1851878480
7.387968 -2.721607 -1.280984 1.880790849211783e-38 1684957512
7.403988 -3.083946 -1.289938 1.880790849211783e-38 1684957512
12.864072 -6.663353 -2.250869 0.000000000000000e+00 1851878480
12.841412 -7.343146 -2.245285 0.000000000000000e+00 1851878480
7.049372 -2.594854 -1.287645 1.880790849211783e-38 1684957512
6.998931 -2.914188 -1.286327 1.880790849211783e-38 1684957512
12.136732 -6.288598 -2.247740 0.000000000000000e+00 1851878480
12.067262 -6.904637 -2.237849 0.000000000000000e+00 1851878480
6.637977 -2.441516 -1.274217 1.880790849211783e-38 1684957512
6.651472 -2.768517 -1.286278 1.880790849211783e-38 1684957512
6.565918 -3.403183 -1.283378 1.880790849211783e-38 1684957512
11.400824 -6.527260 -2.235504 0.000000000000000e+00 1851878480
6.416300 -2.358135 -1.291490 1.880790849211783e-38 1684957512
6.297022 -2.620039 -1.278322 1.880790849211783e-38 1684957512
6.335602 -3.284851 -1.303569 1.880790849211783e-38 1684957512
10.862639 -6.222918 -2.245889 0.000000000000000e+00 1851878480
6.314896 -2.319045 -1.330134 1.880790849211783e-38 1684957512
6.293887 -2.617787 -1.338431 1.880790849211783e-38 1684957512
6.298419 -3.266615 -1.360964 1.880790849211783e-38 1684957512
10.309299 -5.909525 -2.241884 0.000000000000000e+00 1851878480
6.325841 -2.321237 -1.391784 1.880790849211783e-38 1684957512
6.291050 -2.615656 -1.398746 1.880790849211783e-38 1684957512
6.367260 -3.303383 -1.441831 1.880790849211783e-38 1684957512
9.821002 -5.633070 -2.241265 0.000000000000000e+00 1851878480
6.248836 -2.291168 -1.433655 1.880790849211783e-38 1684957512
6.289136 -2.613909 -1.459426 1.880790849211783e-38 1684957512
6.301905 -3.270527 -1.492588 1.880790849211783e-38 1684957512
9.379581 -5.383189 -2.241739 0.000000000000000e+00 1851878480
6.242999 -2.287214 -1.491276 1.880790849211783e-38 1684957512
6.352566 -2.639306 -1.536087 1.880790849211783e-38 1684957512
6.330825 -3.286598 -1.565549 1.880790849211783e-38 1684957512
8.975197 -5.154280 -2.242331 0.000000000000000e+00 1851878480
6.227374 -2.279671 -1.546566 1.880790849211783e-38 1684957512
6.273176 -2.605363 -1.578286 1.880790849211783e-38 1684957512
6.314410 -3.279138 -1.627697 1.880790849211783e-38 1684957512
8.577193 -4.928761 -2.236216 0.000000000000000e+00 1851878480
6.281673 -2.297714 -1.619813 1.880790849211783e-38 1684957512
6.255590 -2.597103 -1.635323 1.880790849211783e-38 1684957512
6.336845 -3.291861 -1.700202 1.880790849211783e-38 1684957512
8.207007 -4.718975 -2.229390 0.000000000000000e+00 1851878480
6.271806 -2.292264 -1.677169 1.880790849211783e-38 1684957512
6.305907 -2.617024 -1.710683 1.880790849211783e-38 1684957512
6.326138 -3.287376 -1.764231 1.880790849211783e-38 1684957512
7.954736 -4.576780 -2.248189 0.000000000000000e+00 1851878480
6.293229 -2.298239 -1.743246 1.880790849211783e-38 1684957512
6.285439 -2.607562 -1.767398 1.880790849211783e-38 1684957512
6.341449 -3.296411 -1.835869 1.880790849211783e-38 1684957512
7.636109 -4.396213 -2.242366 0.000000000000000e+00 1851878480
6.248661 -2.280111 -1.791073 1.880790849211783e-38 1684957512
6.267859 -2.599298 -1.824815 1.880790849211783e-38 1684957512
6.334446 -3.293860 -1.901452 1.880790849211783e-38 1684957512
7.354888 -4.236979 -2.241307 0.000000000000000e+00 1851878480
6.277246 -2.288679 -1.859978 1.880790849211783e-38 1684957512
6.276921 -2.602078 -1.890187 1.880790849211783e-38 1684957512
6.308205 -3.281303 -1.961232 1.880790849211783e-38 1684957512
7.065217 -4.072690 -2.231745 0.000000000000000e+00 1851878480
6.232924 -2.270660 -1.907399 1.880790849211783e-38 1684957512
6.278621 -2.601803 -1.953742 1.880790849211783e-38 1684957512
6.323591 -3.290401 -2.034180 1.880790849211783e-38 1684957512
6.857476 -3.955451 -2.242920 0.000000000000000e+00 1851878480
6.308282 -2.296228 -1.992037 1.880790849211783e-38 1684957512
6.298429 -2.609023 -2.023457 1.880790849211783e-38 1684957512
6.316718 -3.287926 -2.100417 1.880790849211783e-38 1684957512
6.660694 -3.844406 -2.253558 0.000000000000000e+00 1851878480
6.261770 -2.277413 -2.038764 1.880790849211783e-38 1684957512
6.272432 -2.597263 -2.078707 1.880790849211783e-38 1684957512
6.331923 -3.296949 -2.174453 1.880790849211783e-38 1684957512
6.436850 -3.717601 -2.250707 0.000000000000000e+00 1851878480
6.255546 -2.273258 -2.098398 1.880790849211783e-38 1684957512
6.280260 -2.599509 -2.145313 1.880790849211783e-38 1684957512
6.343088 -3.303885 -2.247773 1.880790849211783e-38 1684957512
6.200635 -3.583491 -2.238727 0.000000000000000e+00 1851878480
6.288202 -2.283218 -2.171654 1.880790849211783e-38 1684957512
6.281926 -2.599198 -2.210251 1.880790849211783e-38 1684957512
6.157057 -3.208079 -2.249684 0.000000000000000e+00 1851878480
6.013544 -3.477631 -2.240072 0.000000000000000e+00 1851878480
6.235006 -2.262002 -2.215387 1.880790849211783e-38 1684957512
6.215562 -2.570745 -2.250941 0.000000000000000e+00 1851878480
5.986687 -3.120378 -2.253780 0.000000000000000e+00 1851878480
5.845975 -3.382940 -2.245036 0.000000000000000e+00 1851878480
6.166207 -2.235152 -2.252697 0.000000000000000e+00 1851878480
6.033199 -2.494345 -2.247412 0.000000000000000e+00 1851878480
5.764863 -3.005793 -2.234548 0.000000000000000e+00 1851878480
5.646471 -3.269644 -2.233917 0.000000000000000e+00 1851878480
5.927728 -2.146881 -2.225274 0.000000000000000e+00 1851878480
5.894094 -2.435882 -2.257021 0.000000000000000e+00 1851878480
5.671210 -2.957988 -2.261874 0.000000000000000e+00 1851878480
5.538459 -3.209221 -2.255843 0.000000000000000e+00 1851878480
5.825003 -2.107874 -2.245718 0.000000000000000e+00 1851878480
5.746688 -2.374027 -2.260824 0.000000000000000e+00 1851878480
5.485288 -2.862012 -2.249658 0.000000000000000e+00 1851878480
5.361282 -3.108631 -2.246688 0.000000000000000e+00 1851878480
5.692699 -2.058224 -2.252721 0.000000000000000e+00 1851878480
5.578076 -2.303457 -2.253331 0.000000000000000e+00 1851878480
5.373267 -2.804549 -2.264788 0.000000000000000e+00 1851878480
5.167282 -2.998155 -2.226536 0.000000000000000e+00 1851878480
5.525427 -1.996015 -2.243179 0.000000000000000e+00 1851878480
5.442271 -2.246478 -2.256243 0.000000000000000e+00 1851878480
5.226291 -2.728798 -2.262644 0.000000000000000e+00 1851878480
5.076070 -2.947226 -2.247724 0.000000000000000e+00 1851878480
5.370815 -1.938472 -2.235825 0.000000000000000e+00 1851878480
5.329553 -2.199069 -2.266458 0.000000000000000e+00 1851878480
5.042914 -2.633990 -2.241364 0.000000000000000e+00 1851878480
4.902962 -2.848655 -2.229921 0.000000000000000e+00 1851878480
5.229634 -1.885858 -2.231357 0.000000000000000e+00 1851878480
5.234087 -2.158803 -2.282157 0.000000000000000e+00 1851878480
4.980853 -2.602506 -2.271584 0.000000000000000e+00 1851878480
4.812326 -2.797914 -2.246889 0.000000000000000e+00 1851878480
5.164123 -1.860587 -2.257386 0.000000000000000e+00 1851878480
5.053335 -2.083403 -2.258070 0.000000000000000e+00 1851878480
4.794605 -2.506096 -2.242693 0.000000000000000e+00 1851878480
4.688214 -2.727634 -2.246061 0.000000000000000e+00 1851878480
5.001659 -1.800449 -2.239006 0.000000000000000e+00 1851878480
4.933795 -2.033283 -2.258459 0.000000000000000e+00 1851878480
4.688596 -2.451573 -2.248329 0.000000000000000e+00 1851878480
4.533592 -2.639511 -2.227651 0.000000000000000e+00 1851878480
4.903648 -1.763586 -2.247098 0.000000000000000e+00 1851878480
4.799878 -1.977278 -2.249880 0.000000000000000e+00 1851878480
4.555078 -2.382633 -2.238366 0.000000000000000e+00 1851878480
4.458115 -2.597387 -2.245742 0.000000000000000e+00 1851878480
4.788185 -1.720500 -2.245293 0.000000000000000e+00 1851878480
4.716980 -1.942320 -2.263217 0.000000000000000e+00 1851878480
4.458326 -2.332886 -2.244156 0.000000000000000e+00 1851878480
4.377862 -2.552432 -2.259944 0.000000000000000e+00 1851878480
4.690497 -1.683864 -2.249915 0.000000000000000e+00 1851878480
4.585084 -1.887215 -2.251050 0.000000000000000e+00 1851878480
4.353708 -2.278991 -2.243996 0.000000000000000e+00 1851878480
4.282475 -2.498598 -2.264588 0.000000000000000e+00 1851878480
4.590087 -1.646304 -2.251470 0.000000000000000e+00 1851878480
4.432110 -1.823480 -2.225740 0.000000000000000e+00 1851878480
4.273850 -2.238027 -2.254799 0.000000000000000e+00 1851878480
4.135278 -2.414450 -2.239228 0.000000000000000e+00 1851878480
4.436006 -1.589570 -2.224312 0.000000000000000e+00 1851878480
4.385448 -1.803512 -2.251966 0.000000000000000e+00 1851878480
4.194473 -2.197290 -2.264352 0.000000000000000e+00 1851878480
4.053757 -2.368568 -2.246981 0.000000000000000e+00 1851878480
4.393955 -1.573030 -2.251565 0.000000000000000e+00 1851878480
4.327247 -1.778811 -2.271476 0.000000000000000e+00 1851878480
4.113851 -2.155877 -2.271708 0.000000000000000e+00 1851878480
3.945382 -2.306928 -2.237871 0.000000000000000e+00 1851878480
4.363861 -1.560787 -2.284536 0.000000000000000e+00 1851878480
4.188552 -1.721051 -2.246881 0.000000000000000e+00 1851878480
3.997241 -2.095574 -2.257188 0.000000000000000e+00 1851878480
3.897147 -2.280406 -2.261312 0.000000000000000e+00 1851878480
4.168394 -1.489458 -2.228809 0.000000000000000e+00 1851878480
4.165891 -1.710990 -2.283078 0.000000000000000e+00 1851878480
3.918786 -2.055241 -2.262222 0.000000000000000e+00 1851878480
3.770514 -2.207948 -2.237443 0.000000000000000e+00 1851878480
4.142936 -1.478944 -2.261904 0.000000000000000e+00 1851878480
4.023644 -1.651839 -2.252228 0.000000000000000e+00 1851878480
3.836749 -2.013005 -2.263614 0.000000000000000e+00 1851878480
3.691211 -2.163134 -2.239416 0.000000000000000e+00 1851878480
4.045126 -1.442632 -2.254499 0.000000000000000e+00 1851878480
3.947913 -1.620027 -2.256465 0.000000000000000e+00 1851878480
3.742510 -1.964337 -2.256017 0.000000000000000e+00 1851878480
3.637144 -2.133064 -2.255401 0.000000000000000e+00 1851878480
4.022459 -1.433149 -2.288004 0.000000000000000e+00 1634890835
3.881830 -1.592193 -2.264957 0.000000000000000e+00 1851878480
3.667590 -1.925783 -2.258349 0.000000000000000e+00 1851878480
3.586746 -2.105117 -2.272740 0.000000000000000e+00 1851878480
3.930748 -1.399092 -2.281329 0.000000000000000e+00 1634890835
3.813276 -1.563365 -2.270823 0.000000000000000e+00 1851878480
3.595604 -1.888741 -2.261044 0.000000000000000e+00 1851878480
3.485531 -2.047292 -2.256308 0.000000000000000e+00 1851878480
3.891830 -1.383863 -2.304193 0.000000000000000e+00 1634890835
3.721977 -1.525236 -2.261641 0.000000000000000e+00 1851878480
3.546578 -1.863747 -2.277061 0.000000000000000e+00 1851878480
3.376875 -1.985019 -2.232668 0.000000000000000e+00 1851878480
3.758324 -1.335049 -2.269451 0.000000000000000e+00 1634890835
3.627353 -1.485773 -2.248606 0.000000000000000e+00 1851878480
3.451551 -1.814557 -2.262109 0.000000000000000e+00 1851878480
3.339169 -1.964402 -2.254405 0.000000000000000e+00 1851878480
3.684377 -1.307453 -2.268641 0.000000000000000e+00 1634890835
3.585295 -1.467860 -2.266912 0.000000000000000e+00 1851878480
3.362284 -1.768361 -2.248942 0.000000000000000e+00 1851878480
3.241601 -1.908526 -2.234328 0.000000000000000e+00 1851878480
3.646767 -1.292781 -2.289300 0.000000000000000e+00 1634890835
3.513234 -1.437677 -2.265270 0.000000000000000e+00 1851878480
3.280430 -1.726034 -2.238900 0.000000000000000e+00 1851878480
3.189543 -1.879386 -2.244006 0.000000000000000e+00 1851878480
3.554948 -1.258925 -2.274797 0.000000000000000e+00 1634890835
3.501079 -1.432021 -2.301649 0.000000000000000e+00 1634890835
3.228122 -1.699231 -2.247674 0.000000000000000e+00 1851878480
3.142975 -1.853454 -2.256643 0.000000000000000e+00 1851878480
3.462571 -1.224926 -2.258125 0.000000000000000e+00 1634890835
3.448736 -1.409930 -2.311247 0.000000000000000e+00 1634890835
3.193204 -1.681570 -2.267843 0.000000000000000e+00 1851878480
3.080153 -1.817902 -2.256543 0.000000000000000e+00 1851878480
3.433698 -1.213428 -2.281816 0.000000000000000e+00 1634890835
3.372974 -1.378284 -2.303971 0.000000000000000e+00 1634890835
3.103978 -1.635291 -2.248202 0.000000000000000e+00 1851878480
3.023434 -1.785912 -2.259687 0.000000000000000e+00 1851878480
3.364757 -1.187793 -2.278106 0.000000000000000e+00 1634890835
3.299386 -1.347551 -2.296716 0.000000000000000e+00 1634890835
3.050675 -1.607914 -2.253072 0.000000000000000e+00 1851878480
2.978224 -1.760687 -2.270453 0.000000000000000e+00 1851878480
3.322448 -1.171585 -2.291481 0.000000000000000e+00 1634890835
3.236135 -1.321058 -2.295340 0.000000000000000e+00 1634890835
3.004384 -1.584217 -2.262205 0.000000000000000e+00 1851878480
2.872972 -1.699910 -2.233722 0.000000000000000e+00 1851878480
3.269161 -1.151533 -2.296527 0.000000000000000e+00 1634890835
3.187132 -1.300398 -2.303062 0.000000000000000e+00 1634890835
2.962743 -1.562960 -2.274084 0.000000000000000e+00 1851878480
2.826499 -1.673853 -2.240926 0.000000000000000e+00 1851878480
3.204903 -1.127648 -2.292819 0.000000000000000e+00 1634890835
3.107780 -1.267374 -2.287616 0.000000000000000e+00 1634890835
2.858105 -1.508443 -2.235986 0.000000000000000e+00 1851878480
2.799570 -1.659353 -2.263044 0.000000000000000e+00 1851878480
3.162000 -1.111304 -2.303465 0.000000000000000e+00 1634890835
3.064138 -1.248933 -2.297283 0.000000000000000e+00 1634890835
2.866690 -1.513671 -2.285576 0.000000000000000e+00 1851878480
2.739214 -1.625012 -2.257336 0.000000000000000e+00 1851878480
3.092344 -1.085589 -2.293619 0.000000000000000e+00 1634890835
3.030164 -1.234438 -2.313630 0.000000000000000e+00 1634890835
2.779848 -1.468497 -2.258441 0.000000000000000e+00 1851878480
0.809061 -0.480397 -0.679625 0.000000000000000e+00 1886740808
3.028399 -1.061918 -2.286714 0.000000000000000e+00 1634890835
2.964769 -1.207159 -2.305114 0.000000000000000e+00 1634890835
2.751458 -1.454185 -2.277591 0.000000000000000e+00 1851878480
0.817823 -0.486039 -0.700192 0.000000000000000e+00 1886740808
2.961744 -1.037336 -2.276489 0.000000000000000e+00 1634890835
2.920981 -1.188694 -2.312374 0.000000000000000e+00 1634890835
0.830927 -0.439366 -0.700738 0.000000000000000e+00 1886740808
0.845625 -0.503023 -0.737838 0.000000000000000e+00 1886740808
2.909114 -1.017701 -2.275909 0.000000000000000e+00 1634890835
2.865979 -1.165676 -2.309870 0.000000000000000e+00 1634890835
0.869861 -0.460175 -0.747275 0.000000000000000e+00 1886740808
0.791993 -0.471558 -0.704189 0.000000000000000e+00 1886740808
2.870790 -1.003094 -2.285764 0.000000000000000e+00 1634890835
2.784714 -1.132000 -2.284758 0.000000000000000e+00 1634890835
0.833398 -0.441102 -0.729260 0.000000000000000e+00 1886740808
0.809236 -0.482279 -0.733143 0.000000000000000e+00 1886740808
2.848834 -0.994217 -2.308315 0.000000000000000e+00 1634890835
2.739582 -1.113034 -2.287978 0.000000000000000e+00 1634890835
0.835174 -0.442261 -0.744338 0.000000000000000e+00 1886740808
0.788088 -0.470125 -0.727442 0.000000000000000e+00 1886740808
2.793995 -0.973879 -2.303650 0.000000000000000e+00 1634890835
0.841740 -0.341788 -0.715516 0.000000000000000e+00 1886740808
0.804955 -0.426473 -0.730625 0.000000000000000e+00 1886740808
0.773790 -0.462042 -0.727654 0.000000000000000e+00 1886740808
0.829612 -0.288811 -0.695979 0.000000000000000e+00 1886740808
0.825939 -0.335180 -0.714546 0.000000000000000e+00 1886740808
0.834472 -0.442337 -0.771319 0.000000000000000e+00 1886740808
0.798895 -0.477502 -0.765314 0.000000000000000e+00 1886740808
0.833021 -0.289631 -0.711011 0.000000000000000e+00 1886740808
0.817140 -0.331416 -0.719433 0.000000000000000e+00 1886740808
0.782635 -0.415074 -0.736636 0.000000000000000e+00 1886740808
0.750814 -0.449211 -0.732663 0.000000000000000e+00 1886740808
0.834344 -0.289720 -0.724499 0.000000000000000e+00 1886740808
0.839312 -0.340208 -0.751972 0.000000000000000e+00 1886740808
0.777675 -0.412660 -0.745312 0.000000000000000e+00 1886740808
0.707234 -0.423565 -0.702963 0.000000000000000e+00 1886740808
0.782967 -0.271526 -0.691644 0.000000000000000e+00 1886740808
0.848806 -0.343851 -0.773833 0.000000000000000e+00 1886740808
0.782582 -0.415486 -0.763649 0.000000000000000e+00 1886740808
0.769041 -0.461055 -0.778566 0.000000000000000e+00 1886740808
0.818823 -0.283586 -0.735787 0.000000000000000e+00 1886740808
0.795686 -0.322136 -0.738105 0.000000000000000e+00 1886740808
0.748972 -0.397857 -0.744104 0.000000000000000e+00 1886740808
0.753339 -0.452113 -0.776772 0.000000000000000e+00 1886740808
0.784124 -0.271204 -0.716719 0.000000000000000e+00 1886740808
0.799021 -0.323287 -0.754140 0.000000000000000e+00 1886740808
0.769977 -0.409239 -0.778810 0.000000000000000e+00 1886740808
0.749831 -0.450484 -0.787423 0.000000000000000e+00 1886740808
0.750464 -0.259209 -0.697713 0.000000000000000e+00 1886740808
0.720561 -0.291359 -0.691934 0.000000000000000e+00 1886740808
0.767467 -0.408133 -0.790287 0.000000000000000e+00 1886740808
0.742139 -0.446342 -0.793704 0.000000000000000e+00 1886740808
0.726898 -0.250722 -0.687364 0.000000000000000e+00 1886740808
0.751916 -0.303844 -0.734594 0.000000000000000e+00 1886740808
0.798622 -0.424942 -0.837192 0.000000000000000e+00 1886740808
2.082425 -1.253797 -2.268089 0.000000000000000e+00 1634890835
0.724677 -0.249605 -0.696964 0.000000000000000e+00 1886740808
0.769972 -0.310940 -0.765288 0.000000000000000e+00 1886740808
0.755234 -0.402087 -0.805961 0.000000000000000e+00 1886740808
2.039878 -1.229545 -2.262581 0.000000000000000e+00 1634890835
0.767947 -0.264131 -0.751168 0.000000000000000e+00 1886740808
0.792932 -0.320001 -0.801764 0.000000000000000e+00 1886740808
2.131709 -1.135586 -2.315806 0.000000000000000e+00 1634890835
2.024563 -1.221694 -2.286839 0.000000000000000e+00 1634890835
0.769798 -0.264382 -0.765794 0.000000000000000e+00 1886740808
0.728716 -0.293890 -0.749586 0.000000000000000e+00 1886740808
2.051535 -1.093529 -2.268764 0.000000000000000e+00 1634890835
0.813218 -0.491289 -0.935432 0.000000000000000e+00 1886740808
0.730640 -0.250563 -0.739198 0.000000000000000e+00 1886740808
0.754232 -0.303974 -0.789249 0.000000000000000e+00 1886740808
2.027764 -1.081512 -2.282765 0.000000000000000e+00 1634890835
0.774152 -0.468236 -0.906842 0.000000000000000e+00 1886740808
0.753935 -0.258163 -0.775725 0.000000000000000e+00 1886740808
0.732583 -0.295045 -0.779844 0.000000000000000e+00 1886740808
2.014678 -1.075195 -2.308781 0.000000000000000e+00 1634890835
0.782654 -0.473941 -0.933636 0.000000000000000e+00 1886740808
0.745406 -0.254853 -0.779972 0.000000000000000e+00 1886740808
2.136340 -0.859797 -2.313453 0.000000000000000e+00 1634890835
0.829896 -0.443178 -0.968137 0.000000000000000e+00 1886740808
0.760285 -0.460953 -0.923617 0.000000000000000e+00 1886740808
0.760868 -0.259734 -0.809668 0.000000000000000e+00 1886740808
2.086727 -0.839230 -2.298772 0.000000000000000e+00 1634890835
0.795685 -0.425180 -0.944917 0.000000000000000e+00 1886740808
0.785350 -0.476738 -0.971613 0.000000000000000e+00 1886740808
0.758313 -0.258451 -0.820649 0.000000000000000e+00 1886740808
2.056561 -0.826495 -2.304700 0.000000000000000e+00 1634890835
0.800140 -0.427838 -0.967311 0.000000000000000e+00 1886740808
1.833256 -1.114256 -2.309816 0.000000000000000e+00 1634890835
2.069355 -0.704146 -2.277498 0.000000000000000e+00 1634890835
2.002416 -0.804138 -2.282834 0.000000000000000e+00 1634890835
0.814424 -0.435765 -1.002322 0.000000000000000e+00 1886740808
1.801615 -1.096426 -2.311812 0.000000000000000e+00 1634890835
2.051785 -0.697018 -2.296538 0.000000000000000e+00 1634890835
1.995182 -0.800627 -2.313963 0.000000000000000e+00 1634890835
0.775610 -0.415277 -0.971781 0.000000000000000e+00 1886740808
0.761229 -0.463873 -0.994850 0.000000000000000e+00 1886740808
2.050034 -0.695254 -2.333613 0.000000000000000e+00 1634890835
1.940096 -0.777923 -2.289077 0.000000000000000e+00 1634890835
0.804118 -0.430837 -1.025717 0.000000000000000e+00 1886740808
1.726847 -1.053697 -2.298613 0.000000000000000e+00 1634890835
1.984886 -0.672006 -2.297936 0.000000000000000e+00 1634890835
0.827253 -0.331445 -0.993003 0.000000000000000e+00 1886740808
1.779401 -0.954053 -2.310907 0.000000000000000e+00 1634890835
1.680031 -1.026523 -2.277819 0.000000000000000e+00 1634890835
1.937907 -0.654956 -2.281820 0.000000000000000e+00 1634890835
0.771054 -0.308680 -0.941640 0.000000000000000e+00 1886740808
0.751870 -0.403415 -0.994193 0.000000000000000e+00 1886740808
1.666811 -1.019856 -2.301977 0.000000000000000e+00 1634890835
1.920155 -0.647800 -2.299556 0.000000000000000e+00 1634890835
0.814112 -0.325652 -1.011552 0.000000000000000e+00 1886740808
1.697859 -0.911649 -2.285972 0.000000000000000e+00 1634890835
1.637969 -1.003626 -2.304406 0.000000000000000e+00 1634890835
0.799391 -0.269199 -0.973738 0.000000000000000e+00 1886740808
0.770986 -0.308143 -0.974704 0.000000000000000e+00 1886740808
1.678148 -0.901738 -2.300732 0.000000000000000e+00 1634890835
1.605030 -0.984864 -2.300403 0.000000000000000e+00 1634890835
0.800219 -0.268977 -0.991479 0.000000000000000e+00 1886740808
0.755908 -0.301860 -0.972384 0.000000000000000e+00 1886740808
1.649984 -0.887279 -2.303610 0.000000000000000e+00 1634890835
1.566768 -0.962804 -2.287831 0.000000000000000e+00 1634890835
0.754766 -0.253217 -0.951261 0.000000000000000e+00 1886740808
0.804451 -0.320965 -1.053014 0.000000000000000e+00 1886740808
1.600071 -0.861109 -2.275056 0.000000000000000e+00 1634890835
1.541712 -0.948834 -2.293800 0.000000000000000e+00 1634890835
0.766705 -0.256724 -0.982993 0.000000000000000e+00 1886740808
1.737125 -0.692474 -2.313964 0.000000000000000e+00 1634890835
1.583871 -0.853067 -2.293659 0.000000000000000e+00 1634890835
1.530988 -0.943687 -2.321103 0.000000000000000e+00 1634890835
0.768925 -0.256957 -1.002917 0.000000000000000e+00 1886740808
1.728644 -0.688467 -2.343416 0.000000000000000e+00 1634890835
1.594492 -0.859486 -2.351922 0.000000000000000e+00 1634890835
1.452421 -0.896669 -2.244012 0.000000000000000e+00 1634890835
0.786339 -0.262243 -1.043463 0.000000000000000e+00 1886740808
0.747445 -0.297409 -1.031269 0.000000000000000e+00 1886740808
1.542218 -0.831999 -2.317269 0.000000000000000e+00 1634890835
1.456149 -0.900419 -2.292938 0.000000000000000e+00 1634890835
1.731647 -0.576302 -2.337984 0.000000000000000e+00 1634890835
1.651787 -0.656621 -2.319682 0.000000000000000e+00 1634890835
1.511309 -0.816017 -2.313424 0.000000000000000e+00 1634890835
1.424279 -0.882166 -2.286031 0.000000000000000e+00 1634890835
0.737067 -0.244779 -1.012595 0.000000000000000e+00 1886740808
1.580840 -0.627807 -2.259848 0.000000000000000e+00 1634890835
1.478415 -0.798954 -2.305760 0.000000000000000e+00 1634890835
1.411561 -0.875766 -2.309600 0.000000000000000e+00 1634890835
1.629508 -0.539980 -2.278064 0.000000000000000e+00 1634890835
1.584609 -0.628676 -2.306045 0.000000000000000e+00 1634890835
1.444233 -0.781177 -2.295184 0.000000000000000e+00 1634890835
1.371141 -0.852160 -2.287296 0.000000000000000e+00 1634890835
1.616419 -0.534449 -2.299752 0.000000000000000e+00 1634890835
1.554471 -0.616091 -2.303158 0.000000000000000e+00 1634890835
1.426109 -0.772078 -2.309651 0.000000000000000e+00 1634890835
1.360507 -0.847051 -2.314198 0.000000000000000e+00 1634890835
1.575460 -0.519716 -2.281344 0.000000000000000e+00 1634890835
1.525129 -0.603829 -2.300840 0.000000000000000e+00 1634890835
1.416374 -0.767525 -2.337969 0.000000000000000e+00 1634890835
1.328351 -0.828535 -2.304266 0.000000000000000e+00 1634890835
1.581311 -0.520422 -2.330767 0.000000000000000e+00 1634890835
1.479976 -0.585323 -2.273628 0.000000000000000e+00 1634890835
1.384259 -0.750843 -2.329175 0.000000000000000e+00 1634890835
1.296658 -0.810275 -2.294186 0.000000000000000e+00 1634890835
1.533909 -0.503608 -2.301569 0.000000000000000e+00 1634890835
1.509778 -0.596453 -2.362172 0.000000000000000e+00 1634890835
1.349899 -0.732926 -2.315636 0.000000000000000e+00 1634890835
1.266693 -0.793065 -2.286260 0.000000000000000e+00 1634890835
1.509396 -0.494334 -2.305777 0.000000000000000e+00 1634890835
1.428072 -0.563538 -2.275804 0.000000000000000e+00 1634890835
1.344719 -0.730852 -2.352064 0.000000000000000e+00 1634890835
1.249431 -0.783795 -2.300852 0.000000000000000e+00 1634890835
1.483380 -0.484583 -2.307316 0.000000000000000e+00 1634890835
1.403330 -0.553133 -2.278169 0.000000000000000e+00 1634890835
1.299744 -0.707142 -2.318418 0.000000000000000e+00 1634890835
1.211128 -0.761302 -2.275960 0.000000000000000e+00 1634890835
1.449338 -0.472228 -2.295711 0.000000000000000e+00 1634890835
1.369440 -0.539133 -2.265004 0.000000000000000e+00 1634890835
1.245049 -0.678107 -2.265208 0.000000000000000e+00 1634890835
1.195615 -0.753108 -2.293205 0.000000000000000e+00 1634890835
1.444640 -0.469435 -2.330540 0.000000000000000e+00 1634890835
1.358205 -0.534055 -2.289037 0.000000000000000e+00 1634890835
1.255215 -0.684392 -2.329715 0.000000000000000e+00 1634890835
1.182884 -0.746680 -2.316092 0.000000000000000e+00 1634890835
1.392033 -0.451094 -2.287468 0.000000000000000e+00 1634890835
1.350667 -0.530423 -2.319863 0.000000000000000e+00 1634890835
1.228534 -0.670601 -2.326562 0.000000000000000e+00 1634890835
1.153648 -0.729825 -2.306414 0.000000000000000e+00 1634890835
1.368641 -0.442255 -2.291216 0.000000000000000e+00 1634890835
1.300380 -0.510012 -2.276560 0.000000000000000e+00 1634890835
1.172973 -0.641015 -2.266951 0.000000000000000e+00 1634890835
1.106098 -0.701327 -2.258403 0.000000000000000e+00 1634890835
1.331888 -0.429119 -2.271858 0.000000000000000e+00 1634890835
1.284822 -0.503239 -2.293083 0.000000000000000e+00 1634890835
1.181852 -0.646641 -2.331483 0.000000000000000e+00 1634890835
1.106011 -0.702903 -2.306796 0.000000000000000e+00 1634890835
1.318682 -0.423585 -2.292239 0.000000000000000e+00 1634890835
1.271280 -0.497251 -2.313457 0.000000000000000e+00 1634890835
1.137885 -0.623351 -2.291794 0.000000000000000e+00 1634890835
1.081553 -0.689011 -2.304855 0.000000000000000e+00 1634890835
1.281390 -0.410328 -2.270283 0.000000000000000e+00 1634890835
1.253746 -0.489699 -2.326768 0.000000000000000e+00 1634890835
1.121506 -0.615157 -2.306662 0.000000000000000e+00 1634890835
1.066334 -0.680997 -2.322434 0.000000000000000e+00 1634890835
1.285059 -0.410183 -2.321012 0.000000000000000e+00 1634890835
1.228320 -0.479067 -2.325212 0.000000000000000e+00 1634890835
1.113989 -0.611835 -2.340302 0.000000000000000e+00 1634890835
1.051230 -0.673067 -2.340547 0.000000000000000e+00 1634890835
1.231923 -0.391922 -2.268684 0.000000000000000e+00 1634890835
1.156456 -0.450360 -2.233451 0.000000000000000e+00 1634890835
1.084989 -0.596713 -2.328804 0.000000000000000e+00 1634890835
1.008401 -0.647349 -2.295849 0.000000000000000e+00 1634890835
1.198360 -0.379939 -2.250599 0.000000000000000e+00 1634890835
1.175453 -0.457046 -2.316547 0.000000000000000e+00 1634890835
1.053346 -0.580119 -2.310515 0.000000000000000e+00 1634890835
0.974066 -0.627014 -2.268378 0.000000000000000e+00 1634890835
1.196920 -0.378140 -2.292902 0.000000000000000e+00 1634890835
1.130810 -0.438981 -2.274636 0.000000000000000e+00 1634890835
0.999713 -0.551375 -2.241622 0.000000000000000e+00 1634890835
0.956098 -0.617185 -2.278142 0.000000000000000e+00 1634890835
1.162989 -0.366076 -2.272998 0.000000000000000e+00 1634890835
1.120660 -0.434318 -2.301364 0.000000000000000e+00 1634890835
1.007127 -0.556294 -2.309125 0.000000000000000e+00 1634890835
0.940545 -0.608916 -2.293769 0.000000000000000e+00 1634890835
1.137564 -0.356716 -2.268817 0.000000000000000e+00 1634890835
1.098849 -0.425131 -2.304334 0.000000000000000e+00 1634890835
0.989154 -0.547210 -2.319715 0.000000000000000e+00 1634890835
0.918321 -0.596326 -2.293003 0.000000000000000e+00 1634890835
1.148263 -0.358657 -2.337588 0.000000000000000e+00 1634890835
1.074234 -0.414867 -2.300994 0.000000000000000e+00 1634890835
0.965573 -0.535020 -2.316876 0.000000000000000e+00 1634890835
0.918091 -0.598046 -2.347966 0.000000000000000e+00 1634890835
1.113559 -0.346400 -2.314466 0.000000000000000e+00 1634890835
1.072455 -0.413415 -2.347055 0.000000000000000e+00 1634890835
0.927583 -0.514823 -2.278051 0.000000000000000e+00 1634890835
0.888585 -0.580708 -2.328442 0.000000000000000e+00 1634890835
1.095128 -0.339227 -2.324483 0.000000000000000e+00 1634890835
1.052183 -0.404823 -2.353355 0.000000000000000e+00 1634890835
0.927974 -0.515928 -2.333424 0.000000000000000e+00 1634890835
0.865824 -0.567744 -2.325569 0.000000000000000e+00 1634890835
1.050572 -0.323995 -2.277873 0.000000000000000e+00 1634890835
0.999454 -0.383771 -2.285294 0.000000000000000e+00 1634890835
0.908914 -0.506234 -2.340934 0.000000000000000e+00 1634890835
0.834320 -0.549006 -2.297989 0.000000000000000e+00 1634890835
1.034588 -0.317608 -2.292120 0.000000000000000e+00 1634890835
0.998945 -0.382782 -2.335824 0.000000000000000e+00 1634890835
0.873840 -0.487603 -2.306095 0.000000000000000e+00 1634890835
0.472905 -0.312320 -1.336280 0.000000000000000e+00 1936876886
1.015478 -0.310259 -2.299522 0.000000000000000e+00 1634890835
0.956121 -0.365584 -2.287049 0.000000000000000e+00 1634890835
0.858409 -0.479920 -2.322197 0.000000000000000e+00 1634890835
0.448720 -0.297474 -1.301398 0.000000000000000e+00 1936876886
0.994166 -0.302243 -2.301762 0.000000000000000e+00 1634890835
0.953260 -0.363675 -2.333404 0.000000000000000e+00 1634890835
0.846877 -0.474426 -2.349487 0.000000000000000e+00 1634890835
0.424869 -0.282778 -1.265367 0.000000000000000e+00 1936876886
0.968885 -0.293034 -2.294307 0.000000000000000e+00 1634890835
0.916746 -0.348927 -2.297219 0.000000000000000e+00 1634890835
0.447780 -0.251376 -1.274577 0.000000000000000e+00 1936876886
0.345481 -0.230891 -1.057155 0.000000000000000e+00 1953264973
0.951435 -0.286204 -2.305091 0.000000000000000e+00 1634890835
0.873566 -0.331683 -2.241774 0.000000000000000e+00 1634890835
0.451016 -0.253747 -1.317809 0.000000000000000e+00 1936876886
0.301287 -0.202224 -0.947735 0.000000000000000e+00 1953264973
0.509227 -0.152318 -1.262724 0.000000000000000e+00 1936876886
0.888083 -0.336339 -2.334902 0.000000000000000e+00 1634890835
0.362791 -0.204577 -1.088674 0.000000000000000e+00 1953264973
0.289165 -0.194963 -0.935618 0.000000000000000e+00 1953264973
0.469701 -0.139665 -1.192540 0.000000000000000e+00 1936876886
0.858373 -0.324222 -2.313106 0.000000000000000e+00 1634890835
0.342550 -0.193626 -1.056287 0.000000000000000e+00 1953264973
0.263744 -0.178663 -0.878315 0.000000000000000e+00 1953264973
0.496297 -0.146661 -1.290698 0.000000000000000e+00 1936876886
0.824125 -0.310420 -2.277264 0.000000000000000e+00 1634890835
0.317226 -0.179761 -1.005756 0.000000000000000e+00 1953264973
0.243196 -0.165560 -0.834116 0.000000000000000e+00 1953264973
