# .PCD v0.7 - Point Cloud Data file format
VERSION 0.7
FIELDS x y z rgb label
SIZE 4 4 4 4 4
TYPE F F F F U
COUNT 1 1 1 1 1
WIDTH 534
HEIGHT 1
VIEWPOINT 0 0 0 1 0 0 0
POINTS 534
DATA ascii
39.319481 -16.646523 10.301991 0.000000000000000e+00 1954047316
35.243473 -13.102974 -2.239167 0.000000000000000e+00 1851878480
29.292664 -10.882298 -2.127200 0.000000000000000e+00 1851878480
28.604723 -11.961045 -2.011597 0.000000000000000e+00 1851878480
27.049299 -13.962995 -1.732684 0.000000000000000e+00 1851878480
25.917048 -14.723471 -1.554698 0.000000000000000e+00 1851878480
26.566772 -9.862123 -2.170815 0.000000000000000e+00 1851878480
26.041033 -10.885209 -2.075336 0.000000000000000e+00 1851878480
24.900579 -12.857796 -1.843874 0.000000000000000e+00 1851878480
24.283941 -13.803836 -1.707863 0.000000000000000e+00 1851878480
24.080599 -8.932412 -2.186860 0.000000000000000e+00 1851878480
24.218735 -10.119928 -2.157319 0.000000000000000e+00 1851878480
23.224106 -11.995832 -1.952121 0.000000000000000e+00 1851878480
22.980421 -13.070604 -1.854186 0.000000000000000e+00 1851878480
22.161434 -8.214259 -2.214536 0.000000000000000e+00 1851878480
22.283716 -9.308105 -2.194276 0.000000000000000e+00 1851878480
22.002510 -11.368386 -2.069927 0.000000000000000e+00 1851878480
21.762924 -12.385450 -1.981699 0.000000000000000e+00 1851878480
20.418940 -7.562626 -2.226740 0.000000000000000e+00 1851878480
20.549511 -8.580684 -2.216813 0.000000000000000e+00 1851878480
20.684965 -10.690943 -2.153599 0.000000000000000e+00 1851878480
20.402670 -11.618212 -2.069844 0.000000000000000e+00 1851878480
18.930634 -7.006040 -2.237442 0.000000000000000e+00 1851878480
19.025805 -7.941641 -2.231694 0.000000000000000e+00 1851878480
19.430859 -10.045897 -2.218414 0.000000000000000e+00 1851878480
19.153433 -10.913310 -2.142523 0.000000000000000e+00 1851878480
17.577665 -6.500336 -2.238437 0.000000000000000e+00 1851878480
17.634592 -7.358326 -2.234944 0.000000000000000e+00 1851878480
17.886290 -9.250227 -2.222280 0.000000000000000e+00 1851878480
17.941998 -10.229140 -2.194202 0.000000000000000e+00 1851878480
16.396894 -6.059028 -2.238438 0.000000000000000e+00 1851878480
16.435163 -6.855422 -2.238343 0.000000000000000e+00 1851878480
16.563637 -8.568873 -2.225185 0.000000000000000e+00 1851878480
16.685940 -9.518709 -2.215075 0.000000000000000e+00 1851878480
15.362931 -5.672595 -2.238439 0.000000000000000e+00 1851878480
15.366799 -6.407506 -2.238438 0.000000000000000e+00 1851878480
15.404396 -7.971657 -2.225333 0.000000000000000e+00 1851878480
15.466658 -8.828428 -2.215331 0.000000000000000e+00 1851878480
14.449848 -5.331330 -2.238438 0.000000000000000e+00 1851878480
14.426388 -6.013242 -2.238438 0.000000000000000e+00 1851878480
14.433508 -7.471576 -2.231490 0.000000000000000e+00 1851878480
14.455074 -8.255957 -2.222345 0.000000000000000e+00 1851878480
13.637503 -5.027728 -2.238437 0.000000000000000e+00 1851878480
13.592604 -5.663687 -2.238437 0.000000000000000e+00 1851878480
13.575647 -7.029718 -2.236928 0.000000000000000e+00 1851878480
13.545530 -7.741122 -2.225246 0.000000000000000e+00 1851878480
12.910000 -4.755833 -2.238438 0.000000000000000e+00 1851878480
12.848183 -5.351588 -2.238437 0.000000000000000e+00 1851878480
12.793033 -6.626556 -2.238438 0.000000000000000e+00 1851878480
12.772976 -7.304012 -2.233319 0.000000000000000e+00 1851878480
12.254606 -4.510886 -2.238438 0.000000000000000e+00 1851878480
12.179387 -5.071207 -2.238437 0.000000000000000e+00 1851878480
12.086512 -6.262577 -2.238439 0.000000000000000e+00 1851878480
12.070440 -6.906456 -2.238439 0.000000000000000e+00 1851878480
11.661041 -4.289052 -2.238438 0.000000000000000e+00 1851878480
11.575191 -4.817899 -2.238438 0.000000000000000e+00 1851878480
11.452121 -5.935752 -2.238438 0.000000000000000e+00 1851878480
11.415789 -6.535829 -2.238439 0.000000000000000e+00 1851878480
11.120874 -4.087171 -2.238439 0.000000000000000e+00 1851878480
11.026561 -4.587886 -2.238438 0.000000000000000e+00 1851878480
10.879251 -5.640620 -2.238439 0.000000000000000e+00 1851878480
10.826602 -6.202272 -2.238439 0.000000000000000e+00 1851878480
10.627128 -3.902644 -2.238438 0.000000000000000e+00 1851878480
10.526116 -4.378078 -2.238438 0.000000000000000e+00 1851878480
10.359296 -5.372750 -2.238439 0.000000000000000e+00 1851878480
10.293451 -5.900441 -2.238438 0.000000000000000e+00 1851878480
10.173995 -3.733299 -2.238438 0.000000000000000e+00 1851878480
10.067682 -4.185882 -2.238438 0.000000000000000e+00 1851878480
9.885151 -5.128491 -2.238439 0.000000000000000e+00 1851878480
9.808618 -5.625967 -2.238438 0.000000000000000e+00 1851878480
9.756625 -3.577318 -2.238438 0.000000000000000e+00 1851878480
9.646154 -4.009162 -2.238438 0.000000000000000e+00 1851878480
9.450991 -4.904821 -2.238439 0.000000000000000e+00 1851878480
9.365774 -5.375265 -2.238439 0.000000000000000e+00 1851878480
9.370879 -3.433158 -2.238438 0.000000000000000e+00 1851878480
9.257174 -3.846085 -2.238438 0.000000000000000e+00 1851878480
5.170953 -2.684459 -1.278724 1.880790849211783e-38 1684957512
5.118248 -2.939310 -1.278725 1.880790849211783e-38 1684957512
5.148886 -1.884866 -1.278724 1.880790849211783e-38 1684957512
5.082517 -2.110861 -1.278725 1.880790849211783e-38 1684957512
4.960622 -2.576102 -1.278724 1.880790849211783e-38 1684957512
4.904653 -2.818389 -1.278724 1.880790849211783e-38 1684957512
4.958924 -1.813878 -1.278725 1.880790849211783e-38 1684957512
4.891497 -2.030779 -1.278725 1.880790849211783e-38 1684957512
4.765950 -2.475813 -1.278725 1.880790849211783e-38 1684957512
4.707342 -2.706691 -1.278724 1.880790849211783e-38 1684957512
4.781816 -1.747692 -1.278724 1.880790849211783e-38 1684957512
4.713624 -1.956208 -1.278724 1.880790849211783e-38 1684957512
4.585220 -2.382709 -1.278724 1.880790849211783e-38 1684957512
4.524494 -2.603181 -1.278725 1.880790849211783e-38 1684957512
4.616276 -1.685828 -1.278725 1.880790849211783e-38 1684957512
4.547560 -1.886589 -1.278724 1.880790849211783e-38 1684957512
4.416963 -2.296025 -1.278725 1.880790849211783e-38 1684957512
4.354543 -2.506970 -1.278725 1.880790849211783e-38 1684957512
4.461190 -1.627870 -1.278725 1.880790849211783e-38 1684957512
4.392151 -1.821437 -1.278724 1.880790849211783e-38 1684957512
4.259909 -2.215118 -1.278725 1.880790849211783e-38 1684957512
4.196156 -2.417307 -1.278725 1.880790849211783e-38 1684957512
4.315571 -1.573454 -1.278724 1.880790849211783e-38 1684957512
4.246382 -1.760324 -1.278725 1.880790849211783e-38 1684957512
4.112952 -2.139411 -1.278724 1.880790849211783e-38 1684957512
4.048163 -2.333532 -1.278724 1.880790849211783e-38 1684957512
4.178565 -1.522255 -1.278724 1.880790849211783e-38 1684957512
4.109358 -1.702880 -1.278724 1.880790849211783e-38 1684957512
3.975130 -2.068409 -1.278725 1.880790849211783e-38 1684957512
3.909557 -2.255066 -1.278725 1.880790849211783e-38 1684957512
4.049400 -1.473990 -1.278724 1.880790849211783e-38 1684957512
3.980296 -1.648773 -1.278725 1.880790849211783e-38 1684957512
3.845589 -2.001674 -1.278724 1.880790849211783e-38 1684957512
3.779444 -2.181412 -1.278725 1.880790849211783e-38 1684957512
3.963593 -1.441563 -1.290503 1.880790849211783e-38 1684957512
3.858510 -1.597716 -1.278725 1.880790849211783e-38 1684957512
3.723597 -1.938828 -1.278724 1.880790849211783e-38 1684957512
3.657054 -2.112131 -1.278725 1.880790849211783e-38 1684957512
3.966890 -1.441563 -1.330677 1.880790849211783e-38 1684957512
3.743381 -1.549451 -1.278725 1.880790849211783e-38 1684957512
3.608488 -1.879531 -1.278725 1.880790849211783e-38 1684957512
3.541701 -2.046831 -1.278724 1.880790849211783e-38 1684957512
3.970205 -1.441563 -1.371125 1.880790849211783e-38 1684957512
3.634362 -1.503746 -1.278724 1.880790849211783e-38 1684957512
3.499683 -1.823478 -1.278724 1.880790849211783e-38 1684957512
3.432777 -1.985174 -1.278725 1.880790849211783e-38 1684957512
3.973540 -1.441563 -1.411855 1.880790849211783e-38 1684957512
3.530964 -1.460400 -1.278725 1.880790849211783e-38 1684957512
3.396659 -1.770405 -1.278724 1.880790849211783e-38 1684957512
3.329743 -1.926850 -1.278724 1.880790849211783e-38 1684957512
3.976901 -1.441563 -1.452879 1.880790849211783e-38 1684957512
3.486783 -1.441563 -1.298853 1.880790849211783e-38 1684957512
3.298954 -1.720071 -1.278725 1.880790849211783e-38 1684957512
3.261374 -1.888530 -1.290300 1.880790849211783e-38 1684957512
3.980283 -1.441563 -1.494202 1.880790849211783e-38 1684957512
3.488145 -1.441563 -1.335713 1.880790849211783e-38 1684957512
3.261374 -1.701066 -1.300748 1.880790849211783e-38 1684957512
3.261374 -1.889780 -1.328375 1.880790849211783e-38 1684957512
3.983688 -1.441563 -1.535834 1.880790849211783e-38 1684957512
3.489520 -1.441563 -1.372824 1.880790849211783e-38 1684957512
3.261374 -1.701659 -1.337574 1.880790849211783e-38 1684957512
3.261374 -1.891042 -1.366705 1.880790849211783e-38 1684957512
3.987121 -1.441564 -1.577788 1.880790849211783e-38 1684957512
3.490905 -1.441563 -1.410193 1.880790849211783e-38 1684957512
3.261374 -1.702257 -1.374642 1.880790849211783e-38 1684957512
3.261375 -1.892311 -1.405298 1.880790849211783e-38 1684957512
3.990577 -1.441564 -1.620070 1.880790849211783e-38 1684957512
3.492302 -1.441564 -1.447830 1.880790849211783e-38 1684957512
3.261374 -1.702858 -1.411963 1.880790849211783e-38 1684957512
3.261375 -1.893593 -1.444162 1.880790849211783e-38 1684957512
3.994058 -1.441563 -1.662692 1.880790849211783e-38 1684957512
3.493701 -1.441563 -1.485740 1.880790849211783e-38 1684957512
3.261374 -1.703465 -1.449544 1.880790849211783e-38 1684957512
3.261374 -1.894881 -1.483309 1.880790849211783e-38 1684957512
3.997570 -1.441563 -1.705665 1.880790849211783e-38 1684957512
3.495117 -1.441563 -1.523934 1.880790849211783e-38 1684957512
3.261374 -1.704075 -1.487393 1.880790849211783e-38 1684957512
3.261374 -1.896181 -1.522745 1.880790849211783e-38 1684957512
4.001108 -1.441563 -1.748999 1.880790849211783e-38 1684957512
3.496541 -1.441563 -1.562421 1.880790849211783e-38 1684957512
3.261374 -1.704690 -1.525519 1.880790849211783e-38 1684957512
3.261374 -1.897489 -1.562481 1.880790849211783e-38 1684957512
4.004673 -1.441563 -1.792703 1.880790849211783e-38 1684957512
3.497977 -1.441563 -1.601209 1.880790849211783e-38 1684957512
3.261374 -1.705307 -1.563931 1.880790849211783e-38 1684957512
3.261374 -1.898811 -1.602527 1.880790849211783e-38 1684957512
4.008265 -1.441563 -1.836788 1.880790849211783e-38 1684957512
3.499421 -1.441564 -1.640308 1.880790849211783e-38 1684957512
3.261374 -1.705933 -1.602640 1.880790849211783e-38 1684957512
3.261375 -1.900142 -1.642893 1.880790849211783e-38 1684957512
4.011899 -1.441564 -1.881275 1.880790849211783e-38 1684957512
3.500879 -1.441563 -1.679729 1.880790849211783e-38 1684957512
3.261374 -1.706562 -1.641654 1.880790849211783e-38 1684957512
3.261374 -1.901484 -1.683589 1.880790849211783e-38 1684957512
4.015554 -1.441563 -1.926162 1.880790849211783e-38 1684957512
3.502351 -1.441564 -1.719481 1.880790849211783e-38 1684957512
3.261374 -1.707198 -1.680983 1.880790849211783e-38 1684957512
3.261374 -1.902839 -1.724626 1.880790849211783e-38 1684957512
4.019248 -1.441564 -1.971470 1.880790849211783e-38 1684957512
3.503832 -1.441563 -1.759572 1.880790849211783e-38 1684957512
3.261374 -1.707838 -1.720637 1.880790849211783e-38 1684957512
3.261374 -1.904207 -1.766014 1.880790849211783e-38 1684957512
4.022966 -1.441564 -2.017205 1.880790849211783e-38 1684957512
3.505327 -1.441563 -1.800016 1.880790849211783e-38 1684957512
3.261374 -1.708483 -1.760626 1.880790849211783e-38 1684957512
3.261374 -1.905587 -1.807767 1.880790849211783e-38 1684957512
4.026729 -1.441563 -2.063390 1.880790849211783e-38 1684957512
3.506838 -1.441563 -1.840824 1.880790849211783e-38 1684957512
3.261374 -1.709134 -1.800962 1.880790849211783e-38 1684957512
3.261374 -1.906978 -1.849893 1.880790849211783e-38 1684957512
4.030519 -1.441563 -2.110027 1.880790849211783e-38 1684957512
3.508359 -1.441563 -1.882002 1.880790849211783e-38 1684957512
3.261375 -1.709793 -1.841655 1.880790849211783e-38 1684957512
3.261374 -1.908385 -1.892406 1.880790849211783e-38 1684957512
4.034356 -1.441563 -2.157140 1.880790849211783e-38 1684957512
3.509896 -1.441563 -1.923566 1.880790849211783e-38 1684957512
3.261374 -1.710456 -1.882714 1.880790849211783e-38 1684957512
3.261374 -1.909804 -1.935316 1.880790849211783e-38 1684957512
4.038222 -1.441563 -2.204734 1.880790849211783e-38 1684957512
3.511443 -1.441563 -1.965524 1.880790849211783e-38 1684957512
3.261375 -1.711127 -1.924154 1.880790849211783e-38 1684957512
3.261374 -1.911239 -1.978639 1.880790849211783e-38 1684957512
4.016310 -1.432355 -2.238438 0.000000000000000e+00 1851878480
3.513008 -1.441563 -2.007892 1.880790849211783e-38 1684957512
3.261374 -1.711802 -1.965984 1.880790849211783e-38 1684957512
3.261374 -1.912688 -2.022385 1.880790849211783e-38 1684957512
4.006149 -1.427337 -2.278727 0.000000000000000e+00 1634890835
3.514589 -1.441563 -2.050680 1.880790849211783e-38 1684957512
3.261374 -1.712486 -2.008218 1.880790849211783e-38 1684957512
3.261374 -1.914151 -2.066568 1.880790849211783e-38 1684957512
3.926263 -1.397496 -2.278727 0.000000000000000e+00 1634890835
3.516183 -1.441563 -2.093903 1.880790849211783e-38 1684957512
3.261374 -1.713173 -2.050869 1.880790849211783e-38 1684957512
3.261374 -1.915630 -2.111203 1.880790849211783e-38 1684957512
3.848818 -1.368568 -2.278727 0.000000000000000e+00 1634890835
3.517795 -1.441563 -2.137571 1.880790849211783e-38 1684957512
3.261374 -1.713871 -2.093948 1.880790849211783e-38 1684957512
3.261374 -1.917125 -2.156303 1.880790849211783e-38 1684957512
3.773686 -1.340506 -2.278727 0.000000000000000e+00 1634890835
3.519419 -1.441563 -2.181697 1.880790849211783e-38 1684957512
3.261374 -1.714577 -2.137470 1.880790849211783e-38 1684957512
3.261374 -1.918636 -2.201882 1.880790849211783e-38 1684957512
3.700758 -1.313266 -2.278727 0.000000000000000e+00 1634890835
3.521062 -1.441563 -2.226299 1.880790849211783e-38 1684957512
3.261374 -1.715289 -2.181447 1.880790849211783e-38 1684957512
3.247564 -1.912037 -2.238438 0.000000000000000e+00 1851878480
3.629924 -1.286810 -2.278727 0.000000000000000e+00 1634890835
3.471620 -1.420648 -2.238438 0.000000000000000e+00 1851878480
3.261374 -1.716007 -2.225894 1.880790849211783e-38 1684957512
3.181630 -1.874723 -2.238438 0.000000000000000e+00 1851878480
3.561090 -1.261100 -2.278727 0.000000000000000e+00 1634890835
3.466212 -1.417759 -2.278727 0.000000000000000e+00 1634890835
3.214858 -1.692249 -2.238438 0.000000000000000e+00 1851878480
3.117620 -1.838502 -2.238438 0.000000000000000e+00 1851878480
3.494163 -1.236102 -2.278727 0.000000000000000e+00 1634890835
3.400213 -1.390092 -2.278727 0.000000000000000e+00 1634890835
3.151802 -1.659767 -2.238439 0.000000000000000e+00 1851878480
3.055440 -1.803316 -2.238438 0.000000000000000e+00 1851878480
3.429050 -1.211785 -2.278727 0.000000000000000e+00 1634890835
3.336017 -1.363183 -2.278727 0.000000000000000e+00 1634890835
3.090497 -1.628188 -2.238438 0.000000000000000e+00 1851878480
2.995004 -1.769118 -2.238438 0.000000000000000e+00 1851878480
3.365675 -1.188117 -2.278727 0.000000000000000e+00 1634890835
3.273543 -1.336996 -2.278727 0.000000000000000e+00 1634890835
3.030862 -1.597471 -2.238438 0.000000000000000e+00 1851878480
2.936229 -1.735860 -2.238438 0.000000000000000e+00 1851878480
3.303956 -1.165064 -2.278727 0.000000000000000e+00 1634890835
3.212713 -1.311497 -2.278727 0.000000000000000e+00 1634890835
2.972820 -1.567573 -2.238438 0.000000000000000e+00 1851878480
2.879039 -1.703500 -2.238439 0.000000000000000e+00 1851878480
3.243823 -1.142608 -2.278727 0.000000000000000e+00 1634890835
3.153456 -1.286658 -2.278727 0.000000000000000e+00 1634890835
2.916302 -1.538460 -2.238438 0.000000000000000e+00 1851878480
2.823362 -1.671995 -2.238438 0.000000000000000e+00 1851878480
3.185205 -1.120717 -2.278727 0.000000000000000e+00 1634890835
3.095703 -1.262449 -2.278727 0.000000000000000e+00 1634890835
2.861239 -1.510097 -2.238438 0.000000000000000e+00 1851878480
2.769130 -1.641311 -2.238438 0.000000000000000e+00 1851878480
3.128042 -1.099369 -2.278727 0.000000000000000e+00 1634890835
3.039388 -1.238845 -2.278727 0.000000000000000e+00 1634890835
2.807567 -1.482453 -2.238438 0.000000000000000e+00 1851878480
2.716283 -1.611408 -2.238438 0.000000000000000e+00 1851878480
3.072266 -1.078540 -2.278727 0.000000000000000e+00 1634890835
2.984452 -1.215816 -2.278727 0.000000000000000e+00 1634890835
2.755227 -1.455491 -2.238438 0.000000000000000e+00 1851878480
0.840392 -0.499000 -0.705943 0.000000000000000e+00 1886740808
3.017822 -1.058209 -2.278727 0.000000000000000e+00 1634890835
2.930832 -1.193341 -2.278727 0.000000000000000e+00 1634890835
2.704159 -1.429187 -2.238438 0.000000000000000e+00 1851878480
0.824540 -0.490031 -0.705943 0.000000000000000e+00 1886740808
2.964656 -1.038357 -2.278727 0.000000000000000e+00 1634890835
2.878478 -1.171398 -2.278727 0.000000000000000e+00 1634890835
0.837099 -0.442630 -0.705943 0.000000000000000e+00 1886740808
0.809070 -0.481279 -0.705943 0.000000000000000e+00 1886740808
2.912716 -1.018962 -2.278728 0.000000000000000e+00 1634890835
2.827340 -1.149960 -2.278728 0.000000000000000e+00 1634890835
0.821749 -0.434723 -0.705943 0.000000000000000e+00 1886740808
0.793967 -0.472733 -0.705943 0.000000000000000e+00 1886740808
2.861953 -1.000006 -2.278727 0.000000000000000e+00 1634890835
2.777364 -1.129012 -2.278727 0.000000000000000e+00 1634890835
0.806752 -0.426998 -0.705943 0.000000000000000e+00 1886740808
0.779214 -0.464386 -0.705943 0.000000000000000e+00 1886740808
2.812318 -0.981473 -2.278727 0.000000000000000e+00 1634890835
2.728505 -1.108533 -2.278727 0.000000000000000e+00 1634890835
0.792094 -0.419448 -0.705943 0.000000000000000e+00 1886740808
0.764797 -0.456231 -0.705943 0.000000000000000e+00 1886740808
2.763767 -0.963343 -2.278727 0.000000000000000e+00 1634890835
0.830479 -0.337215 -0.705943 0.000000000000000e+00 1886740808
0.777762 -0.412066 -0.705943 0.000000000000000e+00 1886740808
0.750703 -0.448257 -0.705943 0.000000000000000e+00 1886740808
0.841490 -0.292946 -0.705943 0.000000000000000e+00 1886740808
0.815995 -0.331144 -0.705943 0.000000000000000e+00 1886740808
0.763744 -0.404845 -0.705943 0.000000000000000e+00 1886740808
0.744295 -0.444867 -0.713009 0.000000000000000e+00 1886740808
0.827083 -0.287567 -0.705943 0.000000000000000e+00 1886740808
0.801818 -0.325202 -0.705943 0.000000000000000e+00 1886740808
0.750026 -0.397779 -0.705943 0.000000000000000e+00 1886740808
0.744295 -0.445311 -0.726301 0.000000000000000e+00 1886740808
0.812975 -0.282300 -0.705943 0.000000000000000e+00 1886740808
0.787937 -0.319383 -0.705943 0.000000000000000e+00 1886740808
0.744295 -0.394947 -0.713321 0.000000000000000e+00 1886740808
0.744295 -0.445761 -0.739800 0.000000000000000e+00 1886740808
0.799155 -0.277140 -0.705943 0.000000000000000e+00 1886740808
0.774339 -0.313684 -0.705943 0.000000000000000e+00 1886740808
0.744295 -0.395158 -0.726288 0.000000000000000e+00 1886740808
0.744295 -0.446219 -0.753513 0.000000000000000e+00 1886740808
0.785612 -0.272084 -0.705943 0.000000000000000e+00 1886740808
0.761016 -0.308100 -0.705943 0.000000000000000e+00 1886740808
0.744295 -0.395372 -0.739456 0.000000000000000e+00 1886740808
0.744295 -0.446685 -0.767447 0.000000000000000e+00 1886740808
0.772336 -0.267127 -0.705943 0.000000000000000e+00 1886740808
0.747956 -0.302626 -0.705943 0.000000000000000e+00 1886740808
0.744295 -0.395589 -0.752833 0.000000000000000e+00 1886740808
0.744295 -0.447158 -0.781609 0.000000000000000e+00 1886740808
0.759317 -0.262267 -0.705943 0.000000000000000e+00 1886740808
0.744295 -0.300956 -0.714724 0.000000000000000e+00 1886740808
0.744295 -0.395810 -0.766425 0.000000000000000e+00 1886740808
0.744295 -0.447639 -0.796009 0.000000000000000e+00 1886740808
0.746546 -0.257499 -0.705943 0.000000000000000e+00 1886740808
0.744295 -0.300765 -0.727149 0.000000000000000e+00 1886740808
0.744295 -0.396034 -0.780241 0.000000000000000e+00 1886740808
2.092193 -1.259678 -2.278728 0.000000000000000e+00 1634890835
0.744295 -0.256362 -0.715831 0.000000000000000e+00 1886740808
0.744295 -0.300570 -0.739767 0.000000000000000e+00 1886740808
0.744295 -0.396263 -0.794287 0.000000000000000e+00 1886740808
2.054434 -1.238319 -2.278728 0.000000000000000e+00 1634890835
0.744295 -0.255996 -0.728032 0.000000000000000e+00 1886740808
0.744295 -0.300373 -0.752585 0.000000000000000e+00 1886740808
2.097579 -1.117405 -2.278728 0.000000000000000e+00 1634890835
2.017382 -1.217361 -2.278728 0.000000000000000e+00 1634890835
0.744295 -0.255624 -0.740424 0.000000000000000e+00 1886740808
0.744295 -0.300172 -0.765611 0.000000000000000e+00 1886740808
2.060545 -1.098331 -2.278727 0.000000000000000e+00 1634890835
0.796276 -0.481054 -0.915944 0.000000000000000e+00 1886740808
0.744295 -0.255246 -0.753013 0.000000000000000e+00 1886740808
0.744295 -0.299969 -0.778850 0.000000000000000e+00 1886740808
2.024178 -1.079599 -2.278727 0.000000000000000e+00 1634890835
0.784637 -0.474577 -0.919124 0.000000000000000e+00 1886740808
0.744295 -0.254862 -0.765806 0.000000000000000e+00 1886740808
0.744295 -0.299762 -0.792310 0.000000000000000e+00 1886740808
1.988454 -1.061199 -2.278728 0.000000000000000e+00 1634890835
0.775674 -0.469714 -0.925310 0.000000000000000e+00 1886740808
0.744295 -0.254473 -0.778810 0.000000000000000e+00 1886740808
2.104272 -0.846891 -2.278727 0.000000000000000e+00 1634890835
0.797390 -0.425819 -0.930215 0.000000000000000e+00 1886740808
0.768824 -0.466131 -0.933991 0.000000000000000e+00 1886740808
0.744295 -0.254076 -0.792031 0.000000000000000e+00 1886740808
2.068531 -0.831912 -2.278728 0.000000000000000e+00 1634890835
0.785520 -0.419748 -0.932846 0.000000000000000e+00 1886740808
0.764551 -0.464112 -0.945880 0.000000000000000e+00 1886740808
0.744295 -0.253673 -0.805478 0.000000000000000e+00 1886740808
2.033384 -0.817181 -2.278727 0.000000000000000e+00 1634890835
0.776432 -0.415162 -0.938649 0.000000000000000e+00 1886740808
1.808582 -1.099259 -2.278727 0.000000000000000e+00 1634890835
2.070472 -0.704526 -2.278727 0.000000000000000e+00 1634890835
1.998814 -0.802692 -2.278728 0.000000000000000e+00 1634890835
0.769418 -0.411685 -0.946933 0.000000000000000e+00 1886740808
1.775831 -1.080735 -2.278727 0.000000000000000e+00 1634890835
2.035872 -0.691612 -2.278727 0.000000000000000e+00 1634890835
1.964800 -0.788436 -2.278727 0.000000000000000e+00 1634890835
0.764807 -0.409493 -0.958245 0.000000000000000e+00 1886740808
0.749058 -0.456457 -0.978944 0.000000000000000e+00 1886740808
2.001819 -0.678902 -2.278728 0.000000000000000e+00 1634890835
1.931324 -0.774405 -2.278728 0.000000000000000e+00 1634890835
0.767171 -0.411041 -0.978589 0.000000000000000e+00 1886740808
1.711908 -1.044582 -2.278727 0.000000000000000e+00 1634890835
1.968293 -0.666389 -2.278727 0.000000000000000e+00 1634890835
0.797683 -0.319597 -0.957507 0.000000000000000e+00 1886740808
1.754623 -0.940768 -2.278728 0.000000000000000e+00 1634890835
1.680701 -1.026932 -2.278728 0.000000000000000e+00 1634890835
1.935281 -0.654068 -2.278727 0.000000000000000e+00 1634890835
0.785812 -0.314588 -0.959663 0.000000000000000e+00 1886740808
0.751063 -0.402982 -0.993126 0.000000000000000e+00 1886740808
1.649976 -1.009556 -2.278727 0.000000000000000e+00 1634890835
1.902762 -0.641933 -2.278727 0.000000000000000e+00 1634890835
0.776733 -0.310700 -0.965107 0.000000000000000e+00 1886740808
1.692478 -0.908759 -2.278727 0.000000000000000e+00 1634890835
1.619717 -0.992443 -2.278727 0.000000000000000e+00 1634890835
0.796759 -0.268312 -0.970531 0.000000000000000e+00 1886740808
0.769657 -0.307612 -0.973023 0.000000000000000e+00 1886740808
1.662098 -0.893114 -2.278728 0.000000000000000e+00 1634890835
1.589907 -0.975584 -2.278727 0.000000000000000e+00 1634890835
0.785169 -0.263918 -0.972833 0.000000000000000e+00 1886740808
0.764880 -0.305443 -0.983926 0.000000000000000e+00 1886740808
1.632162 -0.877695 -2.278728 0.000000000000000e+00 1634890835
1.560534 -0.958973 -2.278728 0.000000000000000e+00 1634890835
0.776223 -0.260416 -0.978305 0.000000000000000e+00 1886740808
0.765620 -0.305472 -1.002185 0.000000000000000e+00 1886740808
1.602654 -0.862498 -2.278728 0.000000000000000e+00 1634890835
1.531582 -0.942600 -2.278728 0.000000000000000e+00 1634890835
0.769284 -0.257587 -0.986299 0.000000000000000e+00 1886740808
1.710672 -0.681929 -2.278727 0.000000000000000e+00 1634890835
1.573560 -0.847514 -2.278728 0.000000000000000e+00 1634890835
1.503038 -0.926458 -2.278728 0.000000000000000e+00 1634890835
0.764663 -0.255533 -0.997359 0.000000000000000e+00 1886740808
1.680925 -0.669462 -2.278727 0.000000000000000e+00 1634890835
1.544870 -0.832737 -2.278727 0.000000000000000e+00 1634890835
1.474890 -0.910540 -2.278728 0.000000000000000e+00 1634890835
0.766226 -0.255535 -1.016772 0.000000000000000e+00 1886740808
0.744047 -0.296057 -1.026581 0.000000000000000e+00 1886740808
1.516568 -0.818161 -2.278728 0.000000000000000e+00 1634890835
1.447124 -0.894839 -2.278728 0.000000000000000e+00 1634890835
1.687759 -0.561696 -2.278728 0.000000000000000e+00 1634890835
1.622624 -0.645028 -2.278728 0.000000000000000e+00 1634890835
1.488642 -0.803779 -2.278727 0.000000000000000e+00 1634890835
1.419729 -0.879347 -2.278728 0.000000000000000e+00 1634890835
0.752068 -0.249761 -1.033204 0.000000000000000e+00 1886740808
1.594047 -0.633052 -2.278727 0.000000000000000e+00 1634890835
1.461082 -0.789587 -2.278727 0.000000000000000e+00 1634890835
1.392692 -0.864060 -2.278728 0.000000000000000e+00 1634890835
1.629983 -0.540137 -2.278728 0.000000000000000e+00 1634890835
1.565838 -0.621229 -2.278727 0.000000000000000e+00 1634890835
1.433878 -0.775575 -2.278727 0.000000000000000e+00 1634890835
1.366005 -0.848968 -2.278727 0.000000000000000e+00 1634890835
1.601642 -0.529563 -2.278728 0.000000000000000e+00 1634890835
1.537982 -0.609556 -2.278727 0.000000000000000e+00 1634890835
1.407015 -0.761741 -2.278728 0.000000000000000e+00 1634890835
1.339654 -0.834067 -2.278727 0.000000000000000e+00 1634890835
1.573653 -0.519120 -2.278727 0.000000000000000e+00 1634890835
1.510471 -0.598026 -2.278727 0.000000000000000e+00 1634890835
1.380485 -0.748077 -2.278727 0.000000000000000e+00 1634890835
1.313628 -0.819352 -2.278728 0.000000000000000e+00 1634890835
1.546005 -0.508803 -2.278727 0.000000000000000e+00 1634890835
1.483295 -0.586636 -2.278727 0.000000000000000e+00 1634890835
1.354278 -0.734580 -2.278728 0.000000000000000e+00 1634890835
1.287921 -0.804815 -2.278728 0.000000000000000e+00 1634890835
1.518686 -0.498610 -2.278727 0.000000000000000e+00 1634890835
1.456444 -0.575383 -2.278727 0.000000000000000e+00 1634890835
1.328382 -0.721244 -2.278728 0.000000000000000e+00 1634890835
1.262520 -0.790452 -2.278728 0.000000000000000e+00 1634890835
1.491689 -0.488535 -2.278727 0.000000000000000e+00 1634890835
1.429907 -0.564262 -2.278728 0.000000000000000e+00 1634890835
1.302791 -0.708064 -2.278727 0.000000000000000e+00 1634890835
1.237417 -0.776259 -2.278728 0.000000000000000e+00 1634890835
1.465001 -0.478579 -2.278728 0.000000000000000e+00 1634890835
1.403674 -0.553269 -2.278727 0.000000000000000e+00 1634890835
1.277493 -0.695036 -2.278728 0.000000000000000e+00 1634890835
1.212601 -0.762228 -2.278727 0.000000000000000e+00 1634890835
1.438616 -0.468734 -2.278727 0.000000000000000e+00 1634890835
1.377737 -0.542399 -2.278727 0.000000000000000e+00 1634890835
1.252481 -0.682154 -2.278728 0.000000000000000e+00 1634890835
1.188066 -0.748354 -2.278727 0.000000000000000e+00 1634890835
1.412523 -0.458999 -2.278728 0.000000000000000e+00 1634890835
1.352088 -0.531649 -2.278727 0.000000000000000e+00 1634890835
1.227744 -0.669414 -2.278728 0.000000000000000e+00 1634890835
1.163801 -0.734634 -2.278727 0.000000000000000e+00 1634890835
1.386714 -0.449370 -2.278728 0.000000000000000e+00 1634890835
1.326717 -0.521017 -2.278727 0.000000000000000e+00 1634890835
1.203275 -0.656814 -2.278728 0.000000000000000e+00 1634890835
1.139799 -0.721065 -2.278727 0.000000000000000e+00 1634890835
1.361181 -0.439844 -2.278727 0.000000000000000e+00 1634890835
1.301618 -0.510498 -2.278728 0.000000000000000e+00 1634890835
1.179067 -0.644345 -2.278728 0.000000000000000e+00 1634890835
1.116052 -0.707638 -2.278727 0.000000000000000e+00 1634890835
1.335915 -0.430417 -2.278727 0.000000000000000e+00 1634890835
1.276779 -0.500089 -2.278727 0.000000000000000e+00 1634890835
1.155110 -0.632009 -2.278728 0.000000000000000e+00 1634890835
1.092553 -0.694350 -2.278728 0.000000000000000e+00 1634890835
1.310910 -0.421088 -2.278728 0.000000000000000e+00 1634890835
1.252196 -0.489786 -2.278727 0.000000000000000e+00 1634890835
1.131398 -0.619797 -2.278727 0.000000000000000e+00 1634890835
1.069293 -0.681201 -2.278728 0.000000000000000e+00 1634890835
1.286156 -0.411854 -2.278728 0.000000000000000e+00 1634890835
1.227860 -0.479588 -2.278728 0.000000000000000e+00 1634890835
1.107924 -0.607707 -2.278727 0.000000000000000e+00 1634890835
1.046266 -0.668181 -2.278727 0.000000000000000e+00 1634890835
1.261648 -0.402710 -2.278728 0.000000000000000e+00 1634890835
1.203764 -0.469490 -2.278728 0.000000000000000e+00 1634890835
1.084680 -0.595737 -2.278728 0.000000000000000e+00 1634890835
1.023465 -0.655289 -2.278728 0.000000000000000e+00 1634890835
1.237376 -0.393657 -2.278727 0.000000000000000e+00 1634890835
1.179900 -0.459490 -2.278728 0.000000000000000e+00 1634890835
1.061659 -0.583882 -2.278728 0.000000000000000e+00 1634890835
1.000880 -0.642521 -2.278725 0.000000000000000e+00 1634890835
1.213337 -0.384688 -2.278727 0.000000000000000e+00 1634890835
1.156262 -0.449584 -2.278727 0.000000000000000e+00 1634890835
1.038855 -0.572138 -2.278728 0.000000000000000e+00 1634890835
0.978509 -0.629874 -2.278725 0.000000000000000e+00 1634890835
1.189521 -0.375803 -2.278727 0.000000000000000e+00 1634890835
1.132844 -0.439770 -2.278727 0.000000000000000e+00 1634890835
1.016260 -0.560501 -2.278725 0.000000000000000e+00 1634890835
0.956343 -0.617343 -2.278725 0.000000000000000e+00 1634890835
1.165921 -0.366999 -2.278727 0.000000000000000e+00 1634890835
1.109637 -0.430046 -2.278727 0.000000000000000e+00 1634890835
0.993868 -0.548970 -2.278725 0.000000000000000e+00 1634890835
0.934376 -0.604923 -2.278725 0.000000000000000e+00 1634890835
1.142533 -0.358274 -2.278728 0.000000000000000e+00 1634890835
1.086638 -0.420407 -2.278728 0.000000000000000e+00 1634890835
0.971675 -0.537541 -2.278725 0.000000000000000e+00 1634890835
0.912603 -0.592613 -2.278725 0.000000000000000e+00 1634890835
1.119349 -0.349626 -2.278728 0.000000000000000e+00 1634890835
1.063839 -0.410853 -2.278727 0.000000000000000e+00 1634890835
0.949674 -0.526210 -2.278725 0.000000000000000e+00 1634890835
0.891017 -0.580410 -2.278725 0.000000000000000e+00 1634890835
1.096364 -0.341051 -2.278728 0.000000000000000e+00 1634890835
1.041233 -0.401379 -2.278727 0.000000000000000e+00 1634890835
0.927858 -0.514976 -2.278725 0.000000000000000e+00 1634890835
0.869612 -0.568309 -2.278725 0.000000000000000e+00 1634890835
1.073572 -0.332549 -2.278728 0.000000000000000e+00 1634890835
1.018817 -0.391985 -2.278727 0.000000000000000e+00 1634890835
0.906221 -0.503834 -2.278725 0.000000000000000e+00 1634890835
0.848384 -0.556308 -2.278725 0.000000000000000e+00 1634890835
1.050966 -0.324117 -2.278728 0.000000000000000e+00 1634890835
0.996582 -0.382668 -2.278725 0.000000000000000e+00 1634890835
0.884760 -0.492781 -2.278725 0.000000000000000e+00 1634890835
0.827326 -0.544403 -2.278725 0.000000000000000e+00 1634890835
1.028543 -0.315752 -2.278727 0.000000000000000e+00 1634890835
0.974526 -0.373425 -2.278725 0.000000000000000e+00 1634890835
0.863469 -0.481816 -2.278725 0.000000000000000e+00 1634890835
0.451010 -0.297860 -1.274411 0.000000000000000e+00 1936876886
1.006294 -0.307453 -2.278725 0.000000000000000e+00 1634890835
0.952641 -0.364254 -2.278725 0.000000000000000e+00 1634890835
0.842339 -0.470936 -2.278725 0.000000000000000e+00 1634890835
0.433312 -0.287260 -1.256713 0.000000000000000e+00 1936876886
0.984216 -0.299218 -2.278725 0.000000000000000e+00 1634890835
0.930922 -0.355153 -2.278725 0.000000000000000e+00 1634890835
0.821370 -0.460137 -2.278725 0.000000000000000e+00 1634890835
0.421238 -0.280361 -1.254551 0.000000000000000e+00 1936876886
0.962304 -0.291044 -2.278725 0.000000000000000e+00 1634890835
0.909365 -0.346118 -2.278725 0.000000000000000e+00 1634890835
0.445941 -0.250343 -1.269342 0.000000000000000e+00 1936876886
0.335123 -0.223968 -1.025460 0.000000000000000e+00 1953264973
0.940552 -0.282931 -2.278725 0.000000000000000e+00 1634890835
0.887965 -0.337151 -2.278725 0.000000000000000e+00 1634890835
0.428905 -0.241307 -1.253204 0.000000000000000e+00 1936876886
0.306468 -0.205701 -0.964033 0.000000000000000e+00 1953264973
0.495093 -0.148090 -1.227676 0.000000000000000e+00 1936876886
0.866716 -0.328246 -2.278725 0.000000000000000e+00 1634890835
0.358550 -0.202186 -1.075947 0.000000000000000e+00 1953264973
0.281219 -0.189606 -0.909908 0.000000000000000e+00 1953264973
0.483540 -0.143780 -1.227677 0.000000000000000e+00 1936876886
0.845615 -0.319403 -2.278725 0.000000000000000e+00 1634890835
0.326691 -0.184661 -1.007383 0.000000000000000e+00 1953264973
0.258799 -0.175313 -0.861846 0.000000000000000e+00 1953264973
0.472064 -0.139500 -1.227676 0.000000000000000e+00 1936876886
0.824654 -0.310620 -2.278725 0.000000000000000e+00 1634890835
0.299050 -0.169462 -0.948132 0.000000000000000e+00 1953264973
0.238753 -0.162535 -0.818875 0.000000000000000e+00 1953264973
