# .PCD v0.7 - Point Cloud Data file format
VERSION 0.7
FIELDS x y z rgb label
SIZE 4 4 4 4 4
TYPE F F F F U
COUNT 1 1 1 1 1
WIDTH 543
HEIGHT 1
VIEWPOINT 0 0 0 1 0 0 0
POINTS 543
DATA ascii
45.233902 -17.219610 10.014286 0.000000000000000e+00 1954047316
44.240929 -18.702694 9.849466 0.000000000000000e+00 1954047316
42.284805 -21.624355 10.034822 0.000000000000000e+00 1954047316
35.309475 -13.137459 -1.922829 0.000000000000000e+00 1851878480
33.516438 -14.024675 -1.729730 0.000000000000000e+00 1851878480
30.715555 -15.845734 -1.354693 0.000000000000000e+00 1851878480
29.971371 -17.006659 -1.179168 0.000000000000000e+00 1851878480
31.323284 -11.645509 -1.990100 0.000000000000000e+00 1851878480
30.423416 -12.725965 -1.854680 0.000000000000000e+00 1851878480
28.905613 -14.916607 -1.563081 0.000000000000000e+00 1851878480
28.174561 -15.996524 -1.399135 0.000000000000000e+00 1851878480
29.006544 -10.776003 -2.106420 0.000000000000000e+00 1851878480
28.513916 -11.923074 -2.005213 0.000000000000000e+00 1851878480
27.410036 -14.149210 -1.755792 0.000000000000000e+00 1851878480
26.302286 -14.942327 -1.577807 0.000000000000000e+00 1851878480
26.986315 -10.017866 -2.205096 0.000000000000000e+00 1851878480
26.584200 -11.112254 -2.118624 0.000000000000000e+00 1851878480
25.811094 -13.327953 -1.911298 0.000000000000000e+00 1851878480
24.705017 -14.043190 -1.737477 0.000000000000000e+00 1851878480
24.486315 -9.082907 -2.223705 0.000000000000000e+00 1851878480
24.608707 -10.282882 -2.192058 0.000000000000000e+00 1851878480
23.870935 -12.329936 -2.006490 0.000000000000000e+00 1851878480
23.180967 -13.184668 -1.870367 0.000000000000000e+00 1851878480
22.263622 -8.252136 -2.224747 0.000000000000000e+00 1851878480
22.474911 -9.387970 -2.213102 0.000000000000000e+00 1851878480
21.855717 -11.292540 -2.056117 0.000000000000000e+00 1851878480
21.450167 -12.207458 -1.953220 0.000000000000000e+00 1851878480
20.452309 -7.574986 -2.230379 0.000000000000000e+00 1851878480
20.542015 -8.577554 -2.216004 0.000000000000000e+00 1851878480
20.335749 -10.510450 -2.117240 0.000000000000000e+00 1851878480
19.896568 -11.330014 -2.018499 0.000000000000000e+00 1851878480
18.939051 -7.009155 -2.238437 0.000000000000000e+00 1851878480
18.950251 -7.910104 -2.222832 0.000000000000000e+00 1851878480
19.078724 -9.863839 -2.178211 0.000000000000000e+00 1851878480
18.709518 -10.660375 -2.092866 0.000000000000000e+00 1851878480
17.577665 -6.500335 -2.238437 0.000000000000000e+00 1851878480
17.649298 -7.364463 -2.236807 0.000000000000000e+00 1851878480
17.683893 -9.145554 -2.197133 0.000000000000000e+00 1851878480
17.754957 -10.122506 -2.171327 0.000000000000000e+00 1851878480
16.396891 -6.059027 -2.238438 0.000000000000000e+00 1851878480
16.435862 -6.855713 -2.238437 0.000000000000000e+00 1851878480
16.471401 -8.521156 -2.212793 0.000000000000000e+00 1851878480
16.500786 -9.413086 -2.190496 0.000000000000000e+00 1851878480
15.362925 -5.672592 -2.238438 0.000000000000000e+00 1851878480
15.366795 -6.407504 -2.238437 0.000000000000000e+00 1851878480
15.409599 -7.974350 -2.226085 0.000000000000000e+00 1851878480
15.367610 -8.771892 -2.201145 0.000000000000000e+00 1851878480
14.449846 -5.331328 -2.238438 0.000000000000000e+00 1851878480
14.426388 -6.013242 -2.238438 0.000000000000000e+00 1851878480
14.478448 -7.494840 -2.238437 0.000000000000000e+00 1851878480
14.420271 -8.236079 -2.216994 0.000000000000000e+00 1851878480
13.637500 -5.027727 -2.238437 0.000000000000000e+00 1851878480
13.592603 -5.663687 -2.238437 0.000000000000000e+00 1851878480
13.584809 -7.034462 -2.238437 0.000000000000000e+00 1851878480
13.584776 -7.763550 -2.231694 0.000000000000000e+00 1851878480
12.909999 -4.755833 -2.238438 0.000000000000000e+00 1851878480
12.848186 -5.351589 -2.238437 0.000000000000000e+00 1851878480
12.793025 -6.626553 -2.238437 0.000000000000000e+00 1851878480
12.802249 -7.320752 -2.238437 0.000000000000000e+00 1851878480
12.254599 -4.510883 -2.238437 0.000000000000000e+00 1851878480
12.179386 -5.071207 -2.238437 0.000000000000000e+00 1851878480
12.086507 -6.262574 -2.238438 0.000000000000000e+00 1851878480
12.070436 -6.906454 -2.238438 0.000000000000000e+00 1851878480
11.661040 -4.289051 -2.238438 0.000000000000000e+00 1851878480
11.575185 -4.817896 -2.238438 0.000000000000000e+00 1851878480
11.452116 -5.935750 -2.238437 0.000000000000000e+00 1851878480
11.415782 -6.535825 -2.238437 0.000000000000000e+00 1851878480
11.120871 -4.087170 -2.238438 0.000000000000000e+00 1851878480
11.026560 -4.587885 -2.238438 0.000000000000000e+00 1851878480
10.879248 -5.640618 -2.238438 0.000000000000000e+00 1851878480
10.826600 -6.202271 -2.238438 0.000000000000000e+00 1851878480
10.627125 -3.902643 -2.238438 0.000000000000000e+00 1851878480
10.526116 -4.378078 -2.238439 0.000000000000000e+00 1851878480
10.359295 -5.372750 -2.238438 0.000000000000000e+00 1851878480
10.293450 -5.900441 -2.238438 0.000000000000000e+00 1851878480
10.173991 -3.733298 -2.238437 0.000000000000000e+00 1851878480
10.067681 -4.185881 -2.238438 0.000000000000000e+00 1851878480
9.885151 -5.128491 -2.238439 0.000000000000000e+00 1851878480
9.808616 -5.625966 -2.238438 0.000000000000000e+00 1851878480
9.756624 -3.577317 -2.238438 0.000000000000000e+00 1851878480
9.646152 -4.009161 -2.238438 0.000000000000000e+00 1851878480
9.450988 -4.904820 -2.238438 0.000000000000000e+00 1851878480
9.365773 -5.375264 -2.238438 0.000000000000000e+00 1851878480
9.370878 -3.433158 -2.238438 0.000000000000000e+00 1851878480
9.257172 -3.846085 -2.238438 0.000000000000000e+00 1851878480
9.051878 -4.699211 -2.238438 0.000000000000000e+00 1851878480
8.959615 -5.145332 -2.238438 0.000000000000000e+00 1851878480
9.013248 -3.299504 -2.238437 0.000000000000000e+00 1851878480
8.897067 -3.695113 -2.238438 0.000000000000000e+00 1851878480
8.683690 -4.509529 -2.238438 0.000000000000000e+00 1851878480
8.585714 -4.933658 -2.238438 0.000000000000000e+00 1851878480
8.680715 -3.175237 -2.238438 0.000000000000000e+00 1851878480
8.562682 -3.554927 -2.238438 0.000000000000000e+00 1851878480
8.342910 -4.333970 -2.238438 0.000000000000000e+00 1851878480
8.240314 -4.738126 -2.238437 0.000000000000000e+00 1851878480
8.370687 -3.059378 -2.238439 0.000000000000000e+00 1851878480
8.251312 -3.424389 -2.238438 0.000000000000000e+00 1851878480
8.026538 -4.170988 -2.238438 0.000000000000000e+00 1851878480
7.920233 -4.556929 -2.238438 0.000000000000000e+00 1851878480
8.080903 -2.951083 -2.238439 0.000000000000000e+00 1851878480
7.960612 -3.302520 -2.238438 0.000000000000000e+00 1851878480
7.731998 -4.019246 -2.238437 0.000000000000000e+00 1851878480
7.622731 -4.388511 -2.238438 0.000000000000000e+00 1851878480
7.809419 -2.849625 -2.238438 0.000000000000000e+00 1851878480
7.688567 -3.188469 -2.238438 0.000000000000000e+00 1851878480
7.457071 -3.877616 -2.238437 0.000000000000000e+00 1851878480
7.345469 -4.231553 -2.238437 0.000000000000000e+00 1851878480
7.554512 -2.754369 -2.238438 0.000000000000000e+00 1851878480
7.433392 -3.081490 -2.238438 0.000000000000000e+00 1851878480
7.199820 -3.745089 -2.238437 0.000000000000000e+00 1851878480
7.086404 -4.084902 -2.238437 0.000000000000000e+00 1851878480
7.314677 -2.664744 -2.238438 0.000000000000000e+00 1851878480
7.193528 -2.980932 -2.238437 0.000000000000000e+00 1851878480
6.958558 -3.620798 -2.238437 0.000000000000000e+00 1851878480
6.843770 -3.947546 -2.238437 0.000000000000000e+00 1851878480
7.088573 -2.580256 -2.238438 0.000000000000000e+00 1851878480
6.967602 -2.886217 -2.238438 0.000000000000000e+00 1851878480
6.731794 -3.503978 -2.238437 0.000000000000000e+00 1851878480
6.616005 -3.818613 -2.238438 0.000000000000000e+00 1851878480
6.875040 -2.500460 -2.238438 0.000000000000000e+00 1851878480
6.754414 -2.796840 -2.238438 0.000000000000000e+00 1851878480
6.518244 -3.393964 -2.238438 0.000000000000000e+00 1851878480
6.401760 -3.697335 -2.238437 0.000000000000000e+00 1851878480
6.673018 -2.424968 -2.238437 0.000000000000000e+00 1851878480
6.552876 -2.712350 -2.238438 0.000000000000000e+00 1851878480
6.316745 -3.290164 -2.238438 0.000000000000000e+00 1851878480
6.199832 -3.583027 -2.238438 0.000000000000000e+00 1851878480
6.481579 -2.353432 -2.238438 0.000000000000000e+00 1851878480
6.362037 -2.632344 -2.238438 0.000000000000000e+00 1851878480
6.126278 -3.192042 -2.238438 0.000000000000000e+00 1851878480
6.009159 -3.475095 -2.238438 0.000000000000000e+00 1851878480
6.299882 -2.285539 -2.238438 0.000000000000000e+00 1851878480
6.181037 -2.556466 -2.238438 0.000000000000000e+00 1851878480
5.945934 -3.099137 -2.238438 0.000000000000000e+00 1851878480
5.828794 -3.372997 -2.238437 0.000000000000000e+00 1851878480
6.127176 -2.221004 -2.238438 0.000000000000000e+00 1851878480
6.009107 -2.484385 -2.238438 0.000000000000000e+00 1851878480
5.774898 -3.011025 -2.238438 0.000000000000000e+00 1851878480
5.657898 -3.276261 -2.238438 0.000000000000000e+00 1851878480
5.962793 -2.159581 -2.238438 0.000000000000000e+00 1851878480
5.845565 -2.415826 -2.238438 0.000000000000000e+00 1851878480
5.612449 -2.927339 -2.238438 0.000000000000000e+00 1851878480
5.495727 -3.184460 -2.238438 0.000000000000000e+00 1851878480
5.806120 -2.101041 -2.238438 0.000000000000000e+00 1851878480
5.689785 -2.350520 -2.238438 0.000000000000000e+00 1851878480
5.457929 -2.847737 -2.238437 0.000000000000000e+00 1851878480
5.341596 -3.097216 -2.238438 0.000000000000000e+00 1851878480
5.656606 -2.045174 -2.238438 0.000000000000000e+00 1851878480
5.541207 -2.288232 -2.238438 0.000000000000000e+00 1851878480
5.310751 -2.771918 -2.238438 0.000000000000000e+00 1851878480
5.194903 -3.014181 -2.238438 0.000000000000000e+00 1851878480
5.513750 -1.991797 -2.238438 0.000000000000000e+00 1851878480
5.399324 -2.228750 -2.238438 0.000000000000000e+00 1851878480
5.170381 -2.699606 -2.238438 0.000000000000000e+00 1851878480
5.055100 -2.935050 -2.238438 0.000000000000000e+00 1851878480
5.377093 -1.940738 -2.238438 0.000000000000000e+00 1851878480
5.263665 -2.171882 -2.238438 0.000000000000000e+00 1851878480
5.036332 -2.630552 -2.238438 0.000000000000000e+00 1851878480
4.921687 -2.859535 -2.238438 0.000000000000000e+00 1851878480
5.246229 -1.891842 -2.238438 0.000000000000000e+00 1851878480
5.133818 -2.117447 -2.238438 0.000000000000000e+00 1851878480
4.908175 -2.564531 -2.238438 0.000000000000000e+00 1851878480
4.794225 -2.787389 -2.238438 0.000000000000000e+00 1851878480
5.120777 -1.844970 -2.238438 0.000000000000000e+00 1851878480
5.009400 -2.065289 -2.238438 0.000000000000000e+00 1851878480
4.785508 -2.501341 -2.238438 0.000000000000000e+00 1851878480
4.672303 -2.718377 -2.238438 0.000000000000000e+00 1851878480
5.000390 -1.799992 -2.238438 0.000000000000000e+00 1851878480
4.890055 -2.015258 -2.238437 0.000000000000000e+00 1851878480
4.667969 -2.440788 -2.238438 0.000000000000000e+00 1851878480
4.555545 -2.652292 -2.238438 0.000000000000000e+00 1851878480
4.884750 -1.756789 -2.238438 0.000000000000000e+00 1851878480
4.775468 -1.967222 -2.238438 0.000000000000000e+00 1851878480
4.555224 -2.382710 -2.238438 0.000000000000000e+00 1851878480
4.443616 -2.588940 -2.238438 0.000000000000000e+00 1851878480
4.773565 -1.715247 -2.238438 0.000000000000000e+00 1851878480
4.665336 -1.921054 -2.238438 0.000000000000000e+00 1851878480
4.446967 -2.326941 -2.238438 0.000000000000000e+00 1851878480
4.336201 -2.528143 -2.238438 0.000000000000000e+00 1851878480
4.666571 -1.675275 -2.238438 0.000000000000000e+00 1851878480
4.559396 -1.876642 -2.238438 0.000000000000000e+00 1851878480
4.342925 -2.273346 -2.238438 0.000000000000000e+00 1851878480
4.233024 -2.469745 -2.238438 0.000000000000000e+00 1851878480
4.563519 -1.636774 -2.238438 0.000000000000000e+00 1851878480
4.457396 -1.833883 -2.238438 0.000000000000000e+00 1851878480
4.242838 -2.221788 -2.238438 0.000000000000000e+00 1851878480
4.133819 -2.413598 -2.238438 0.000000000000000e+00 1851878480
4.464178 -1.599664 -2.238438 0.000000000000000e+00 1851878480
4.359105 -1.792679 -2.238438 0.000000000000000e+00 1851878480
4.146471 -2.172143 -2.238438 0.000000000000000e+00 1851878480
4.038344 -2.359562 -2.238438 0.000000000000000e+00 1851878480
4.368337 -1.563859 -2.238438 0.000000000000000e+00 1851878480
4.264308 -1.752939 -2.238438 0.000000000000000e+00 1851878480
4.053603 -2.124304 -2.238438 0.000000000000000e+00 1851878480
3.946381 -2.307513 -2.238438 0.000000000000000e+00 1851878480
4.275806 -1.529294 -2.238438 0.000000000000000e+00 1851878480
4.172814 -1.714584 -2.238438 0.000000000000000e+00 1851878480
3.964036 -2.078167 -2.238438 0.000000000000000e+00 1851878480
3.857726 -2.257339 -2.238438 0.000000000000000e+00 1851878480
4.186402 -1.495893 -2.238438 0.000000000000000e+00 1851878480
4.084438 -1.677536 -2.238438 0.000000000000000e+00 1851878480
3.877585 -2.033633 -2.238438 0.000000000000000e+00 1851878480
3.772190 -2.208928 -2.238437 0.000000000000000e+00 1851878480
4.099955 -1.463601 -2.238438 0.000000000000000e+00 1851878480
3.999009 -1.641725 -2.238438 0.000000000000000e+00 1851878480
3.794075 -1.990616 -2.238438 0.000000000000000e+00 1851878480
3.689599 -2.162189 -2.238438 0.000000000000000e+00 1851878480
4.016309 -1.432354 -2.238438 0.000000000000000e+00 1851878480
3.916372 -1.607084 -2.238438 0.000000000000000e+00 1851878480
3.713349 -1.949031 -2.238438 0.000000000000000e+00 1851878480
3.609790 -2.117022 -2.238438 0.000000000000000e+00 1851878480
4.006151 -1.427338 -2.278728 0.000000000000000e+00 1634890835
3.836380 -1.573551 -2.238438 0.000000000000000e+00 1851878480
3.635254 -1.908803 -2.238438 0.000000000000000e+00 1851878480
3.532612 -2.073345 -2.238438 0.000000000000000e+00 1851878480
3.926266 -1.397497 -2.278728 0.000000000000000e+00 1634890835
3.758893 -1.541070 -2.238438 0.000000000000000e+00 1851878480
3.559654 -1.869857 -2.238438 0.000000000000000e+00 1851878480
3.457926 -2.031078 -2.238438 0.000000000000000e+00 1851878480
3.848820 -1.368569 -2.278728 0.000000000000000e+00 1634890835
3.683791 -1.509588 -2.238438 0.000000000000000e+00 1851878480
3.486421 -1.832134 -2.238437 0.000000000000000e+00 1851878480
3.385602 -1.990149 -2.238438 0.000000000000000e+00 1851878480
3.773688 -1.340507 -2.278728 0.000000000000000e+00 1634890835
3.610950 -1.479055 -2.238438 0.000000000000000e+00 1851878480
3.415432 -1.795568 -2.238437 0.000000000000000e+00 1851878480
3.315520 -1.950490 -2.238438 0.000000000000000e+00 1851878480
3.700760 -1.313267 -2.278728 0.000000000000000e+00 1634890835
3.540261 -1.449423 -2.238438 0.000000000000000e+00 1851878480
3.346579 -1.760101 -2.238438 0.000000000000000e+00 1851878480
3.247563 -1.912036 -2.238438 0.000000000000000e+00 1851878480
3.629926 -1.286811 -2.278729 0.000000000000000e+00 1634890835
3.471620 -1.420647 -2.238438 0.000000000000000e+00 1851878480
3.279752 -1.725677 -2.238438 0.000000000000000e+00 1851878480
3.181630 -1.874723 -2.238438 0.000000000000000e+00 1851878480
3.561092 -1.261101 -2.278728 0.000000000000000e+00 1634890835
3.466212 -1.417759 -2.278727 0.000000000000000e+00 1634890835
3.214857 -1.692249 -2.238438 0.000000000000000e+00 1851878480
3.117619 -1.838501 -2.238438 0.000000000000000e+00 1851878480
3.494163 -1.236102 -2.278728 0.000000000000000e+00 1634890835
3.400213 -1.390092 -2.278728 0.000000000000000e+00 1634890835
3.151801 -1.659767 -2.238438 0.000000000000000e+00 1851878480
3.055439 -1.803316 -2.238438 0.000000000000000e+00 1851878480
3.429051 -1.211786 -2.278727 0.000000000000000e+00 1634890835
3.336017 -1.363183 -2.278727 0.000000000000000e+00 1634890835
3.090496 -1.628188 -2.238438 0.000000000000000e+00 1851878480
2.995004 -1.769118 -2.238438 0.000000000000000e+00 1851878480
3.365675 -1.188117 -2.278728 0.000000000000000e+00 1634890835
3.273544 -1.336997 -2.278728 0.000000000000000e+00 1634890835
3.030862 -1.597471 -2.238438 0.000000000000000e+00 1851878480
2.936229 -1.735860 -2.238438 0.000000000000000e+00 1851878480
3.303957 -1.165065 -2.278728 0.000000000000000e+00 1634890835
3.212714 -1.311497 -2.278728 0.000000000000000e+00 1634890835
2.972820 -1.567573 -2.238438 0.000000000000000e+00 1851878480
2.879039 -1.703499 -2.238438 0.000000000000000e+00 1851878480
3.243823 -1.142608 -2.278728 0.000000000000000e+00 1634890835
3.153457 -1.286658 -2.278728 0.000000000000000e+00 1634890835
2.916302 -1.538460 -2.238438 0.000000000000000e+00 1851878480
2.823362 -1.671995 -2.238438 0.000000000000000e+00 1851878480
3.185206 -1.120717 -2.278728 0.000000000000000e+00 1634890835
3.095703 -1.262449 -2.278727 0.000000000000000e+00 1634890835
2.861239 -1.510097 -2.238438 0.000000000000000e+00 1851878480
2.769130 -1.641311 -2.238438 0.000000000000000e+00 1851878480
3.128042 -1.099369 -2.278728 0.000000000000000e+00 1634890835
3.039389 -1.238845 -2.278727 0.000000000000000e+00 1634890835
2.807568 -1.482453 -2.238438 0.000000000000000e+00 1851878480
2.716283 -1.611408 -2.238438 0.000000000000000e+00 1851878480
3.072266 -1.078540 -2.278727 0.000000000000000e+00 1634890835
2.984452 -1.215816 -2.278728 0.000000000000000e+00 1634890835
2.755227 -1.455491 -2.238438 0.000000000000000e+00 1851878480
0.840393 -0.499001 -0.705944 0.000000000000000e+00 1886740808
3.017823 -1.058209 -2.278728 0.000000000000000e+00 1634890835
2.930833 -1.193341 -2.278728 0.000000000000000e+00 1634890835
2.704159 -1.429187 -2.238438 0.000000000000000e+00 1851878480
0.824541 -0.490032 -0.705944 0.000000000000000e+00 1886740808
2.964657 -1.038357 -2.278728 0.000000000000000e+00 1634890835
2.878479 -1.171398 -2.278728 0.000000000000000e+00 1634890835
0.837101 -0.442631 -0.705944 0.000000000000000e+00 1886740808
0.809071 -0.481280 -0.705944 0.000000000000000e+00 1886740808
2.912717 -1.018962 -2.278728 0.000000000000000e+00 1634890835
2.827340 -1.149960 -2.278728 0.000000000000000e+00 1634890835
0.821750 -0.434723 -0.705944 0.000000000000000e+00 1886740808
0.793968 -0.472734 -0.705944 0.000000000000000e+00 1886740808
2.861953 -1.000006 -2.278728 0.000000000000000e+00 1634890835
2.777364 -1.129013 -2.278727 0.000000000000000e+00 1634890835
0.806753 -0.426999 -0.705944 0.000000000000000e+00 1886740808
0.779215 -0.464387 -0.705944 0.000000000000000e+00 1886740808
2.812318 -0.981473 -2.278728 0.000000000000000e+00 1634890835
2.728505 -1.108534 -2.278728 0.000000000000000e+00 1634890835
0.792095 -0.419449 -0.705944 0.000000000000000e+00 1886740808
0.764798 -0.456231 -0.705944 0.000000000000000e+00 1886740808
2.763768 -0.963343 -2.278728 0.000000000000000e+00 1634890835
0.830480 -0.337216 -0.705944 0.000000000000000e+00 1886740808
0.777763 -0.412067 -0.705944 0.000000000000000e+00 1886740808
0.750704 -0.448258 -0.705944 0.000000000000000e+00 1886740808
0.841491 -0.292946 -0.705944 0.000000000000000e+00 1886740808
0.815996 -0.331145 -0.705944 0.000000000000000e+00 1886740808
0.763745 -0.404846 -0.705944 0.000000000000000e+00 1886740808
0.744301 -0.444871 -0.713015 0.000000000000000e+00 1886740808
0.827084 -0.287567 -0.705944 0.000000000000000e+00 1886740808
0.801819 -0.325202 -0.705944 0.000000000000000e+00 1886740808
0.750027 -0.397780 -0.705944 0.000000000000000e+00 1886740808
0.744301 -0.445314 -0.726307 0.000000000000000e+00 1886740808
0.812976 -0.282300 -0.705944 0.000000000000000e+00 1886740808
0.787938 -0.319384 -0.705944 0.000000000000000e+00 1886740808
0.744301 -0.394950 -0.713326 0.000000000000000e+00 1886740808
0.744301 -0.445765 -0.739805 0.000000000000000e+00 1886740808
0.799156 -0.277140 -0.705944 0.000000000000000e+00 1886740808
0.774340 -0.313685 -0.705944 0.000000000000000e+00 1886740808
0.744301 -0.395161 -0.726294 0.000000000000000e+00 1886740808
0.744301 -0.446223 -0.753519 0.000000000000000e+00 1886740808
0.785613 -0.272084 -0.705944 0.000000000000000e+00 1886740808
0.761017 -0.308100 -0.705944 0.000000000000000e+00 1886740808
0.744301 -0.395375 -0.739462 0.000000000000000e+00 1886740808
0.744301 -0.446689 -0.767453 0.000000000000000e+00 1886740808
0.772337 -0.267127 -0.705944 0.000000000000000e+00 1886740808
0.747957 -0.302626 -0.705944 0.000000000000000e+00 1886740808
0.744300 -0.395592 -0.752839 0.000000000000000e+00 1886740808
0.744301 -0.447161 -0.781616 0.000000000000000e+00 1886740808
0.759318 -0.262267 -0.705944 0.000000000000000e+00 1886740808
0.744301 -0.300958 -0.714730 0.000000000000000e+00 1886740808
0.744301 -0.395813 -0.766432 0.000000000000000e+00 1886740808
0.744301 -0.447642 -0.796015 0.000000000000000e+00 1886740808
0.746547 -0.257500 -0.705944 0.000000000000000e+00 1886740808
0.744301 -0.300767 -0.727154 0.000000000000000e+00 1886740808
0.744301 -0.396037 -0.780247 0.000000000000000e+00 1886740808
2.092193 -1.259678 -2.278728 0.000000000000000e+00 1634890835
0.744301 -0.256364 -0.715836 0.000000000000000e+00 1886740808
0.744301 -0.300573 -0.739773 0.000000000000000e+00 1886740808
0.744300 -0.396266 -0.794293 0.000000000000000e+00 1886740808
2.054435 -1.238319 -2.278728 0.000000000000000e+00 1634890835
0.744301 -0.255998 -0.728038 0.000000000000000e+00 1886740808
0.744301 -0.300375 -0.752591 0.000000000000000e+00 1886740808
2.097579 -1.117405 -2.278728 0.000000000000000e+00 1634890835
2.017382 -1.217361 -2.278728 0.000000000000000e+00 1634890835
0.744301 -0.255626 -0.740430 0.000000000000000e+00 1886740808
0.744301 -0.300175 -0.765617 0.000000000000000e+00 1886740808
2.060545 -1.098331 -2.278728 0.000000000000000e+00 1634890835
0.796276 -0.481054 -0.915944 0.000000000000000e+00 1886740808
0.744301 -0.255248 -0.753019 0.000000000000000e+00 1886740808
0.744301 -0.299971 -0.778856 0.000000000000000e+00 1886740808
2.024178 -1.079599 -2.278728 0.000000000000000e+00 1634890835
0.784638 -0.474578 -0.919126 0.000000000000000e+00 1886740808
0.744301 -0.254864 -0.765812 0.000000000000000e+00 1886740808
0.744301 -0.299764 -0.792317 0.000000000000000e+00 1886740808
1.988454 -1.061199 -2.278728 0.000000000000000e+00 1634890835
0.775676 -0.469715 -0.925312 0.000000000000000e+00 1886740808
0.744301 -0.254475 -0.778816 0.000000000000000e+00 1886740808
2.104273 -0.846891 -2.278728 0.000000000000000e+00 1634890835
0.797389 -0.425819 -0.930215 0.000000000000000e+00 1886740808
0.768827 -0.466132 -0.933993 0.000000000000000e+00 1886740808
0.744301 -0.254078 -0.792037 0.000000000000000e+00 1886740808
2.068531 -0.831912 -2.278728 0.000000000000000e+00 1634890835
0.785521 -0.419748 -0.932847 0.000000000000000e+00 1886740808
0.764554 -0.464114 -0.945885 0.000000000000000e+00 1886740808
0.744301 -0.253675 -0.805484 0.000000000000000e+00 1886740808
2.033385 -0.817181 -2.278728 0.000000000000000e+00 1634890835
0.776434 -0.415162 -0.938651 0.000000000000000e+00 1886740808
1.808582 -1.099259 -2.278728 0.000000000000000e+00 1634890835
2.070473 -0.704526 -2.278728 0.000000000000000e+00 1634890835
1.998815 -0.802692 -2.278728 0.000000000000000e+00 1634890835
0.769421 -0.411686 -0.946936 0.000000000000000e+00 1886740808
1.775831 -1.080735 -2.278728 0.000000000000000e+00 1634890835
2.035872 -0.691612 -2.278728 0.000000000000000e+00 1634890835
1.964801 -0.788436 -2.278728 0.000000000000000e+00 1634890835
0.764810 -0.409494 -0.958249 0.000000000000000e+00 1886740808
0.749058 -0.456457 -0.978944 0.000000000000000e+00 1886740808
2.001819 -0.678902 -2.278728 0.000000000000000e+00 1634890835
1.931325 -0.774405 -2.278728 0.000000000000000e+00 1634890835
0.767183 -0.411048 -0.978605 0.000000000000000e+00 1886740808
1.711908 -1.044582 -2.278728 0.000000000000000e+00 1634890835
1.968294 -0.666389 -2.278728 0.000000000000000e+00 1634890835
0.797683 -0.319597 -0.957507 0.000000000000000e+00 1886740808
1.754623 -0.940768 -2.278728 0.000000000000000e+00 1634890835
1.680701 -1.026932 -2.278728 0.000000000000000e+00 1634890835
1.935281 -0.654068 -2.278728 0.000000000000000e+00 1634890835
0.785813 -0.314589 -0.959663 0.000000000000000e+00 1886740808
0.751062 -0.402981 -0.993124 0.000000000000000e+00 1886740808
1.649976 -1.009556 -2.278728 0.000000000000000e+00 1634890835
1.902763 -0.641933 -2.278727 0.000000000000000e+00 1634890835
0.776734 -0.310700 -0.965108 0.000000000000000e+00 1886740808
1.692479 -0.908759 -2.278728 0.000000000000000e+00 1634890835
1.619717 -0.992443 -2.278728 0.000000000000000e+00 1634890835
0.796759 -0.268312 -0.970531 0.000000000000000e+00 1886740808
0.769659 -0.307613 -0.973026 0.000000000000000e+00 1886740808
1.662098 -0.893114 -2.278728 0.000000000000000e+00 1634890835
1.589907 -0.975584 -2.278728 0.000000000000000e+00 1634890835
0.785170 -0.263919 -0.972834 0.000000000000000e+00 1886740808
0.764883 -0.305444 -0.983929 0.000000000000000e+00 1886740808
1.632162 -0.877695 -2.278728 0.000000000000000e+00 1634890835
1.560534 -0.958973 -2.278728 0.000000000000000e+00 1634890835
0.776225 -0.260416 -0.978306 0.000000000000000e+00 1886740808
0.765626 -0.305475 -1.002193 0.000000000000000e+00 1886740808
1.602654 -0.862498 -2.278728 0.000000000000000e+00 1634890835
1.531582 -0.942600 -2.278728 0.000000000000000e+00 1634890835
0.769285 -0.257588 -0.986301 0.000000000000000e+00 1886740808
1.710673 -0.681929 -2.278728 0.000000000000000e+00 1634890835
1.573561 -0.847514 -2.278728 0.000000000000000e+00 1634890835
1.503038 -0.926459 -2.278728 0.000000000000000e+00 1634890835
0.764666 -0.255534 -0.997362 0.000000000000000e+00 1886740808
1.680926 -0.669462 -2.278728 0.000000000000000e+00 1634890835
1.544870 -0.832738 -2.278728 0.000000000000000e+00 1634890835
1.474890 -0.910541 -2.278728 0.000000000000000e+00 1634890835
0.766237 -0.255539 -1.016787 0.000000000000000e+00 1886740808
0.744053 -0.296059 -1.026588 0.000000000000000e+00 1886740808
1.516568 -0.818162 -2.278728 0.000000000000000e+00 1634890835
1.447124 -0.894839 -2.278728 0.000000000000000e+00 1634890835
1.687759 -0.561696 -2.278728 0.000000000000000e+00 1634890835
1.622625 -0.645029 -2.278728 0.000000000000000e+00 1634890835
1.488643 -0.803779 -2.278728 0.000000000000000e+00 1634890835
1.419729 -0.879347 -2.278728 0.000000000000000e+00 1634890835
0.752061 -0.249759 -1.033194 0.000000000000000e+00 1886740808
1.594048 -0.633052 -2.278728 0.000000000000000e+00 1634890835
1.461083 -0.789587 -2.278728 0.000000000000000e+00 1634890835
1.392692 -0.864060 -2.278728 0.000000000000000e+00 1634890835
1.629983 -0.540137 -2.278728 0.000000000000000e+00 1634890835
1.565838 -0.621229 -2.278728 0.000000000000000e+00 1634890835
1.433878 -0.775576 -2.278728 0.000000000000000e+00 1634890835
1.366005 -0.848968 -2.278728 0.000000000000000e+00 1634890835
1.601642 -0.529563 -2.278728 0.000000000000000e+00 1634890835
1.537982 -0.609556 -2.278727 0.000000000000000e+00 1634890835
1.407015 -0.761741 -2.278728 0.000000000000000e+00 1634890835
1.339654 -0.834067 -2.278728 0.000000000000000e+00 1634890835
1.573653 -0.519120 -2.278728 0.000000000000000e+00 1634890835
1.510471 -0.598026 -2.278728 0.000000000000000e+00 1634890835
1.380485 -0.748077 -2.278728 0.000000000000000e+00 1634890835
1.313628 -0.819352 -2.278728 0.000000000000000e+00 1634890835
1.546005 -0.508803 -2.278728 0.000000000000000e+00 1634890835
1.483296 -0.586636 -2.278728 0.000000000000000e+00 1634890835
1.354278 -0.734580 -2.278728 0.000000000000000e+00 1634890835
1.287921 -0.804815 -2.278728 0.000000000000000e+00 1634890835
1.518686 -0.498610 -2.278728 0.000000000000000e+00 1634890835
1.456444 -0.575383 -2.278728 0.000000000000000e+00 1634890835
1.328383 -0.721245 -2.278728 0.000000000000000e+00 1634890835
1.262520 -0.790452 -2.278728 0.000000000000000e+00 1634890835
1.491689 -0.488535 -2.278728 0.000000000000000e+00 1634890835
1.429907 -0.564262 -2.278728 0.000000000000000e+00 1634890835
1.302791 -0.708064 -2.278728 0.000000000000000e+00 1634890835
1.237417 -0.776259 -2.278728 0.000000000000000e+00 1634890835
1.465001 -0.478579 -2.278728 0.000000000000000e+00 1634890835
1.403674 -0.553269 -2.278728 0.000000000000000e+00 1634890835
1.277493 -0.695036 -2.278728 0.000000000000000e+00 1634890835
1.212601 -0.762228 -2.278728 0.000000000000000e+00 1634890835
1.438616 -0.468734 -2.278728 0.000000000000000e+00 1634890835
1.377738 -0.542399 -2.278728 0.000000000000000e+00 1634890835
1.252481 -0.682154 -2.278728 0.000000000000000e+00 1634890835
1.188066 -0.748354 -2.278728 0.000000000000000e+00 1634890835
1.412523 -0.458999 -2.278728 0.000000000000000e+00 1634890835
1.352088 -0.531649 -2.278728 0.000000000000000e+00 1634890835
1.227744 -0.669414 -2.278728 0.000000000000000e+00 1634890835
1.163802 -0.734634 -2.278728 0.000000000000000e+00 1634890835
1.386714 -0.449371 -2.278728 0.000000000000000e+00 1634890835
1.326717 -0.521017 -2.278727 0.000000000000000e+00 1634890835
1.203275 -0.656814 -2.278728 0.000000000000000e+00 1634890835
1.139799 -0.721065 -2.278728 0.000000000000000e+00 1634890835
1.361181 -0.439844 -2.278728 0.000000000000000e+00 1634890835
1.301617 -0.510498 -2.278728 0.000000000000000e+00 1634890835
1.179067 -0.644346 -2.278728 0.000000000000000e+00 1634890835
1.116053 -0.707638 -2.278728 0.000000000000000e+00 1634890835
1.335915 -0.430417 -2.278728 0.000000000000000e+00 1634890835
1.276779 -0.500089 -2.278728 0.000000000000000e+00 1634890835
1.155110 -0.632009 -2.278728 0.000000000000000e+00 1634890835
1.092553 -0.694350 -2.278728 0.000000000000000e+00 1634890835
1.310910 -0.421088 -2.278728 0.000000000000000e+00 1634890835
1.252196 -0.489786 -2.278728 0.000000000000000e+00 1634890835
1.131398 -0.619797 -2.278728 0.000000000000000e+00 1634890835
1.069293 -0.681201 -2.278728 0.000000000000000e+00 1634890835
1.286156 -0.411854 -2.278728 0.000000000000000e+00 1634890835
1.227860 -0.479588 -2.278728 0.000000000000000e+00 1634890835
1.107924 -0.607708 -2.278728 0.000000000000000e+00 1634890835
1.046266 -0.668181 -2.278728 0.000000000000000e+00 1634890835
1.261648 -0.402710 -2.278728 0.000000000000000e+00 1634890835
1.203764 -0.469490 -2.278728 0.000000000000000e+00 1634890835
1.084680 -0.595737 -2.278728 0.000000000000000e+00 1634890835
1.023465 -0.655290 -2.278728 0.000000000000000e+00 1634890835
1.237377 -0.393657 -2.278728 0.000000000000000e+00 1634890835
1.179900 -0.459490 -2.278728 0.000000000000000e+00 1634890835
1.061659 -0.583882 -2.278728 0.000000000000000e+00 1634890835
1.000881 -0.642522 -2.278728 0.000000000000000e+00 1634890835
1.213337 -0.384688 -2.278728 0.000000000000000e+00 1634890835
1.156263 -0.449585 -2.278728 0.000000000000000e+00 1634890835
1.038855 -0.572138 -2.278728 0.000000000000000e+00 1634890835
0.978510 -0.629874 -2.278728 0.000000000000000e+00 1634890835
1.189521 -0.375803 -2.278728 0.000000000000000e+00 1634890835
1.132844 -0.439770 -2.278728 0.000000000000000e+00 1634890835
1.016261 -0.560501 -2.278728 0.000000000000000e+00 1634890835
0.956344 -0.617343 -2.278728 0.000000000000000e+00 1634890835
1.165921 -0.366999 -2.278728 0.000000000000000e+00 1634890835
1.109637 -0.430046 -2.278728 0.000000000000000e+00 1634890835
0.993869 -0.548971 -2.278728 0.000000000000000e+00 1634890835
0.934377 -0.604923 -2.278728 0.000000000000000e+00 1634890835
1.142533 -0.358274 -2.278728 0.000000000000000e+00 1634890835
1.086638 -0.420407 -2.278728 0.000000000000000e+00 1634890835
0.971676 -0.537541 -2.278728 0.000000000000000e+00 1634890835
0.912604 -0.592614 -2.278728 0.000000000000000e+00 1634890835
1.119350 -0.349626 -2.278728 0.000000000000000e+00 1634890835
1.063839 -0.410853 -2.278728 0.000000000000000e+00 1634890835
0.949675 -0.526211 -2.278728 0.000000000000000e+00 1634890835
0.891018 -0.580411 -2.278728 0.000000000000000e+00 1634890835
1.096364 -0.341051 -2.278728 0.000000000000000e+00 1634890835
1.041234 -0.401380 -2.278728 0.000000000000000e+00 1634890835
0.927858 -0.514976 -2.278728 0.000000000000000e+00 1634890835
0.869613 -0.568309 -2.278728 0.000000000000000e+00 1634890835
1.073572 -0.332549 -2.278728 0.000000000000000e+00 1634890835
1.018817 -0.391985 -2.278728 0.000000000000000e+00 1634890835
0.906222 -0.503834 -2.278728 0.000000000000000e+00 1634890835
0.848385 -0.556308 -2.278728 0.000000000000000e+00 1634890835
1.050966 -0.324117 -2.278728 0.000000000000000e+00 1634890835
0.996583 -0.382669 -2.278728 0.000000000000000e+00 1634890835
0.884761 -0.492782 -2.278728 0.000000000000000e+00 1634890835
0.827327 -0.544404 -2.278728 0.000000000000000e+00 1634890835
1.028543 -0.315752 -2.278728 0.000000000000000e+00 1634890835
0.974527 -0.373425 -2.278728 0.000000000000000e+00 1634890835
0.863470 -0.481817 -2.278728 0.000000000000000e+00 1634890835
0.451010 -0.297860 -1.274412 0.000000000000000e+00 1936876886
1.006295 -0.307453 -2.278728 0.000000000000000e+00 1634890835
0.952642 -0.364254 -2.278728 0.000000000000000e+00 1634890835
0.842340 -0.470937 -2.278728 0.000000000000000e+00 1634890835
0.433313 -0.287260 -1.256714 0.000000000000000e+00 1936876886
0.984217 -0.299218 -2.278728 0.000000000000000e+00 1634890835
0.930923 -0.355153 -2.278728 0.000000000000000e+00 1634890835
0.821371 -0.460138 -2.278728 0.000000000000000e+00 1634890835
0.421247 -0.280368 -1.254579 0.000000000000000e+00 1936876886
0.962305 -0.291044 -2.278728 0.000000000000000e+00 1634890835
0.909366 -0.346119 -2.278728 0.000000000000000e+00 1634890835
0.445941 -0.250344 -1.269343 0.000000000000000e+00 1936876886
0.335125 -0.223969 -1.025465 0.000000000000000e+00 1953264973
0.940554 -0.282931 -2.278728 0.000000000000000e+00 1634890835
0.887966 -0.337151 -2.278728 0.000000000000000e+00 1634890835
0.428906 -0.241307 -1.253205 0.000000000000000e+00 1936876886
0.306470 -0.205703 -0.964039 0.000000000000000e+00 1953264973
0.495093 -0.148090 -1.227674 0.000000000000000e+00 1936876886
0.866717 -0.328247 -2.278728 0.000000000000000e+00 1634890835
0.358552 -0.202187 -1.075954 0.000000000000000e+00 1953264973
0.281221 -0.189607 -0.909913 0.000000000000000e+00 1953264973
0.483539 -0.143780 -1.227675 0.000000000000000e+00 1936876886
0.845616 -0.319403 -2.278728 0.000000000000000e+00 1634890835
0.326692 -0.184662 -1.007388 0.000000000000000e+00 1953264973
0.258800 -0.175314 -0.861851 0.000000000000000e+00 1953264973
0.472063 -0.139500 -1.227674 0.000000000000000e+00 1936876886
0.824655 -0.310620 -2.278728 0.000000000000000e+00 1634890835
0.299052 -0.169463 -0.948137 0.000000000000000e+00 1953264973
0.238754 -0.162536 -0.818880 0.000000000000000e+00 1953264973
