# .PCD v0.7 - Point Cloud Data file format
VERSION 0.7
FIELDS x y z rgb label
SIZE 4 4 4 4 4
TYPE F F F F U
COUNT 1 1 1 1 1
WIDTH 540
HEIGHT 1
VIEWPOINT 0 0 0 1 0 0 0
POINTS 540
DATA ascii
41.690289 -15.511543 -2.270306 0.000000000000000e+00 1851878480
34.932358 -14.617156 -1.802804 0.000000000000000e+00 1851878480
30.931456 -15.957114 -1.364213 0.000000000000000e+00 1851878480
30.149895 -17.107958 -1.186191 0.000000000000000e+00 1851878480
31.666769 -11.773211 -2.011923 0.000000000000000e+00 1851878480
30.487062 -12.752587 -1.858561 0.000000000000000e+00 1851878480
28.644732 -14.781981 -1.548973 0.000000000000000e+00 1851878480
27.829603 -15.800671 -1.382005 0.000000000000000e+00 1851878480
28.842388 -10.715018 -2.094500 0.000000000000000e+00 1851878480
28.121670 -11.759057 -1.977628 0.000000000000000e+00 1851878480
27.151628 -14.015819 -1.739239 0.000000000000000e+00 1851878480
26.461153 -15.032578 -1.587338 0.000000000000000e+00 1851878480
26.752266 -9.930982 -2.185972 0.000000000000000e+00 1851878480
26.420547 -11.043847 -2.105582 0.000000000000000e+00 1851878480
25.754755 -13.298862 -1.907125 0.000000000000000e+00 1851878480
24.947969 -14.181292 -1.754562 0.000000000000000e+00 1851878480
24.443159 -9.066898 -2.219786 0.000000000000000e+00 1851878480
24.716827 -10.328060 -2.201688 0.000000000000000e+00 1851878480
23.924213 -12.357456 -2.010968 0.000000000000000e+00 1851878480
23.540230 -13.389007 -1.899354 0.000000000000000e+00 1851878480
22.345522 -8.282492 -2.232931 0.000000000000000e+00 1851878480
22.619822 -9.448500 -2.227372 0.000000000000000e+00 1851878480
22.210449 -11.475826 -2.089489 0.000000000000000e+00 1851878480
21.916279 -12.472725 -1.995664 0.000000000000000e+00 1851878480
20.495914 -7.591136 -2.235134 0.000000000000000e+00 1851878480
20.579685 -8.593282 -2.220068 0.000000000000000e+00 1851878480
20.648224 -10.671952 -2.149773 0.000000000000000e+00 1851878480
20.160273 -11.480179 -2.045253 0.000000000000000e+00 1851878480
18.930607 -7.006031 -2.237440 0.000000000000000e+00 1851878480
19.000383 -7.931030 -2.228713 0.000000000000000e+00 1851878480
19.193546 -9.923203 -2.191321 0.000000000000000e+00 1851878480
18.812819 -10.719233 -2.104421 0.000000000000000e+00 1851878480
17.619967 -6.515979 -2.243825 0.000000000000000e+00 1851878480
17.667377 -7.372007 -2.239099 0.000000000000000e+00 1851878480
17.753035 -9.181312 -2.205724 0.000000000000000e+00 1851878480
17.601402 -10.034961 -2.152550 0.000000000000000e+00 1851878480
16.391556 -6.057055 -2.237710 0.000000000000000e+00 1851878480
16.506889 -6.885340 -2.248111 0.000000000000000e+00 1851878480
16.549736 -8.561683 -2.223317 0.000000000000000e+00 1851878480
16.523481 -9.426033 -2.193508 0.000000000000000e+00 1851878480
8.767451 -3.237286 -1.277452 1.880790849211783e-38 1684957512
15.389058 -6.416787 -2.241681 0.000000000000000e+00 1851878480
15.446280 -7.993332 -2.231384 0.000000000000000e+00 1851878480
15.406006 -8.793809 -2.206644 0.000000000000000e+00 1851878480
8.259405 -3.047341 -1.279471 1.880790849211783e-38 1684957512
8.280325 -3.451426 -1.284798 1.880790849211783e-38 1684957512
14.536789 -7.525040 -2.247457 0.000000000000000e+00 1851878480
14.459942 -8.258737 -2.223093 0.000000000000000e+00 1851878480
7.774574 -2.866246 -1.276106 1.880790849211783e-38 1684957512
7.808556 -3.253624 -1.285917 1.880790849211783e-38 1684957512
13.661971 -7.074418 -2.251152 0.000000000000000e+00 1851878480
13.597260 -7.770685 -2.233744 0.000000000000000e+00 1851878480
7.776121 -2.864596 -1.348285 1.880790849211783e-38 1684957512
7.761154 -3.232714 -1.352164 1.880790849211783e-38 1684957512
12.822953 -6.642055 -2.243674 0.000000000000000e+00 1851878480
12.798363 -7.318529 -2.237758 0.000000000000000e+00 1851878480
7.793664 -2.868826 -1.423598 1.880790849211783e-38 1684957512
7.763366 -3.232480 -1.426821 1.880790849211783e-38 1684957512
12.088471 -6.263592 -2.238802 0.000000000000000e+00 1851878480
12.068981 -6.905621 -2.238168 0.000000000000000e+00 1851878480
7.797269 -2.867916 -1.496753 1.880790849211783e-38 1684957512
7.791572 -3.243057 -1.506753 1.880790849211783e-38 1684957512
11.462345 -5.941052 -2.240437 0.000000000000000e+00 1851878480
11.484031 -6.574899 -2.251820 0.000000000000000e+00 1851878480
7.753422 -2.849557 -1.560629 1.880790849211783e-38 1684957512
7.769444 -3.232678 -1.577229 1.880790849211783e-38 1684957512
10.910549 -5.656847 -2.244878 0.000000000000000e+00 1851878480
10.813729 -6.194898 -2.235777 0.000000000000000e+00 1851878480
7.758381 -2.849143 -1.634182 1.880790849211783e-38 1684957512
7.772739 -3.232879 -1.652917 1.880790849211783e-38 1684957512
10.420050 -5.404260 -2.251566 0.000000000000000e+00 1851878480
10.328399 -5.920474 -2.246038 0.000000000000000e+00 1851878480
7.810007 -2.865845 -1.718324 1.880790849211783e-38 1684957512
7.762974 -3.227644 -1.726012 1.880790849211783e-38 1684957512
9.936852 -5.155314 -2.250146 0.000000000000000e+00 1851878480
9.822049 -5.633670 -2.241503 0.000000000000000e+00 1851878480
7.742658 -2.838886 -1.776379 1.880790849211783e-38 1684957512
7.744379 -3.218741 -1.797122 1.880790849211783e-38 1684957512
9.518513 -4.939864 -2.254431 0.000000000000000e+00 1851878480
9.371049 -5.378291 -2.239699 0.000000000000000e+00 1851878480
7.760169 -2.843051 -1.853685 1.880790849211783e-38 1684957512
7.800619 -3.240930 -1.886235 1.880790849211783e-38 1684957512
9.096052 -4.722144 -2.249362 0.000000000000000e+00 1851878480
8.938937 -5.133457 -2.233272 0.000000000000000e+00 1851878480
7.753344 -2.838287 -1.925541 1.880790849211783e-38 1684957512
7.788755 -3.234811 -1.959594 1.880790849211783e-38 1684957512
8.710862 -4.523640 -2.245442 0.000000000000000e+00 1851878480
8.571331 -4.925393 -2.234688 0.000000000000000e+00 1851878480
7.804293 -2.854659 -2.012441 1.880790849211783e-38 1684957512
7.764879 -3.223707 -2.029878 1.880790849211783e-38 1684957512
8.358718 -4.342182 -2.242679 0.000000000000000e+00 1851878480
8.258118 -4.748363 -2.243274 0.000000000000000e+00 1851878480
7.785122 -2.845362 -2.081851 1.880790849211783e-38 1684957512
7.826817 -3.248219 -2.123280 1.880790849211783e-38 1684957512
8.023257 -4.169283 -2.237523 0.000000000000000e+00 1851878480
7.974316 -4.588046 -2.253723 0.000000000000000e+00 1851878480
7.749634 -2.830106 -2.146676 1.880790849211783e-38 1684957512
7.778583 -3.227004 -2.187253 1.880790849211783e-38 1684957512
7.785532 -4.047074 -2.253936 0.000000000000000e+00 1851878480
7.641709 -4.399437 -2.244010 0.000000000000000e+00 1851878480
7.782267 -2.839718 -2.230655 1.880790849211783e-38 1684957512
7.673501 -3.182221 -2.234051 0.000000000000000e+00 1851878480
7.508738 -3.904482 -2.253947 0.000000000000000e+00 1851878480
7.394702 -4.259914 -2.253440 0.000000000000000e+00 1851878480
7.556457 -2.755078 -2.239014 0.000000000000000e+00 1851878480
7.456646 -3.091130 -2.245440 0.000000000000000e+00 1851878480
7.271252 -3.782246 -2.260646 0.000000000000000e+00 1851878480
7.122829 -4.105899 -2.249943 0.000000000000000e+00 1851878480
7.312748 -2.664041 -2.237848 0.000000000000000e+00 1851878480
7.257841 -3.007583 -2.258450 0.000000000000000e+00 1851878480
6.999440 -3.642071 -2.251589 0.000000000000000e+00 1851878480
6.882927 -3.970131 -2.251244 0.000000000000000e+00 1851878480
7.083167 -2.578288 -2.236731 0.000000000000000e+00 1851878480
6.994756 -2.897465 -2.247161 0.000000000000000e+00 1851878480
6.765364 -3.521452 -2.249600 0.000000000000000e+00 1851878480
6.650156 -3.838324 -2.249992 0.000000000000000e+00 1851878480
6.897684 -2.508696 -2.245811 0.000000000000000e+00 1851878480
6.785787 -2.809831 -2.248835 0.000000000000000e+00 1851878480
6.571572 -3.421731 -2.256751 0.000000000000000e+00 1851878480
6.432796 -3.715259 -2.249289 0.000000000000000e+00 1851878480
6.685953 -2.429668 -2.242777 0.000000000000000e+00 1851878480
6.574818 -2.721432 -2.245933 0.000000000000000e+00 1851878480
6.397574 -3.332265 -2.267081 0.000000000000000e+00 1851878480
6.200746 -3.583555 -2.238767 0.000000000000000e+00 1851878480
6.546517 -2.377011 -2.260864 0.000000000000000e+00 1851878480
6.352078 -2.628224 -2.234934 0.000000000000000e+00 1851878480
6.104314 -3.180598 -2.230412 0.000000000000000e+00 1851878480
6.059040 -3.503942 -2.257019 0.000000000000000e+00 1851878480
6.263691 -2.272409 -2.225579 0.000000000000000e+00 1851878480
6.196666 -2.562930 -2.244098 0.000000000000000e+00 1851878480
5.986688 -3.120378 -2.253780 0.000000000000000e+00 1851878480
5.863317 -3.392975 -2.251695 0.000000000000000e+00 1851878480
6.154669 -2.230970 -2.248482 0.000000000000000e+00 1851878480
6.026836 -2.491714 -2.245042 0.000000000000000e+00 1851878480
5.821385 -3.035264 -2.256457 0.000000000000000e+00 1851878480
5.718476 -3.311339 -2.262404 0.000000000000000e+00 1851878480
5.943652 -2.152649 -2.231252 0.000000000000000e+00 1851878480
5.902101 -2.439190 -2.260087 0.000000000000000e+00 1851878480
5.623288 -2.932993 -2.242761 0.000000000000000e+00 1851878480
5.546921 -3.214125 -2.259290 0.000000000000000e+00 1851878480
5.827788 -2.108882 -2.246792 0.000000000000000e+00 1851878480
5.669207 -2.342019 -2.230342 0.000000000000000e+00 1851878480
5.498166 -2.868731 -2.254940 0.000000000000000e+00 1851878480
5.322516 -3.086154 -2.230442 0.000000000000000e+00 1851878480
5.691184 -2.057676 -2.252121 0.000000000000000e+00 1851878480
5.543098 -2.289013 -2.239202 0.000000000000000e+00 1851878480
5.325652 -2.779696 -2.244719 0.000000000000000e+00 1851878480
5.230656 -3.034925 -2.253843 0.000000000000000e+00 1851878480
5.517464 -1.993139 -2.239946 0.000000000000000e+00 1851878480
5.455682 -2.252013 -2.261803 0.000000000000000e+00 1851878480
5.157704 -2.692987 -2.232950 0.000000000000000e+00 1851878480
5.071841 -2.944771 -2.245851 0.000000000000000e+00 1851878480
5.367621 -1.937320 -2.234495 0.000000000000000e+00 1851878480
5.277483 -2.177584 -2.244315 0.000000000000000e+00 1851878480
5.116800 -2.672582 -2.274203 0.000000000000000e+00 1851878480
4.916770 -2.856678 -2.236201 0.000000000000000e+00 1851878480
5.296606 -1.910009 -2.259933 0.000000000000000e+00 1851878480
5.172626 -2.133453 -2.255358 0.000000000000000e+00 1851878480
4.916997 -2.569141 -2.242462 0.000000000000000e+00 1851878480
4.834406 -2.810750 -2.257198 0.000000000000000e+00 1851878480
5.110866 -1.841399 -2.234105 0.000000000000000e+00 1851878480
5.060263 -2.086259 -2.261166 0.000000000000000e+00 1851878480
4.830196 -2.524699 -2.259341 0.000000000000000e+00 1851878480
4.708382 -2.739368 -2.255723 0.000000000000000e+00 1851878480
5.041864 -1.814922 -2.257004 0.000000000000000e+00 1851878480
4.923695 -2.029121 -2.253836 0.000000000000000e+00 1851878480
4.698258 -2.456625 -2.252962 0.000000000000000e+00 1851878480
4.610486 -2.684279 -2.265434 0.000000000000000e+00 1851878480
4.902995 -1.763351 -2.246799 0.000000000000000e+00 1851878480
4.802284 -1.978269 -2.251008 0.000000000000000e+00 1851878480
4.593108 -2.402525 -2.257054 0.000000000000000e+00 1851878480
4.451085 -2.593291 -2.242200 0.000000000000000e+00 1851878480
4.823751 -1.733280 -2.261971 0.000000000000000e+00 1851878480
4.687844 -1.930322 -2.249238 0.000000000000000e+00 1851878480
4.502726 -2.356118 -2.266505 0.000000000000000e+00 1851878480
4.339536 -2.530087 -2.240159 0.000000000000000e+00 1851878480
4.665991 -1.675067 -2.238160 0.000000000000000e+00 1851878480
4.610799 -1.897799 -2.263674 0.000000000000000e+00 1851878480
4.405771 -2.306244 -2.270830 0.000000000000000e+00 1851878480
4.231664 -2.468952 -2.237719 0.000000000000000e+00 1851878480
4.633811 -1.661986 -2.272917 0.000000000000000e+00 1851878480
4.505001 -1.853469 -2.262345 0.000000000000000e+00 1851878480
4.284448 -2.243577 -2.260391 0.000000000000000e+00 1851878480
4.160648 -2.429262 -2.252966 0.000000000000000e+00 1851878480
4.452461 -1.595466 -2.232563 0.000000000000000e+00 1851878480
4.361661 -1.793730 -2.239751 0.000000000000000e+00 1851878480
4.168082 -2.183465 -2.250105 0.000000000000000e+00 1851878480
4.097565 -2.394164 -2.271264 0.000000000000000e+00 1851878480
4.383327 -1.569225 -2.246119 0.000000000000000e+00 1851878480
4.300917 -1.767987 -2.257655 0.000000000000000e+00 1851878480
4.094518 -2.145746 -2.261032 0.000000000000000e+00 1851878480
3.953379 -2.311604 -2.242407 0.000000000000000e+00 1851878480
4.269298 -1.526966 -2.235031 0.000000000000000e+00 1851878480
4.181033 -1.717961 -2.242847 0.000000000000000e+00 1851878480
4.020375 -2.107703 -2.270252 0.000000000000000e+00 1851878480
3.890253 -2.276372 -2.257311 0.000000000000000e+00 1851878480
4.176670 -1.492415 -2.233234 0.000000000000000e+00 1851878480
4.140363 -1.700505 -2.269088 0.000000000000000e+00 1851878480
3.943304 -2.068099 -2.276376 0.000000000000000e+00 1851878480
3.794817 -2.222179 -2.251865 0.000000000000000e+00 1851878480
4.109563 -1.467031 -2.243684 0.000000000000000e+00 1851878480
4.051472 -1.663263 -2.267804 0.000000000000000e+00 1851878480
3.877118 -2.034185 -2.287431 0.000000000000000e+00 1851878480
3.676463 -2.154491 -2.230468 0.000000000000000e+00 1851878480
4.033942 -1.438643 -2.248265 0.000000000000000e+00 1851878480
3.934951 -1.614708 -2.249058 0.000000000000000e+00 1851878480
3.751165 -1.968880 -2.261234 0.000000000000000e+00 1851878480
3.647498 -2.139136 -2.261821 0.000000000000000e+00 1851878480
4.023030 -1.433352 -2.288329 0.000000000000000e+00 1634890835
3.902702 -1.600754 -2.277135 0.000000000000000e+00 1851878480
3.685346 -1.935105 -2.269282 0.000000000000000e+00 1851878480
3.537891 -2.076442 -2.241782 0.000000000000000e+00 1851878480
3.923229 -1.396416 -2.276965 0.000000000000000e+00 1634890835
3.795789 -1.556196 -2.260410 0.000000000000000e+00 1851878480
3.567995 -1.874239 -2.243683 0.000000000000000e+00 1851878480
3.455407 -2.029598 -2.236808 0.000000000000000e+00 1851878480
3.871560 -1.376655 -2.292192 0.000000000000000e+00 1634890835
3.717078 -1.523228 -2.258664 0.000000000000000e+00 1851878480
3.548310 -1.864657 -2.278173 0.000000000000000e+00 1851878480
3.427562 -2.014815 -2.266180 0.000000000000000e+00 1851878480
3.798659 -1.349377 -2.293807 0.000000000000000e+00 1634890835
3.634578 -1.488732 -2.253084 0.000000000000000e+00 1851878480
3.440049 -1.808510 -2.254571 0.000000000000000e+00 1851878480
3.303841 -1.943619 -2.230554 0.000000000000000e+00 1851878480
3.708787 -1.316115 -2.283671 0.000000000000000e+00 1634890835
3.577233 -1.464560 -2.261814 0.000000000000000e+00 1851878480
3.381201 -1.778310 -2.261595 0.000000000000000e+00 1851878480
3.253304 -1.915416 -2.242395 0.000000000000000e+00 1851878480
3.613605 -1.281025 -2.268483 0.000000000000000e+00 1634890835
3.480219 -1.424166 -2.243983 0.000000000000000e+00 1851878480
3.307187 -1.740112 -2.257162 0.000000000000000e+00 1851878480
3.179077 -1.873219 -2.236642 0.000000000000000e+00 1851878480
3.596844 -1.273762 -2.301606 0.000000000000000e+00 1634890835
3.497085 -1.430387 -2.299024 0.000000000000000e+00 1634890835
3.266208 -1.719279 -2.274193 0.000000000000000e+00 1851878480
3.143116 -1.853537 -2.256745 0.000000000000000e+00 1851878480
3.485011 -1.232864 -2.272759 0.000000000000000e+00 1634890835
3.430627 -1.402526 -2.299110 0.000000000000000e+00 1634890835
3.182977 -1.676184 -2.260580 0.000000000000000e+00 1851878480
3.049465 -1.799790 -2.234061 0.000000000000000e+00 1851878480
3.439332 -1.215419 -2.285559 0.000000000000000e+00 1634890835
3.389965 -1.385227 -2.315577 0.000000000000000e+00 1634890835
3.126862 -1.647347 -2.264777 0.000000000000000e+00 1851878480
3.016567 -1.781855 -2.254555 0.000000000000000e+00 1851878480
3.417708 -1.206485 -2.313956 0.000000000000000e+00 1634890835
3.303593 -1.349270 -2.299645 0.000000000000000e+00 1634890835
3.051247 -1.608215 -2.253494 0.000000000000000e+00 1851878480
2.958790 -1.749198 -2.255638 0.000000000000000e+00 1851878480
3.328138 -1.173591 -2.295405 0.000000000000000e+00 1634890835
3.228278 -1.317850 -2.289767 0.000000000000000e+00 1634890835
2.989858 -1.576557 -2.251267 0.000000000000000e+00 1851878480
2.903138 -1.717758 -2.257175 0.000000000000000e+00 1851878480
3.220832 -1.134510 -2.262577 0.000000000000000e+00 1634890835
3.191820 -1.302311 -2.306449 0.000000000000000e+00 1634890835
2.946960 -1.554634 -2.261970 0.000000000000000e+00 1851878480
2.875847 -1.703077 -2.280050 0.000000000000000e+00 1851878480
3.166564 -1.114158 -2.265391 0.000000000000000e+00 1634890835
3.144290 -1.282263 -2.314492 0.000000000000000e+00 1634890835
2.908776 -1.535186 -2.275628 0.000000000000000e+00 1851878480
2.790154 -1.653772 -2.255433 0.000000000000000e+00 1851878480
3.166665 -1.112943 -2.306864 0.000000000000000e+00 1634890835
3.094271 -1.261215 -2.319875 0.000000000000000e+00 1634890835
2.846295 -1.502902 -2.269315 0.000000000000000e+00 1851878480
2.730093 -1.619601 -2.249819 0.000000000000000e+00 1851878480
3.088770 -1.084334 -2.290968 0.000000000000000e+00 1634890835
2.994758 -1.220015 -2.286597 0.000000000000000e+00 1634890835
2.798430 -1.478313 -2.273538 0.000000000000000e+00 1851878480
0.860163 -0.510740 -0.722552 0.000000000000000e+00 1886740808
3.042243 -1.066772 -2.297167 0.000000000000000e+00 1634890835
2.948073 -1.200361 -2.292132 0.000000000000000e+00 1634890835
2.744508 -1.450512 -2.271837 0.000000000000000e+00 1851878480
0.851530 -0.506071 -0.729051 0.000000000000000e+00 1886740808
3.008377 -1.053669 -2.312332 0.000000000000000e+00 1634890835
2.872788 -1.169082 -2.274223 0.000000000000000e+00 1634890835
0.868139 -0.459043 -0.732120 0.000000000000000e+00 1886740808
0.867279 -0.515905 -0.756733 0.000000000000000e+00 1886740808
2.925231 -1.023340 -2.288517 0.000000000000000e+00 1634890835
2.878432 -1.170741 -2.319906 0.000000000000000e+00 1634890835
0.861489 -0.455746 -0.740083 0.000000000000000e+00 1886740808
0.818299 -0.487221 -0.727578 0.000000000000000e+00 1886740808
2.812019 -0.982558 -2.238970 0.000000000000000e+00 1634890835
2.845111 -1.156552 -2.334311 0.000000000000000e+00 1634890835
0.874393 -0.462800 -0.765132 0.000000000000000e+00 1886740808
0.785647 -0.468221 -0.711772 0.000000000000000e+00 1886740808
2.837394 -0.990224 -2.299046 0.000000000000000e+00 1634890835
2.779516 -1.129258 -2.321329 0.000000000000000e+00 1634890835
0.816743 -0.432501 -0.727911 0.000000000000000e+00 1886740808
0.792313 -0.472645 -0.731342 0.000000000000000e+00 1886740808
2.785522 -0.970926 -2.296664 0.000000000000000e+00 1634890835
0.876132 -0.355753 -0.744751 0.000000000000000e+00 1886740808
0.809088 -0.428663 -0.734377 0.000000000000000e+00 1886740808
0.772111 -0.461040 -0.726075 0.000000000000000e+00 1886740808
0.853132 -0.296999 -0.715711 0.000000000000000e+00 1886740808
0.836233 -0.339357 -0.723452 0.000000000000000e+00 1886740808
0.814315 -0.431652 -0.752687 0.000000000000000e+00 1886740808
0.745968 -0.445867 -0.714612 0.000000000000000e+00 1886740808
0.795424 -0.276559 -0.678921 0.000000000000000e+00 1886740808
0.804274 -0.326198 -0.708106 0.000000000000000e+00 1886740808
0.742572 -0.393826 -0.698928 0.000000000000000e+00 1886740808
0.767333 -0.459095 -0.748782 0.000000000000000e+00 1886740808
0.846590 -0.293973 -0.735133 0.000000000000000e+00 1886740808
0.853447 -0.345937 -0.764637 0.000000000000000e+00 1886740808
0.753745 -0.399962 -0.722378 0.000000000000000e+00 1886740808
0.772269 -0.462515 -0.767605 0.000000000000000e+00 1886740808
0.794006 -0.275354 -0.701395 0.000000000000000e+00 1886740808
0.788484 -0.319415 -0.718839 0.000000000000000e+00 1886740808
0.751834 -0.399161 -0.733645 0.000000000000000e+00 1886740808
0.775485 -0.464919 -0.785089 0.000000000000000e+00 1886740808
0.816751 -0.282869 -0.733925 0.000000000000000e+00 1886740808
0.768880 -0.311284 -0.713238 0.000000000000000e+00 1886740808
0.745884 -0.396216 -0.741035 0.000000000000000e+00 1886740808
0.769093 -0.461567 -0.793016 0.000000000000000e+00 1886740808
0.810638 -0.280374 -0.740952 0.000000000000000e+00 1886740808
0.776117 -0.314020 -0.732522 0.000000000000000e+00 1886740808
0.765078 -0.406636 -0.773855 0.000000000000000e+00 1886740808
0.780391 -0.468844 -0.819516 0.000000000000000e+00 1886740808
0.762055 -0.263213 -0.708489 0.000000000000000e+00 1886740808
0.768242 -0.310639 -0.737720 0.000000000000000e+00 1886740808
0.783239 -0.416520 -0.806528 0.000000000000000e+00 1886740808
0.777703 -0.467732 -0.831739 0.000000000000000e+00 1886740808
0.750644 -0.258913 -0.709818 0.000000000000000e+00 1886740808
0.751015 -0.303480 -0.733714 0.000000000000000e+00 1886740808
0.793779 -0.422365 -0.832115 0.000000000000000e+00 1886740808
2.137913 -1.287206 -2.328524 0.000000000000000e+00 1634890835
0.757964 -0.261070 -0.728978 0.000000000000000e+00 1886740808
0.760926 -0.307286 -0.756296 0.000000000000000e+00 1886740808
0.770343 -0.410131 -0.822085 0.000000000000000e+00 1886740808
2.092048 -1.260991 -2.320448 0.000000000000000e+00 1634890835
0.731569 -0.251619 -0.715584 0.000000000000000e+00 1886740808
0.766116 -0.309179 -0.774650 0.000000000000000e+00 1886740808
2.133544 -1.136564 -2.317798 0.000000000000000e+00 1634890835
2.035778 -1.228461 -2.299506 0.000000000000000e+00 1634890835
0.753076 -0.258640 -0.749160 0.000000000000000e+00 1886740808
0.746532 -0.301075 -0.767912 0.000000000000000e+00 1886740808
2.065765 -1.101114 -2.284501 0.000000000000000e+00 1634890835
0.806325 -0.487124 -0.927502 0.000000000000000e+00 1886740808
0.766881 -0.262992 -0.775864 0.000000000000000e+00 1886740808
0.791484 -0.318988 -0.828230 0.000000000000000e+00 1886740808
2.052421 -1.094663 -2.310522 0.000000000000000e+00 1634890835
0.788662 -0.477012 -0.923839 0.000000000000000e+00 1886740808
0.726009 -0.248601 -0.746991 0.000000000000000e+00 1886740808
0.730131 -0.294057 -0.777233 0.000000000000000e+00 1886740808
1.979504 -1.056422 -2.268471 0.000000000000000e+00 1634890835
0.813963 -0.492900 -0.970985 0.000000000000000e+00 1886740808
0.754064 -0.257813 -0.789032 0.000000000000000e+00 1886740808
2.122016 -0.854032 -2.297942 0.000000000000000e+00 1634890835
0.817176 -0.436385 -0.953297 0.000000000000000e+00 1886740808
0.795668 -0.482405 -0.966601 0.000000000000000e+00 1886740808
0.752347 -0.256825 -0.800600 0.000000000000000e+00 1886740808
2.082427 -0.837501 -2.294036 0.000000000000000e+00 1634890835
0.785505 -0.419740 -0.932828 0.000000000000000e+00 1886740808
0.763522 -0.463487 -0.944607 0.000000000000000e+00 1886740808
0.750527 -0.255797 -0.812222 0.000000000000000e+00 1886740808
2.076947 -0.834688 -2.327546 0.000000000000000e+00 1634890835
0.845874 -0.452293 -1.022600 0.000000000000000e+00 1886740808
1.842603 -1.119937 -2.321592 0.000000000000000e+00 1634890835
2.060251 -0.701048 -2.267477 0.000000000000000e+00 1634890835
2.012347 -0.808127 -2.294156 0.000000000000000e+00 1634890835
0.767342 -0.410574 -0.944378 0.000000000000000e+00 1886740808
1.754994 -1.068054 -2.251990 0.000000000000000e+00 1634890835
2.072970 -0.704215 -2.320250 0.000000000000000e+00 1634890835
2.019579 -0.810417 -2.342258 0.000000000000000e+00 1634890835
0.823375 -0.440851 -1.031627 0.000000000000000e+00 1886740808
0.754503 -0.459775 -0.986061 0.000000000000000e+00 1886740808
2.012402 -0.682491 -2.290775 0.000000000000000e+00 1634890835
1.904496 -0.763648 -2.247073 0.000000000000000e+00 1634890835
0.771774 -0.413508 -0.984461 0.000000000000000e+00 1886740808
1.751224 -1.068572 -2.331061 0.000000000000000e+00 1634890835
1.984608 -0.671912 -2.297615 0.000000000000000e+00 1634890835
0.802222 -0.321416 -0.962956 0.000000000000000e+00 1886740808
1.765039 -0.946353 -2.292255 0.000000000000000e+00 1634890835
1.720974 -1.051539 -2.333330 0.000000000000000e+00 1634890835
1.958956 -0.662070 -2.306605 0.000000000000000e+00 1634890835
0.806924 -0.323040 -0.985445 0.000000000000000e+00 1886740808
0.778215 -0.417550 -1.029029 0.000000000000000e+00 1886740808
1.647142 -1.007822 -2.274814 0.000000000000000e+00 1634890835
1.915733 -0.646308 -2.294261 0.000000000000000e+00 1634890835
0.821953 -0.328788 -1.021294 0.000000000000000e+00 1886740808
1.704894 -0.915426 -2.295444 0.000000000000000e+00 1634890835
1.672881 -1.025018 -2.353523 0.000000000000000e+00 1634890835
0.808475 -0.272258 -0.984802 0.000000000000000e+00 1886740808
0.762374 -0.304701 -0.963816 0.000000000000000e+00 1886740808
1.662420 -0.893287 -2.279169 0.000000000000000e+00 1634890835
1.601864 -0.982921 -2.295865 0.000000000000000e+00 1634890835
0.834065 -0.280354 -1.033416 0.000000000000000e+00 1886740808
0.781812 -0.312204 -1.005707 0.000000000000000e+00 1886740808
1.669890 -0.897983 -2.331402 0.000000000000000e+00 1634890835
1.582972 -0.972762 -2.311493 0.000000000000000e+00 1634890835
0.772023 -0.259007 -0.973011 0.000000000000000e+00 1886740808
0.799732 -0.319082 -1.046836 0.000000000000000e+00 1886740808
1.647413 -0.886586 -2.342368 0.000000000000000e+00 1634890835
1.554818 -0.956900 -2.313298 0.000000000000000e+00 1634890835
0.770409 -0.257964 -0.987741 0.000000000000000e+00 1886740808
1.724608 -0.687484 -2.297290 0.000000000000000e+00 1634890835
1.608872 -0.866532 -2.329864 0.000000000000000e+00 1634890835
1.535316 -0.946354 -2.327663 0.000000000000000e+00 1634890835
0.785635 -0.262541 -1.024713 0.000000000000000e+00 1886740808
1.702490 -0.678051 -2.307961 0.000000000000000e+00 1634890835
1.589094 -0.856576 -2.343960 0.000000000000000e+00 1634890835
1.480054 -0.913729 -2.286707 0.000000000000000e+00 1634890835
0.783233 -0.261207 -1.039340 0.000000000000000e+00 1886740808
0.756365 -0.300958 -1.043577 0.000000000000000e+00 1886740808
1.547372 -0.834780 -2.325013 0.000000000000000e+00 1634890835
1.438117 -0.889269 -2.264543 0.000000000000000e+00 1634890835
1.665790 -0.554385 -2.249067 0.000000000000000e+00 1634890835
1.629963 -0.647946 -2.289033 0.000000000000000e+00 1634890835
1.511721 -0.816240 -2.314054 0.000000000000000e+00 1634890835
1.434660 -0.888595 -2.302692 0.000000000000000e+00 1634890835
0.740695 -0.245984 -1.017579 0.000000000000000e+00 1886740808
1.624361 -0.645091 -2.322062 0.000000000000000e+00 1634890835
1.468549 -0.793622 -2.290372 0.000000000000000e+00 1634890835
1.407027 -0.872953 -2.302181 0.000000000000000e+00 1634890835
1.640792 -0.543719 -2.293839 0.000000000000000e+00 1634890835
1.592430 -0.631779 -2.317427 0.000000000000000e+00 1634890835
1.446069 -0.782170 -2.298101 0.000000000000000e+00 1634890835
1.364294 -0.847905 -2.275874 0.000000000000000e+00 1634890835
1.601740 -0.529596 -2.278867 0.000000000000000e+00 1634890835
1.571085 -0.622676 -2.327774 0.000000000000000e+00 1634890835
1.435622 -0.777228 -2.325058 0.000000000000000e+00 1634890835
1.341848 -0.835433 -2.282460 0.000000000000000e+00 1634890835
1.556959 -0.513613 -2.254554 0.000000000000000e+00 1634890835
1.525003 -0.603779 -2.300650 0.000000000000000e+00 1634890835
1.389852 -0.753153 -2.294189 0.000000000000000e+00 1634890835
1.330911 -0.830132 -2.308708 0.000000000000000e+00 1634890835
1.575198 -0.518411 -2.321757 0.000000000000000e+00 1634890835
1.506317 -0.595741 -2.314095 0.000000000000000e+00 1634890835
1.376173 -0.746457 -2.315568 0.000000000000000e+00 1634890835
1.311309 -0.819430 -2.320109 0.000000000000000e+00 1634890835
1.529613 -0.502197 -2.295123 0.000000000000000e+00 1634890835
1.456020 -0.575215 -2.278064 0.000000000000000e+00 1634890835
1.344164 -0.729813 -2.305799 0.000000000000000e+00 1634890835
1.258440 -0.787898 -2.271364 0.000000000000000e+00 1634890835
1.475947 -0.483380 -2.254681 0.000000000000000e+00 1634890835
1.455016 -0.574170 -2.318742 0.000000000000000e+00 1634890835
1.327915 -0.721719 -2.322672 0.000000000000000e+00 1634890835
1.262525 -0.792010 -2.324965 0.000000000000000e+00 1634890835
1.468605 -0.479756 -2.284333 0.000000000000000e+00 1634890835
1.433411 -0.564990 -2.327003 0.000000000000000e+00 1634890835
1.308630 -0.711976 -2.334268 0.000000000000000e+00 1634890835
1.199155 -0.753776 -2.253461 0.000000000000000e+00 1634890835
1.440195 -0.469249 -2.281228 0.000000000000000e+00 1634890835
1.380190 -0.543365 -2.282784 0.000000000000000e+00 1634890835
1.300631 -0.708379 -2.366331 0.000000000000000e+00 1634890835
1.189390 -0.749187 -2.281266 0.000000000000000e+00 1634890835
1.444437 -0.469369 -2.330213 0.000000000000000e+00 1634890835
1.363698 -0.536215 -2.298295 0.000000000000000e+00 1634890835
1.285067 -0.700669 -2.385122 0.000000000000000e+00 1634890835
1.160870 -0.732784 -2.272988 0.000000000000000e+00 1634890835
1.377838 -0.446494 -2.264142 0.000000000000000e+00 1634890835
1.345920 -0.528558 -2.311710 0.000000000000000e+00 1634890835
1.216129 -0.663830 -2.303069 0.000000000000000e+00 1634890835
1.162380 -0.735350 -2.323872 0.000000000000000e+00 1634890835
1.356313 -0.438271 -2.270578 0.000000000000000e+00 1634890835
1.297639 -0.508937 -2.271763 0.000000000000000e+00 1634890835
1.195778 -0.653478 -2.311025 0.000000000000000e+00 1634890835
1.126029 -0.713964 -2.299098 0.000000000000000e+00 1634890835
1.339130 -0.431453 -2.284210 0.000000000000000e+00 1634890835
1.274446 -0.499175 -2.274564 0.000000000000000e+00 1634890835
1.158068 -0.633627 -2.284563 0.000000000000000e+00 1634890835
1.112641 -0.707116 -2.320624 0.000000000000000e+00 1634890835
1.338867 -0.430068 -2.327325 0.000000000000000e+00 1634890835
1.277726 -0.499772 -2.325187 0.000000000000000e+00 1634890835
1.153359 -0.631827 -2.322960 0.000000000000000e+00 1634890835
1.092939 -0.696265 -2.329119 0.000000000000000e+00 1634890835
1.315202 -0.421155 -2.330189 0.000000000000000e+00 1634890835
1.246635 -0.486921 -2.313572 0.000000000000000e+00 1634890835
1.118996 -0.613781 -2.301500 0.000000000000000e+00 1634890835
1.042168 -0.665564 -2.269801 0.000000000000000e+00 1634890835
1.276175 -0.407347 -2.304966 0.000000000000000e+00 1634890835
1.205599 -0.470206 -2.282202 0.000000000000000e+00 1634890835
1.100753 -0.604565 -2.312495 0.000000000000000e+00 1634890835
1.031394 -0.660366 -2.296382 0.000000000000000e+00 1634890835
1.252121 -0.398348 -2.305881 0.000000000000000e+00 1634890835
1.215412 -0.473319 -2.347311 0.000000000000000e+00 1634890835
1.096009 -0.602774 -2.352456 0.000000000000000e+00 1634890835
1.009928 -0.648330 -2.299326 0.000000000000000e+00 1634890835
1.235229 -0.391629 -2.319843 0.000000000000000e+00 1634890835
1.168873 -0.454488 -2.303580 0.000000000000000e+00 1634890835
1.038395 -0.571885 -2.277719 0.000000000000000e+00 1634890835
0.994851 -0.640393 -2.316781 0.000000000000000e+00 1634890835
1.192626 -0.376784 -2.284677 0.000000000000000e+00 1634890835
1.136037 -0.441010 -2.285150 0.000000000000000e+00 1634890835
1.039775 -0.573471 -2.331453 0.000000000000000e+00 1634890835
0.969551 -0.625869 -2.310196 0.000000000000000e+00 1634890835
1.154666 -0.363456 -2.256732 0.000000000000000e+00 1634890835
1.114869 -0.432073 -2.289470 0.000000000000000e+00 1634890835
0.990419 -0.547065 -2.270817 0.000000000000000e+00 1634890835
0.935594 -0.605711 -2.281694 0.000000000000000e+00 1634890835
1.136196 -0.356287 -2.266089 0.000000000000000e+00 1634890835
1.089504 -0.421516 -2.284737 0.000000000000000e+00 1634890835
0.976015 -0.539942 -2.288903 0.000000000000000e+00 1634890835
0.904099 -0.587091 -2.257491 0.000000000000000e+00 1634890835
1.136426 -0.354959 -2.313491 0.000000000000000e+00 1634890835
1.064136 -0.410968 -2.279364 0.000000000000000e+00 1634890835
0.979718 -0.542858 -2.350816 0.000000000000000e+00 1634890835
0.897811 -0.584836 -2.296100 0.000000000000000e+00 1634890835
1.080869 -0.336231 -2.246522 0.000000000000000e+00 1634890835
1.059457 -0.408404 -2.318610 0.000000000000000e+00 1634890835
0.920024 -0.510628 -2.259487 0.000000000000000e+00 1634890835
0.883278 -0.577239 -2.314533 0.000000000000000e+00 1634890835
1.079614 -0.334421 -2.291553 0.000000000000000e+00 1634890835
1.031018 -0.396680 -2.306016 0.000000000000000e+00 1634890835
0.939889 -0.522552 -2.363384 0.000000000000000e+00 1634890835
0.874112 -0.573179 -2.347831 0.000000000000000e+00 1634890835
1.056220 -0.325737 -2.290119 0.000000000000000e+00 1634890835
1.004573 -0.385736 -2.296996 0.000000000000000e+00 1634890835
0.904455 -0.503751 -2.329449 0.000000000000000e+00 1634890835
0.838251 -0.551593 -2.308818 0.000000000000000e+00 1634890835
1.029621 -0.316083 -2.281117 0.000000000000000e+00 1634890835
0.981982 -0.376282 -2.296160 0.000000000000000e+00 1634890835
0.873979 -0.487681 -2.306463 0.000000000000000e+00 1634890835
0.450120 -0.297272 -1.271897 0.000000000000000e+00 1936876886
1.010275 -0.308669 -2.287742 0.000000000000000e+00 1634890835
0.978776 -0.374247 -2.341242 0.000000000000000e+00 1634890835
0.869225 -0.485967 -2.351457 0.000000000000000e+00 1634890835
0.450300 -0.298522 -1.305980 0.000000000000000e+00 1936876886
0.998320 -0.303506 -2.311378 0.000000000000000e+00 1634890835
0.959540 -0.366071 -2.348777 0.000000000000000e+00 1634890835
0.835583 -0.468099 -2.318155 0.000000000000000e+00 1634890835
0.426047 -0.283562 -1.268874 0.000000000000000e+00 1936876886
0.971786 -0.293912 -2.301178 0.000000000000000e+00 1634890835
0.924254 -0.351785 -2.316033 0.000000000000000e+00 1634890835
0.446685 -0.250761 -1.271461 0.000000000000000e+00 1936876886
0.330426 -0.220829 -1.011086 0.000000000000000e+00 1953264973
0.927191 -0.278911 -2.246353 0.000000000000000e+00 1634890835
0.888548 -0.337372 -2.280220 0.000000000000000e+00 1634890835
0.439909 -0.247498 -1.285354 0.000000000000000e+00 1936876886
0.325787 -0.218668 -1.024803 0.000000000000000e+00 1953264973
0.532794 -0.159367 -1.321161 0.000000000000000e+00 1936876886
0.862308 -0.326577 -2.267136 0.000000000000000e+00 1634890835
0.373373 -0.210545 -1.120430 0.000000000000000e+00 1953264973
0.286134 -0.192920 -0.925812 0.000000000000000e+00 1953264973
0.494071 -0.146912 -1.254415 0.000000000000000e+00 1936876886
0.861330 -0.325339 -2.321073 0.000000000000000e+00 1634890835
0.333365 -0.188434 -1.027964 0.000000000000000e+00 1953264973
0.273710 -0.185415 -0.911505 0.000000000000000e+00 1953264973
0.466006 -0.137710 -1.211921 0.000000000000000e+00 1936876886
0.843947 -0.317886 -2.332035 0.000000000000000e+00 1634890835
0.319465 -0.181030 -1.012855 0.000000000000000e+00 1953264973
0.225935 -0.153809 -0.774912 0.000000000000000e+00 1953264973
