# .PCD v0.7 - Point Cloud Data file format
VERSION 0.7
FIELDS x y z rgb label
SIZE 4 4 4 4 4
TYPE F F F F U
COUNT 1 1 1 1 1
WIDTH 538
HEIGHT 1
VIEWPOINT 0 0 0 1 0 0 0
POINTS 538
DATA ascii
41.240036 -17.446804 9.990025 0.000000000000000e+00 1954047316
38.588394 -21.521238 10.117296 0.000000000000000e+00 1954047316
32.257538 -11.992850 -2.049457 0.000000000000000e+00 1851878480
31.504295 -13.178091 -1.920573 0.000000000000000e+00 1851878480
28.664415 -14.792138 -1.550038 0.000000000000000e+00 1851878480
27.757246 -15.759588 -1.378413 0.000000000000000e+00 1851878480
28.854172 -10.719397 -2.095356 0.000000000000000e+00 1851878480
28.144712 -11.768692 -1.979249 0.000000000000000e+00 1851878480
26.721716 -13.793895 -1.711701 0.000000000000000e+00 1851878480
26.007790 -14.775022 -1.560141 0.000000000000000e+00 1851878480
26.506388 -9.839706 -2.165881 0.000000000000000e+00 1851878480
26.147804 -10.929840 -2.083845 0.000000000000000e+00 1851878480
25.297058 -13.062523 -1.873234 0.000000000000000e+00 1851878480
24.810677 -14.103251 -1.744907 0.000000000000000e+00 1851878480
24.300001 -9.013796 -2.206784 0.000000000000000e+00 1851878480
24.563152 -10.263845 -2.187999 0.000000000000000e+00 1851878480
23.757547 -12.271368 -1.996959 0.000000000000000e+00 1851878480
23.539118 -13.388374 -1.899265 0.000000000000000e+00 1851878480
22.321369 -8.273540 -2.230518 0.000000000000000e+00 1851878480
22.533752 -9.412548 -2.218897 0.000000000000000e+00 1851878480
22.311375 -11.527973 -2.098984 0.000000000000000e+00 1851878480
21.950363 -12.492125 -1.998767 0.000000000000000e+00 1851878480
20.513981 -7.597826 -2.237104 0.000000000000000e+00 1851878480
20.679319 -8.634887 -2.230817 0.000000000000000e+00 1851878480
20.755011 -10.727144 -2.160891 0.000000000000000e+00 1851878480
20.471373 -11.657334 -2.076813 0.000000000000000e+00 1851878480
18.949114 -7.012880 -2.239627 0.000000000000000e+00 1851878480
19.072830 -7.961271 -2.237211 0.000000000000000e+00 1851878480
19.345833 -10.001936 -2.208708 0.000000000000000e+00 1851878480
19.015810 -10.834895 -2.127128 0.000000000000000e+00 1851878480
17.619808 -6.515921 -2.243805 0.000000000000000e+00 1851878480
17.689919 -7.381413 -2.241956 0.000000000000000e+00 1851878480
17.839005 -9.225772 -2.216405 0.000000000000000e+00 1851878480
17.767267 -10.129523 -2.172833 0.000000000000000e+00 1851878480
16.366188 -6.047681 -2.234246 0.000000000000000e+00 1851878480
16.470856 -6.870311 -2.243204 0.000000000000000e+00 1851878480
16.531353 -8.552172 -2.220847 0.000000000000000e+00 1851878480
16.602661 -9.471202 -2.204020 0.000000000000000e+00 1851878480
15.344598 -5.665826 -2.235768 0.000000000000000e+00 1851878480
15.373672 -6.410371 -2.239439 0.000000000000000e+00 1851878480
15.441402 -7.990808 -2.230679 0.000000000000000e+00 1851878480
15.429072 -8.806975 -2.209948 0.000000000000000e+00 1851878480
14.454296 -5.332971 -2.239127 0.000000000000000e+00 1851878480
14.432192 -6.015662 -2.239339 0.000000000000000e+00 1851878480
14.430531 -7.470035 -2.231029 0.000000000000000e+00 1851878480
14.479553 -8.269938 -2.226108 0.000000000000000e+00 1851878480
13.657803 -5.035212 -2.241769 0.000000000000000e+00 1851878480
13.613926 -5.672572 -2.241949 0.000000000000000e+00 1851878480
13.641661 -7.063900 -2.247805 0.000000000000000e+00 1851878480
13.588441 -7.765645 -2.232296 0.000000000000000e+00 1851878480
7.390985 -2.722718 -1.281507 1.880790849211783e-38 1684957512
7.414265 -3.088226 -1.291729 1.880790849211783e-38 1684957512
12.815204 -6.638041 -2.242318 0.000000000000000e+00 1851878480
12.846639 -7.346135 -2.246198 0.000000000000000e+00 1851878480
6.991813 -2.573666 -1.277131 1.880790849211783e-38 1684957512
6.975313 -2.904354 -1.281986 1.880790849211783e-38 1684957512
12.113007 -6.276304 -2.243345 0.000000000000000e+00 1851878480
12.104356 -6.925862 -2.244728 0.000000000000000e+00 1851878480
6.678380 -2.456377 -1.281973 1.880790849211783e-38 1684957512
6.662674 -2.773180 -1.288444 1.880790849211783e-38 1684957512
6.593207 -3.417327 -1.288712 1.880790849211783e-38 1684957512
11.451793 -6.556442 -2.245498 0.000000000000000e+00 1851878480
6.404726 -2.353881 -1.289160 1.880790849211783e-38 1684957512
6.360128 -2.646296 -1.291133 1.880790849211783e-38 1684957512
6.291960 -3.262223 -1.294589 1.880790849211783e-38 1684957512
10.878349 -6.231917 -2.249138 0.000000000000000e+00 1851878480
6.066748 -2.227917 -1.277866 1.880790849211783e-38 1684957512
6.021531 -2.504507 -1.280513 1.880790849211783e-38 1684957512
5.965203 -3.093796 -1.288962 1.880790849211783e-38 1684957512
5.869606 -3.364592 -1.276418 1.880790849211783e-38 1684957512
5.829371 -2.139060 -1.282553 1.880790849211783e-38 1684957512
5.756382 -2.393354 -1.279868 1.880790849211783e-38 1684957512
5.765447 -2.991158 -1.305554 1.880790849211783e-38 1684957512
5.784648 -3.317923 -1.320123 1.880790849211783e-38 1684957512
5.744182 -2.106134 -1.317873 1.880790849211783e-38 1684957512
5.759935 -2.393960 -1.336622 1.880790849211783e-38 1684957512
5.805998 -3.013164 -1.375134 1.880790849211783e-38 1684957512
5.770352 -3.311757 -1.379125 1.880790849211783e-38 1684957512
5.746062 -2.105153 -1.372572 1.880790849211783e-38 1684957512
5.786464 -2.404107 -1.399200 1.880790849211783e-38 1684957512
5.860983 -3.042683 -1.449362 1.880790849211783e-38 1684957512
5.753046 -3.303862 -1.437320 1.880790849211783e-38 1684957512
5.743894 -2.102682 -1.426494 1.880790849211783e-38 1684957512
5.807774 -2.412074 -1.461194 1.880790849211783e-38 1684957512
5.811263 -3.017848 -1.497998 1.880790849211783e-38 1684957512
5.808536 -3.337792 -1.514381 1.880790849211783e-38 1684957512
5.757886 -2.106123 -1.484748 1.880790849211783e-38 1684957512
5.789878 -2.403756 -1.513577 1.880790849211783e-38 1684957512
5.779394 -3.002276 -1.550636 1.880790849211783e-38 1684957512
5.770652 -3.318087 -1.567567 1.880790849211783e-38 1684957512
5.747770 -2.100736 -1.537034 1.880790849211783e-38 1684957512
5.765769 -2.392860 -1.564153 1.880790849211783e-38 1684957512
5.809336 -3.018820 -1.620105 1.880790849211783e-38 1684957512
5.757602 -3.312653 -1.627229 1.880790849211783e-38 1684957512
5.800617 -2.118340 -1.606791 1.880790849211783e-38 1684957512
5.776931 -2.396603 -1.624410 1.880790849211783e-38 1684957512
5.761942 -2.995172 -1.668100 1.880790849211783e-38 1684957512
5.782745 -3.329206 -1.698120 1.880790849211783e-38 1684957512
5.769540 -2.105282 -1.653741 1.880790849211783e-38 1684957512
5.751481 -2.385154 -1.674478 1.880790849211783e-38 1684957512
5.774643 -3.002767 -1.733412 1.880790849211783e-38 1684957512
5.791842 -3.336545 -1.764989 1.880790849211783e-38 1684957512
5.770121 -2.103782 -1.709714 1.880790849211783e-38 1684957512
5.817085 -2.411455 -1.751715 1.880790849211783e-38 1684957512
5.790855 -3.012196 -1.800387 1.880790849211783e-38 1684957512
5.794353 -3.340109 -1.830307 1.880790849211783e-38 1684957512
5.764559 -2.100034 -1.764071 1.880790849211783e-38 1684957512
5.742564 -2.379666 -1.786935 1.880790849211783e-38 1684957512
5.805532 -3.020836 -1.867531 1.880790849211783e-38 1684957512
5.812381 -3.352631 -1.901094 1.880790849211783e-38 1684957512
5.731388 -2.086237 -1.809864 1.880790849211783e-38 1684957512
5.753031 -2.383100 -1.848240 1.880790849211783e-38 1684957512
5.790866 -3.014214 -1.925562 1.880790849211783e-38 1684957512
5.810797 -3.353864 -1.966006 1.880790849211783e-38 1684957512
5.737254 -2.086646 -1.867987 1.880790849211783e-38 1684957512
5.770392 -2.389380 -1.912330 1.880790849211783e-38 1684957512
5.782735 -3.010994 -1.985855 1.880790849211783e-38 1684957512
5.738869 -3.314482 -2.006651 1.880790849211783e-38 1684957512
5.782792 -2.101460 -1.939815 1.880790849211783e-38 1684957512
5.784362 -2.394249 -1.975916 1.880790849211783e-38 1684957512
5.781979 -3.011623 -2.048935 1.880790849211783e-38 1684957512
5.768757 -3.333899 -2.082799 1.880790849211783e-38 1684957512
5.722800 -2.077923 -1.976391 1.880790849211783e-38 1684957512
5.774693 -2.389326 -2.031785 1.880790849211783e-38 1684957512
5.782851 -3.013102 -2.112955 1.880790849211783e-38 1684957512
5.767836 -3.335539 -2.148544 1.880790849211783e-38 1684957512
5.772114 -2.094069 -2.050914 1.880790849211783e-38 1684957512
5.779703 -2.390475 -2.093096 1.880790849211783e-38 1684957512
5.765053 -3.004858 -2.170342 1.880790849211783e-38 1684957512
5.773401 -3.340942 -2.217165 1.880790849211783e-38 1684957512
5.743765 -2.082024 -2.098367 1.880790849211783e-38 1684957512
5.777204 -2.388507 -2.152052 1.880790849211783e-38 1684957512
5.790448 -3.019133 -2.244465 1.880790849211783e-38 1684957512
5.627005 -3.258372 -2.226215 0.000000000000000e+00 1851878480
5.817133 -2.106827 -2.183757 1.880790849211783e-38 1684957512
5.742340 -2.373165 -2.198910 1.880790849211783e-38 1684957512
5.644727 -2.944175 -2.251312 0.000000000000000e+00 1851878480
5.550903 -3.216432 -2.260911 0.000000000000000e+00 1851878480
5.746210 -2.079361 -2.215341 1.880790849211783e-38 1684957512
5.703237 -2.356077 -2.243730 0.000000000000000e+00 1851878480
5.513458 -2.876709 -2.261211 0.000000000000000e+00 1851878480
5.364995 -3.110784 -2.248243 0.000000000000000e+00 1851878480
5.676017 -2.052192 -2.246119 0.000000000000000e+00 1851878480
5.595143 -2.310505 -2.260226 0.000000000000000e+00 1851878480
5.375327 -2.805624 -2.265656 0.000000000000000e+00 1851878480
5.214233 -3.025397 -2.246767 0.000000000000000e+00 1851878480
5.531986 -1.998385 -2.245842 0.000000000000000e+00 1851878480
5.345226 -2.206419 -2.216011 0.000000000000000e+00 1851878480
5.182104 -2.705727 -2.243514 0.000000000000000e+00 1851878480
5.069486 -2.943403 -2.244808 0.000000000000000e+00 1851878480
5.388990 -1.945032 -2.243391 0.000000000000000e+00 1851878480
5.268682 -2.173952 -2.240572 0.000000000000000e+00 1851878480
5.090286 -2.658733 -2.262419 0.000000000000000e+00 1851878480
4.905932 -2.850381 -2.231272 0.000000000000000e+00 1851878480
5.282043 -1.904757 -2.253719 0.000000000000000e+00 1851878480
5.166288 -2.130839 -2.252595 0.000000000000000e+00 1851878480
4.934201 -2.578130 -2.250308 0.000000000000000e+00 1851878480
4.812634 -2.798092 -2.247033 0.000000000000000e+00 1851878480
5.185593 -1.868323 -2.266771 0.000000000000000e+00 1851878480
5.048033 -2.081217 -2.255701 0.000000000000000e+00 1851878480
4.798212 -2.507981 -2.244380 0.000000000000000e+00 1851878480
4.678265 -2.721846 -2.241294 0.000000000000000e+00 1851878480
5.025038 -1.808865 -2.249472 0.000000000000000e+00 1851878480
4.948030 -2.039150 -2.264976 0.000000000000000e+00 1851878480
4.700204 -2.457643 -2.253895 0.000000000000000e+00 1851878480
4.589747 -2.672205 -2.255244 0.000000000000000e+00 1851878480
4.895802 -1.760765 -2.243503 0.000000000000000e+00 1851878480
4.804869 -1.979334 -2.252219 0.000000000000000e+00 1851878480
4.620493 -2.416850 -2.270511 0.000000000000000e+00 1851878480
4.462249 -2.599796 -2.247824 0.000000000000000e+00 1851878480
4.795098 -1.722984 -2.248535 0.000000000000000e+00 1851878480
4.677773 -1.926175 -2.244406 0.000000000000000e+00 1851878480
4.443677 -2.325220 -2.236782 0.000000000000000e+00 1851878480
4.360937 -2.542564 -2.251207 0.000000000000000e+00 1851878480
4.664318 -1.674466 -2.237357 0.000000000000000e+00 1851878480
4.607429 -1.896412 -2.262019 0.000000000000000e+00 1851878480
4.380596 -2.293066 -2.257854 0.000000000000000e+00 1851878480
4.210343 -2.456512 -2.226444 0.000000000000000e+00 1851878480
4.552362 -1.632773 -2.232966 0.000000000000000e+00 1851878480
4.464066 -1.836627 -2.241788 0.000000000000000e+00 1851878480
4.290608 -2.246803 -2.263641 0.000000000000000e+00 1851878480
4.164873 -2.431730 -2.255254 0.000000000000000e+00 1851878480
4.532183 -1.624033 -2.272538 0.000000000000000e+00 1851878480
4.410116 -1.813657 -2.264633 0.000000000000000e+00 1851878480
4.157016 -2.177668 -2.244131 0.000000000000000e+00 1851878480
4.070452 -2.378323 -2.256235 0.000000000000000e+00 1851878480
4.343582 -1.554996 -2.225753 0.000000000000000e+00 1851878480
4.301500 -1.768227 -2.257961 0.000000000000000e+00 1851878480
4.055153 -2.125116 -2.239294 0.000000000000000e+00 1851878480
3.907969 -2.285052 -2.216650 0.000000000000000e+00 1851878480
4.283860 -1.532174 -2.242655 0.000000000000000e+00 1851878480
4.224203 -1.735700 -2.266005 0.000000000000000e+00 1851878480
4.007594 -2.101002 -2.263034 0.000000000000000e+00 1851878480
3.875057 -2.267480 -2.248494 0.000000000000000e+00 1851878480
4.201334 -1.501228 -2.246422 0.000000000000000e+00 1851878480
4.067051 -1.670395 -2.228910 0.000000000000000e+00 1851878480
3.913565 -2.052503 -2.259209 0.000000000000000e+00 1851878480
3.756617 -2.199809 -2.229196 0.000000000000000e+00 1851878480
4.117679 -1.469928 -2.248115 0.000000000000000e+00 1851878480
4.030374 -1.654602 -2.255995 0.000000000000000e+00 1851878480
3.843798 -2.016703 -2.267773 0.000000000000000e+00 1851878480
3.661672 -2.145823 -2.221495 0.000000000000000e+00 1851878480
4.016540 -1.432437 -2.238567 0.000000000000000e+00 1851878480
3.925879 -1.610985 -2.243872 0.000000000000000e+00 1851878480
3.756549 -1.971705 -2.264480 0.000000000000000e+00 1851878480
3.619482 -2.122706 -2.244448 0.000000000000000e+00 1851878480
4.021629 -1.432853 -2.287532 0.000000000000000e+00 1634890835
3.811220 -1.563231 -2.223758 0.000000000000000e+00 1851878480
3.648298 -1.915652 -2.246469 0.000000000000000e+00 1851878480
3.526491 -2.069752 -2.234559 0.000000000000000e+00 1851878480
3.957191 -1.408504 -2.296676 0.000000000000000e+00 1634890835
3.774709 -1.547554 -2.247856 0.000000000000000e+00 1851878480
3.589219 -1.885387 -2.257029 0.000000000000000e+00 1851878480
3.500444 -2.056052 -2.265962 0.000000000000000e+00 1851878480
3.867529 -1.375222 -2.289805 0.000000000000000e+00 1634890835
3.703154 -1.517522 -2.250203 0.000000000000000e+00 1851878480
3.509718 -1.844377 -2.253395 0.000000000000000e+00 1851878480
3.454262 -2.030509 -2.283833 0.000000000000000e+00 1851878480
3.813555 -1.354668 -2.302802 0.000000000000000e+00 1634890835
3.575979 -1.464730 -2.216759 0.000000000000000e+00 1851878480
3.461327 -1.819696 -2.268516 0.000000000000000e+00 1851878480
3.312497 -1.948711 -2.236398 0.000000000000000e+00 1851878480
3.711941 -1.317235 -2.285614 0.000000000000000e+00 1634890835
3.561949 -1.458303 -2.252151 0.000000000000000e+00 1851878480
3.378791 -1.777043 -2.259983 0.000000000000000e+00 1851878480
3.280926 -1.931679 -2.261434 0.000000000000000e+00 1851878480
3.642699 -1.291339 -2.286747 0.000000000000000e+00 1634890835
3.462338 -1.416849 -2.232454 0.000000000000000e+00 1851878480
3.310712 -1.741967 -2.259568 0.000000000000000e+00 1851878480
3.217983 -1.896144 -2.264014 0.000000000000000e+00 1851878480
3.569088 -1.263933 -2.283845 0.000000000000000e+00 1634890835
3.492835 -1.428648 -2.296229 0.000000000000000e+00 1634890835
3.280184 -1.726636 -2.283923 0.000000000000000e+00 1851878480
3.123450 -1.841940 -2.242624 0.000000000000000e+00 1851878480
3.512415 -1.242559 -2.290631 0.000000000000000e+00 1634890835
3.450958 -1.410838 -2.312735 0.000000000000000e+00 1634890835
3.225592 -1.698626 -2.290845 0.000000000000000e+00 1851878480
3.094771 -1.826529 -2.267252 0.000000000000000e+00 1851878480
3.465505 -1.224668 -2.302952 0.000000000000000e+00 1634890835
3.360822 -1.373319 -2.295671 0.000000000000000e+00 1634890835
3.104921 -1.635788 -2.248886 0.000000000000000e+00 1851878480
2.994761 -1.768974 -2.238257 0.000000000000000e+00 1851878480
3.343610 -1.180328 -2.263788 0.000000000000000e+00 1634890835
3.336012 -1.362510 -2.322212 0.000000000000000e+00 1634890835
3.074444 -1.620442 -2.270626 0.000000000000000e+00 1851878480
2.955502 -1.747254 -2.253131 0.000000000000000e+00 1851878480
3.328725 -1.173799 -2.295810 0.000000000000000e+00 1634890835
3.253664 -1.328214 -2.307773 0.000000000000000e+00 1634890835
2.997910 -1.580803 -2.257330 0.000000000000000e+00 1851878480
2.907151 -1.720133 -2.260296 0.000000000000000e+00 1851878480
3.249770 -1.144703 -2.282905 0.000000000000000e+00 1634890835
3.180220 -1.297578 -2.298067 0.000000000000000e+00 1634890835
2.960007 -1.561517 -2.271985 0.000000000000000e+00 1851878480
2.870195 -1.699730 -2.275568 0.000000000000000e+00 1851878480
3.177330 -1.117946 -2.273093 0.000000000000000e+00 1634890835
3.117861 -1.271485 -2.295037 0.000000000000000e+00 1634890835
2.878150 -1.519022 -2.251668 0.000000000000000e+00 1851878480
2.790156 -1.653773 -2.255434 0.000000000000000e+00 1851878480
3.142369 -1.104404 -2.289164 0.000000000000000e+00 1634890835
3.031309 -1.235552 -2.272670 0.000000000000000e+00 1634890835
2.823704 -1.490973 -2.251304 0.000000000000000e+00 1851878480
2.723864 -1.615906 -2.244686 0.000000000000000e+00 1851878480
3.092183 -1.085532 -2.293500 0.000000000000000e+00 1634890835
3.033419 -1.235765 -2.316116 0.000000000000000e+00 1634890835
2.837585 -1.498997 -2.305348 0.000000000000000e+00 1851878480
0.907929 -0.539102 -0.762676 0.000000000000000e+00 1886740808
2.989689 -1.048344 -2.257484 0.000000000000000e+00 1634890835
2.955107 -1.203225 -2.297601 0.000000000000000e+00 1634890835
2.721491 -1.438347 -2.252785 0.000000000000000e+00 1851878480
0.792530 -0.471007 -0.678537 0.000000000000000e+00 1886740808
2.962382 -1.037560 -2.276979 0.000000000000000e+00 1634890835
2.889534 -1.175897 -2.287480 0.000000000000000e+00 1634890835
0.884212 -0.467542 -0.745675 0.000000000000000e+00 1886740808
0.823748 -0.490010 -0.718751 0.000000000000000e+00 1886740808
2.947778 -1.031227 -2.306158 0.000000000000000e+00 1634890835
2.850983 -1.159576 -2.297783 0.000000000000000e+00 1634890835
0.835205 -0.441842 -0.717504 0.000000000000000e+00 1886740808
0.780552 -0.464746 -0.694016 0.000000000000000e+00 1886740808
2.849546 -0.995671 -2.268849 0.000000000000000e+00 1634890835
2.813372 -1.143650 -2.308271 0.000000000000000e+00 1634890835
0.836096 -0.442530 -0.731621 0.000000000000000e+00 1886740808
0.784802 -0.467717 -0.711006 0.000000000000000e+00 1886740808
2.847627 -0.993796 -2.307338 0.000000000000000e+00 1634890835
2.740153 -1.113266 -2.288455 0.000000000000000e+00 1634890835
0.850454 -0.450352 -0.757955 0.000000000000000e+00 1886740808
0.813344 -0.485191 -0.750755 0.000000000000000e+00 1886740808
2.777331 -0.968071 -2.289911 0.000000000000000e+00 1634890835
0.858678 -0.348665 -0.729913 0.000000000000000e+00 1886740808
0.803466 -0.425685 -0.729274 0.000000000000000e+00 1886740808
0.743600 -0.444016 -0.699264 0.000000000000000e+00 1886740808
0.915255 -0.318625 -0.767826 0.000000000000000e+00 1886740808
0.835346 -0.338997 -0.722684 0.000000000000000e+00 1886740808
0.840302 -0.445428 -0.776708 0.000000000000000e+00 1886740808
0.779136 -0.465692 -0.746385 0.000000000000000e+00 1886740808
0.874466 -0.304042 -0.746386 0.000000000000000e+00 1886740808
0.765218 -0.310357 -0.673719 0.000000000000000e+00 1886740808
0.795770 -0.422040 -0.748999 0.000000000000000e+00 1886740808
0.749101 -0.448186 -0.730991 0.000000000000000e+00 1886740808
0.815132 -0.283049 -0.707816 0.000000000000000e+00 1886740808
0.800835 -0.324611 -0.717499 0.000000000000000e+00 1886740808
0.787123 -0.417674 -0.754367 0.000000000000000e+00 1886740808
0.746284 -0.446953 -0.741777 0.000000000000000e+00 1886740808
0.785257 -0.272320 -0.693667 0.000000000000000e+00 1886740808
0.772081 -0.312770 -0.703885 0.000000000000000e+00 1886740808
0.795497 -0.422342 -0.776251 0.000000000000000e+00 1886740808
0.720818 -0.432145 -0.729745 0.000000000000000e+00 1886740808
0.801908 -0.277728 -0.720587 0.000000000000000e+00 1886740808
0.796440 -0.322441 -0.738804 0.000000000000000e+00 1886740808
0.786320 -0.417696 -0.781209 0.000000000000000e+00 1886740808
0.744176 -0.446614 -0.767324 0.000000000000000e+00 1886740808
0.788036 -0.272557 -0.720294 0.000000000000000e+00 1886740808
0.792283 -0.320561 -0.747781 0.000000000000000e+00 1886740808
0.784217 -0.416808 -0.793214 0.000000000000000e+00 1886740808
0.802965 -0.482405 -0.843220 0.000000000000000e+00 1886740808
0.760771 -0.262769 -0.707296 0.000000000000000e+00 1886740808
0.738114 -0.298457 -0.708789 0.000000000000000e+00 1886740808
0.812118 -0.431878 -0.836266 0.000000000000000e+00 1886740808
0.755680 -0.454486 -0.808185 0.000000000000000e+00 1886740808
0.807368 -0.278478 -0.763457 0.000000000000000e+00 1886740808
0.762104 -0.307961 -0.744548 0.000000000000000e+00 1886740808
0.780778 -0.415447 -0.818486 0.000000000000000e+00 1886740808
2.125168 -1.279532 -2.314642 0.000000000000000e+00 1634890835
0.739888 -0.254844 -0.711593 0.000000000000000e+00 1886740808
0.704840 -0.284637 -0.700552 0.000000000000000e+00 1886740808
0.797120 -0.424387 -0.850661 0.000000000000000e+00 1886740808
2.078955 -1.253099 -2.305925 0.000000000000000e+00 1634890835
0.794349 -0.273212 -0.776993 0.000000000000000e+00 1886740808
0.781962 -0.315574 -0.790673 0.000000000000000e+00 1886740808
2.122977 -1.130935 -2.306319 0.000000000000000e+00 1634890835
2.024328 -1.221552 -2.286573 0.000000000000000e+00 1634890835
0.756669 -0.259873 -0.752733 0.000000000000000e+00 1886740808
0.765957 -0.308909 -0.787893 0.000000000000000e+00 1886740808
2.061458 -1.098818 -2.279738 0.000000000000000e+00 1634890835
0.805472 -0.486609 -0.926521 0.000000000000000e+00 1886740808
0.759928 -0.260607 -0.768829 0.000000000000000e+00 1886740808
0.740302 -0.298360 -0.774672 0.000000000000000e+00 1886740808
2.029846 -1.082622 -2.285109 0.000000000000000e+00 1634890835
0.770954 -0.466301 -0.903096 0.000000000000000e+00 1886740808
0.784354 -0.268579 -0.807022 0.000000000000000e+00 1886740808
0.730207 -0.294088 -0.777314 0.000000000000000e+00 1886740808
2.026751 -1.081637 -2.322615 0.000000000000000e+00 1634890835
0.804764 -0.487330 -0.960012 0.000000000000000e+00 1886740808
0.749728 -0.256330 -0.784495 0.000000000000000e+00 1886740808
2.127629 -0.856291 -2.304020 0.000000000000000e+00 1634890835
0.804800 -0.429776 -0.938860 0.000000000000000e+00 1886740808
0.758867 -0.460094 -0.921894 0.000000000000000e+00 1886740808
0.753599 -0.257252 -0.801932 0.000000000000000e+00 1886740808
2.088939 -0.840120 -2.301209 0.000000000000000e+00 1634890835
0.831699 -0.444424 -0.987686 0.000000000000000e+00 1886740808
0.778506 -0.472583 -0.963145 0.000000000000000e+00 1886740808
0.748726 -0.255183 -0.810273 0.000000000000000e+00 1886740808
2.065273 -0.829996 -2.314463 0.000000000000000e+00 1634890835
0.789156 -0.421965 -0.954032 0.000000000000000e+00 1886740808
1.831627 -1.113266 -2.307763 0.000000000000000e+00 1634890835
2.082532 -0.708630 -2.292000 0.000000000000000e+00 1634890835
1.993322 -0.800486 -2.272466 0.000000000000000e+00 1634890835
0.791542 -0.423522 -0.974161 0.000000000000000e+00 1886740808
1.772099 -1.078464 -2.273939 0.000000000000000e+00 1634890835
2.007697 -0.682041 -2.247191 0.000000000000000e+00 1634890835
1.986844 -0.797282 -2.304293 0.000000000000000e+00 1634890835
0.811419 -0.434450 -1.016647 0.000000000000000e+00 1886740808
0.752196 -0.458369 -0.983045 0.000000000000000e+00 1886740808
2.027503 -0.687612 -2.307965 0.000000000000000e+00 1634890835
1.926981 -0.772664 -2.273603 0.000000000000000e+00 1634890835
0.819118 -0.438874 -1.044853 0.000000000000000e+00 1886740808
1.743512 -1.063866 -2.320796 0.000000000000000e+00 1634890835
1.980667 -0.670578 -2.293052 0.000000000000000e+00 1634890835
0.837387 -0.335505 -1.005167 0.000000000000000e+00 1886740808
1.764052 -0.945824 -2.290973 0.000000000000000e+00 1634890835
1.704346 -1.041380 -2.310786 0.000000000000000e+00 1634890835
1.927445 -0.651420 -2.269501 0.000000000000000e+00 1634890835
0.754332 -0.301986 -0.921218 0.000000000000000e+00 1886740808
0.754206 -0.404669 -0.997282 0.000000000000000e+00 1886740808
1.680974 -1.028522 -2.321537 0.000000000000000e+00 1634890835
1.890025 -0.637635 -2.263473 0.000000000000000e+00 1634890835
0.776056 -0.310429 -0.964266 0.000000000000000e+00 1886740808
1.733267 -0.930661 -2.333645 0.000000000000000e+00 1634890835
1.629725 -0.998575 -2.292807 0.000000000000000e+00 1634890835
0.759263 -0.255685 -0.924857 0.000000000000000e+00 1886740808
0.784130 -0.313397 -0.991321 0.000000000000000e+00 1886740808
1.692455 -0.909426 -2.320347 0.000000000000000e+00 1634890835
1.608875 -0.987223 -2.305913 0.000000000000000e+00 1634890835
0.802782 -0.269839 -0.994655 0.000000000000000e+00 1886740808
0.765926 -0.305860 -0.985271 0.000000000000000e+00 1886740808
1.644325 -0.884236 -2.295710 0.000000000000000e+00 1634890835
1.562638 -0.960267 -2.281801 0.000000000000000e+00 1634890835
0.793296 -0.266144 -0.999822 0.000000000000000e+00 1886740808
0.805694 -0.321461 -1.054641 0.000000000000000e+00 1886740808
1.624802 -0.874418 -2.310219 0.000000000000000e+00 1634890835
1.549510 -0.953634 -2.305401 0.000000000000000e+00 1634890835
0.776445 -0.259985 -0.995481 0.000000000000000e+00 1886740808
1.741134 -0.694072 -2.319304 0.000000000000000e+00 1634890835
1.584954 -0.853650 -2.295227 0.000000000000000e+00 1634890835
1.517240 -0.935212 -2.300259 0.000000000000000e+00 1634890835
0.751244 -0.251048 -0.979856 0.000000000000000e+00 1886740808
1.727892 -0.688168 -2.342397 0.000000000000000e+00 1634890835
1.528702 -0.824023 -2.254880 0.000000000000000e+00 1634890835
1.486321 -0.917598 -2.296389 0.000000000000000e+00 1634890835
0.797131 -0.265842 -1.057783 0.000000000000000e+00 1886740808
0.748506 -0.297831 -1.032733 0.000000000000000e+00 1886740808
1.510497 -0.814886 -2.269605 0.000000000000000e+00 1634890835
1.438779 -0.889679 -2.265587 0.000000000000000e+00 1634890835
1.715913 -0.571066 -2.316740 0.000000000000000e+00 1634890835
1.625381 -0.646124 -2.282598 0.000000000000000e+00 1634890835
1.537123 -0.829956 -2.352939 0.000000000000000e+00 1634890835
1.427183 -0.883964 -2.290692 0.000000000000000e+00 1634890835
0.774310 -0.257148 -1.063760 0.000000000000000e+00 1886740808
1.634576 -0.649147 -2.336663 0.000000000000000e+00 1634890835
1.471806 -0.795383 -2.295453 0.000000000000000e+00 1634890835
1.399181 -0.868086 -2.289344 0.000000000000000e+00 1634890835
1.632199 -0.540872 -2.281826 0.000000000000000e+00 1634890835
1.615436 -0.640906 -2.350907 0.000000000000000e+00 1634890835
1.434926 -0.776142 -2.280393 0.000000000000000e+00 1634890835
1.402102 -0.871402 -2.338943 0.000000000000000e+00 1634890835
1.612783 -0.533247 -2.294579 0.000000000000000e+00 1634890835
1.563607 -0.619712 -2.316694 0.000000000000000e+00 1634890835
1.442102 -0.780736 -2.335552 0.000000000000000e+00 1634890835
1.361593 -0.847727 -2.316046 0.000000000000000e+00 1634890835
1.579267 -0.520972 -2.286858 0.000000000000000e+00 1634890835
1.527356 -0.604711 -2.304200 0.000000000000000e+00 1634890835
1.442410 -0.781634 -2.380946 0.000000000000000e+00 1634890835
1.351892 -0.843218 -2.345103 0.000000000000000e+00 1634890835
1.520972 -0.500564 -2.241831 0.000000000000000e+00 1634890835
1.495385 -0.591418 -2.297301 0.000000000000000e+00 1634890835
1.354592 -0.734751 -2.279256 0.000000000000000e+00 1634890835
1.311744 -0.819702 -2.320878 0.000000000000000e+00 1634890835
1.519641 -0.498923 -2.280160 0.000000000000000e+00 1634890835
1.447395 -0.571808 -2.264570 0.000000000000000e+00 1634890835
1.336593 -0.725702 -2.292812 0.000000000000000e+00 1634890835
1.283624 -0.803665 -2.316818 0.000000000000000e+00 1634890835
1.479884 -0.484669 -2.260694 0.000000000000000e+00 1634890835
1.457475 -0.575140 -2.322661 0.000000000000000e+00 1634890835
1.330023 -0.722864 -2.326358 0.000000000000000e+00 1634890835
1.261614 -0.791438 -2.323287 0.000000000000000e+00 1634890835
1.468909 -0.479855 -2.284807 0.000000000000000e+00 1634890835
1.412243 -0.556647 -2.292640 0.000000000000000e+00 1634890835
1.261461 -0.686313 -2.250130 0.000000000000000e+00 1634890835
1.211777 -0.761710 -2.277180 0.000000000000000e+00 1634890835
1.434400 -0.467361 -2.272050 0.000000000000000e+00 1634890835
1.399038 -0.550785 -2.313957 0.000000000000000e+00 1634890835
1.256335 -0.684253 -2.285740 0.000000000000000e+00 1634890835
1.202176 -0.757241 -2.305789 0.000000000000000e+00 1634890835
1.435834 -0.466573 -2.316334 0.000000000000000e+00 1634890835
1.388345 -0.545906 -2.339833 0.000000000000000e+00 1634890835
1.243600 -0.678059 -2.308158 0.000000000000000e+00 1634890835
1.176026 -0.742351 -2.302664 0.000000000000000e+00 1634890835
1.387166 -0.449517 -2.279471 0.000000000000000e+00 1634890835
1.360649 -0.534343 -2.337008 0.000000000000000e+00 1634890835
1.217954 -0.664826 -2.306527 0.000000000000000e+00 1634890835
1.147156 -0.725718 -2.293434 0.000000000000000e+00 1634890835
1.375359 -0.444426 -2.302464 0.000000000000000e+00 1634890835
1.312386 -0.514721 -2.297579 0.000000000000000e+00 1634890835
1.206687 -0.659440 -2.332109 0.000000000000000e+00 1634890835
1.145842 -0.726526 -2.339551 0.000000000000000e+00 1634890835
1.351334 -0.435385 -2.305027 0.000000000000000e+00 1634890835
1.300445 -0.509358 -2.320965 0.000000000000000e+00 1634890835
1.184399 -0.648035 -2.336508 0.000000000000000e+00 1634890835
1.108080 -0.704218 -2.311111 0.000000000000000e+00 1634890835
1.319347 -0.423798 -2.293394 0.000000000000000e+00 1634890835
1.267034 -0.495590 -2.305730 0.000000000000000e+00 1634890835
1.157150 -0.633904 -2.330595 0.000000000000000e+00 1634890835
1.099096 -0.700187 -2.342238 0.000000000000000e+00 1634890835
1.288223 -0.412516 -2.282389 0.000000000000000e+00 1634890835
1.237182 -0.483229 -2.296027 0.000000000000000e+00 1634890835
1.112506 -0.610221 -2.288151 0.000000000000000e+00 1634890835
1.057349 -0.675260 -2.302867 0.000000000000000e+00 1634890835
1.248049 -0.398369 -2.254165 0.000000000000000e+00 1634890835
1.226879 -0.478505 -2.322485 0.000000000000000e+00 1634890835
1.122245 -0.616369 -2.357646 0.000000000000000e+00 1634890835
1.039705 -0.665687 -2.314886 0.000000000000000e+00 1634890835
1.242881 -0.395408 -2.288864 0.000000000000000e+00 1634890835
1.172757 -0.456708 -2.264934 0.000000000000000e+00 1634890835
1.091362 -0.600218 -2.342483 0.000000000000000e+00 1634890835
1.020181 -0.654912 -2.322669 0.000000000000000e+00 1634890835
1.235473 -0.391706 -2.320301 0.000000000000000e+00 1634890835
1.141840 -0.443977 -2.250304 0.000000000000000e+00 1634890835
1.046121 -0.576140 -2.294666 0.000000000000000e+00 1634890835
0.999245 -0.643221 -2.327015 0.000000000000000e+00 1634890835
1.191948 -0.376570 -2.283378 0.000000000000000e+00 1634890835
1.139501 -0.442355 -2.292118 0.000000000000000e+00 1634890835
1.019438 -0.562254 -2.285852 0.000000000000000e+00 1634890835
0.956742 -0.617601 -2.279677 0.000000000000000e+00 1634890835
1.153524 -0.363097 -2.254499 0.000000000000000e+00 1634890835
1.124421 -0.435775 -2.309086 0.000000000000000e+00 1634890835
1.025963 -0.566698 -2.352312 0.000000000000000e+00 1634890835
0.945421 -0.612073 -2.305661 0.000000000000000e+00 1634890835
1.139216 -0.357234 -2.272112 0.000000000000000e+00 1634890835
1.105878 -0.427851 -2.319075 0.000000000000000e+00 1634890835
1.000857 -0.553684 -2.347160 0.000000000000000e+00 1634890835
0.915388 -0.594422 -2.285679 0.000000000000000e+00 1634890835
1.141833 -0.356648 -2.324499 0.000000000000000e+00 1634890835
1.072482 -0.414191 -2.297240 0.000000000000000e+00 1634890835
0.957664 -0.530638 -2.297898 0.000000000000000e+00 1634890835
0.903180 -0.588333 -2.309830 0.000000000000000e+00 1634890835
1.123490 -0.349489 -2.335109 0.000000000000000e+00 1634890835
1.044281 -0.402554 -2.285396 0.000000000000000e+00 1634890835
0.958455 -0.531958 -2.353869 0.000000000000000e+00 1634890835
0.881868 -0.576318 -2.310839 0.000000000000000e+00 1634890835
1.080236 -0.334614 -2.292874 0.000000000000000e+00 1634890835
1.029480 -0.396088 -2.302576 0.000000000000000e+00 1634890835
0.920047 -0.511520 -2.313490 0.000000000000000e+00 1634890835
0.844851 -0.553991 -2.269236 0.000000000000000e+00 1634890835
1.040742 -0.320964 -2.256559 0.000000000000000e+00 1634890835
1.017630 -0.390750 -2.326853 0.000000000000000e+00 1634890835
0.899100 -0.500768 -2.315658 0.000000000000000e+00 1634890835
0.817111 -0.537682 -2.250590 0.000000000000000e+00 1634890835
1.049598 -0.322216 -2.325376 0.000000000000000e+00 1634890835
0.977054 -0.374393 -2.284636 0.000000000000000e+00 1634890835
0.874535 -0.487991 -2.307930 0.000000000000000e+00 1634890835
0.463490 -0.306102 -1.309675 0.000000000000000e+00 1936876886
1.025002 -0.313168 -2.321088 0.000000000000000e+00 1634890835
0.960572 -0.367287 -2.297698 0.000000000000000e+00 1634890835
0.852757 -0.476760 -2.306908 0.000000000000000e+00 1634890835
0.438812 -0.290906 -1.272664 0.000000000000000e+00 1936876886
0.967867 -0.294247 -2.240871 0.000000000000000e+00 1634890835
0.938996 -0.358233 -2.298488 0.000000000000000e+00 1634890835
0.836503 -0.468615 -2.320708 0.000000000000000e+00 1634890835
0.422231 -0.281023 -1.257510 0.000000000000000e+00 1936876886
0.969479 -0.293214 -2.295715 0.000000000000000e+00 1634890835
0.916980 -0.349017 -2.297807 0.000000000000000e+00 1634890835
0.470509 -0.264135 -1.339272 0.000000000000000e+00 1936876886
0.325891 -0.217798 -0.997209 0.000000000000000e+00 1953264973
0.952009 -0.286377 -2.306481 0.000000000000000e+00 1634890835
0.883745 -0.335548 -2.267895 0.000000000000000e+00 1634890835
0.433783 -0.244052 -1.267456 0.000000000000000e+00 1936876886
0.297890 -0.199944 -0.937050 0.000000000000000e+00 1953264973
0.506655 -0.151549 -1.256346 0.000000000000000e+00 1936876886
0.884503 -0.334983 -2.325488 0.000000000000000e+00 1634890835
0.370775 -0.209080 -1.112634 0.000000000000000e+00 1953264973
0.300800 -0.202808 -0.973265 0.000000000000000e+00 1953264973
0.483858 -0.143875 -1.228484 0.000000000000000e+00 1936876886
0.866518 -0.327298 -2.335055 0.000000000000000e+00 1634890835
0.360922 -0.204010 -1.112938 0.000000000000000e+00 1953264973
0.265203 -0.179652 -0.883175 0.000000000000000e+00 1953264973
0.476539 -0.140822 -1.239314 0.000000000000000e+00 1936876886
0.839521 -0.316219 -2.319806 0.000000000000000e+00 1634890835
0.297284 -0.168461 -0.942532 0.000000000000000e+00 1953264973
0.255266 -0.173777 -0.875513 0.000000000000000e+00 1953264973
