# .PCD v0.7 - Point Cloud Data file format
VERSION 0.7
FIELDS x y z rgb label
SIZE 4 4 4 4 4
TYPE F F F F U
COUNT 1 1 1 1 1
WIDTH 542
HEIGHT 1
VIEWPOINT 0 0 0 1 0 0 0
POINTS 542
DATA ascii
44.466927 -16.940947 10.268832 0.000000000000000e+00 1954047316
44.458363 -16.924381 9.842591 0.000000000000000e+00 1954047316
35.849152 -13.338254 -1.952217 0.000000000000000e+00 1851878480
34.122269 -14.278180 -1.760996 0.000000000000000e+00 1851878480
30.789061 -15.883654 -1.357933 0.000000000000000e+00 1851878480
30.101866 -17.080706 -1.184302 0.000000000000000e+00 1851878480
31.305353 -11.638844 -1.988962 0.000000000000000e+00 1851878480
30.549700 -12.778789 -1.862379 0.000000000000000e+00 1851878480
28.746649 -14.834574 -1.554486 0.000000000000000e+00 1851878480
27.967710 -15.879083 -1.388863 0.000000000000000e+00 1851878480
28.959770 -10.758627 -2.103024 0.000000000000000e+00 1851878480
28.230562 -11.804590 -1.985286 0.000000000000000e+00 1851878480
27.361132 -14.123964 -1.752659 0.000000000000000e+00 1851878480
26.499872 -15.054575 -1.589660 0.000000000000000e+00 1851878480
26.849401 -9.967040 -2.193909 0.000000000000000e+00 1851878480
26.529758 -11.089498 -2.114284 0.000000000000000e+00 1851878480
25.851021 -13.348571 -1.914253 0.000000000000000e+00 1851878480
24.836143 -14.117726 -1.746699 0.000000000000000e+00 1851878480
24.514450 -9.093343 -2.226260 0.000000000000000e+00 1851878480
24.671297 -10.309035 -2.197633 0.000000000000000e+00 1851878480
23.957766 -12.374786 -2.013789 0.000000000000000e+00 1851878480
23.433073 -13.328060 -1.890708 0.000000000000000e+00 1851878480
22.325581 -8.275101 -2.230938 0.000000000000000e+00 1851878480
22.560431 -9.423692 -2.221524 0.000000000000000e+00 1851878480
22.120771 -11.429489 -2.081053 0.000000000000000e+00 1851878480
21.656769 -12.325037 -1.972034 0.000000000000000e+00 1851878480
20.483397 -7.586499 -2.233769 0.000000000000000e+00 1851878480
20.615738 -8.608337 -2.223957 0.000000000000000e+00 1851878480
20.473139 -10.581460 -2.131544 0.000000000000000e+00 1851878480
20.027868 -11.404782 -2.031820 0.000000000000000e+00 1851878480
18.938883 -7.009093 -2.238418 0.000000000000000e+00 1851878480
18.985605 -7.924862 -2.226979 0.000000000000000e+00 1851878480
19.135515 -9.893201 -2.184695 0.000000000000000e+00 1851878480
18.647848 -10.625236 -2.085967 0.000000000000000e+00 1851878480
17.628998 -6.519319 -2.244975 0.000000000000000e+00 1851878480
17.598831 -7.343405 -2.230411 0.000000000000000e+00 1851878480
17.733843 -9.171386 -2.203339 0.000000000000000e+00 1851878480
17.662489 -10.069787 -2.160019 0.000000000000000e+00 1851878480
16.390465 -6.056652 -2.237561 0.000000000000000e+00 1851878480
16.517694 -6.889847 -2.249583 0.000000000000000e+00 1851878480
16.463917 -8.517285 -2.211788 0.000000000000000e+00 1851878480
16.552444 -9.442554 -2.197353 0.000000000000000e+00 1851878480
8.801352 -3.249803 -1.282391 1.880790849211783e-38 1684957512
15.353329 -6.401889 -2.236476 0.000000000000000e+00 1851878480
15.455107 -7.997900 -2.232659 0.000000000000000e+00 1851878480
15.432626 -8.809003 -2.210457 0.000000000000000e+00 1851878480
8.593589 -3.170639 -1.331240 1.880790849211783e-38 1684957512
14.469730 -6.031309 -2.245163 0.000000000000000e+00 1851878480
14.506657 -7.509442 -2.242799 0.000000000000000e+00 1851878480
14.438510 -8.246496 -2.219798 0.000000000000000e+00 1851878480
8.652881 -3.190051 -1.420270 1.880790849211783e-38 1684957512
13.601960 -5.667586 -2.239978 0.000000000000000e+00 1851878480
13.601152 -7.042925 -2.241130 0.000000000000000e+00 1851878480
13.567921 -7.753918 -2.228924 0.000000000000000e+00 1851878480
8.629141 -3.178834 -1.496188 1.880790849211783e-38 1684957512
12.856587 -5.355089 -2.239902 0.000000000000000e+00 1851878480
12.837145 -6.649406 -2.246157 0.000000000000000e+00 1851878480
12.827927 -7.335435 -2.242927 0.000000000000000e+00 1851878480
8.615540 -3.171356 -1.573723 1.880790849211783e-38 1684957512
12.231830 -5.093042 -2.248076 0.000000000000000e+00 1851878480
12.123963 -6.281982 -2.245375 0.000000000000000e+00 1851878480
12.079214 -6.911476 -2.240066 0.000000000000000e+00 1851878480
8.575834 -3.154281 -1.646206 1.880790849211783e-38 1684957512
11.592155 -4.824960 -2.241720 0.000000000000000e+00 1851878480
11.498897 -5.959997 -2.247581 0.000000000000000e+00 1851878480
11.477226 -6.571003 -2.250485 0.000000000000000e+00 1851878480
8.629173 -3.171415 -1.736903 1.880790849211783e-38 1684957512
11.064847 -4.603816 -2.246210 0.000000000000000e+00 1851878480
10.929720 -5.666787 -2.248823 0.000000000000000e+00 1851878480
10.825286 -6.201518 -2.238167 0.000000000000000e+00 1851878480
8.599924 -3.158186 -1.811440 1.880790849211783e-38 1684957512
10.564133 -4.393890 -2.246523 0.000000000000000e+00 1851878480
10.445293 -5.417353 -2.257021 0.000000000000000e+00 1851878480
10.271129 -5.887646 -2.233584 0.000000000000000e+00 1851878480
8.615603 -3.161455 -1.895568 1.880790849211783e-38 1684957512
10.059864 -4.182631 -2.236700 0.000000000000000e+00 1851878480
9.924574 -5.148944 -2.247366 0.000000000000000e+00 1851878480
9.784487 -5.612125 -2.232931 0.000000000000000e+00 1851878480
8.609929 -3.156876 -1.975355 1.880790849211783e-38 1684957512
9.696589 -4.030124 -2.250142 0.000000000000000e+00 1851878480
9.482270 -4.921055 -2.245847 0.000000000000000e+00 1851878480
9.362720 -5.373511 -2.237709 0.000000000000000e+00 1851878480
8.635036 -3.163571 -2.062665 1.880790849211783e-38 1684957512
9.304837 -3.865889 -2.249964 0.000000000000000e+00 1851878480
9.112287 -4.730572 -2.253376 0.000000000000000e+00 1851878480
8.962578 -5.147034 -2.239178 0.000000000000000e+00 1851878480
8.552860 -3.130968 -2.124100 1.880790849211783e-38 1684957512
8.941020 -3.713367 -2.249496 0.000000000000000e+00 1851878480
8.764793 -4.551647 -2.259344 0.000000000000000e+00 1851878480
8.623480 -4.955359 -2.248284 0.000000000000000e+00 1851878480
8.571883 -3.135428 -2.210374 1.880790849211783e-38 1684957512
8.557175 -3.552641 -2.236998 0.000000000000000e+00 1851878480
8.404258 -4.365839 -2.254898 0.000000000000000e+00 1851878480
8.204474 -4.717518 -2.228702 0.000000000000000e+00 1851878480
8.443625 -3.086036 -2.257943 0.000000000000000e+00 1851878480
8.242023 -3.420534 -2.235918 0.000000000000000e+00 1851878480
8.102571 -4.210498 -2.259642 0.000000000000000e+00 1851878480
7.920523 -4.557096 -2.238520 0.000000000000000e+00 1851878480
8.141592 -2.973247 -2.255250 0.000000000000000e+00 1851878480
7.976477 -3.309101 -2.242898 0.000000000000000e+00 1851878480
7.767491 -4.037696 -2.248713 0.000000000000000e+00 1851878480
7.611610 -4.382109 -2.235172 0.000000000000000e+00 1851878480
7.803972 -2.847638 -2.236877 0.000000000000000e+00 1851878480
7.686007 -3.187408 -2.237693 0.000000000000000e+00 1851878480
7.532989 -3.917092 -2.261226 0.000000000000000e+00 1851878480
7.377019 -4.249728 -2.248052 0.000000000000000e+00 1851878480
7.582496 -2.764572 -2.246730 0.000000000000000e+00 1851878480
7.507439 -3.112186 -2.260736 0.000000000000000e+00 1851878480
7.231735 -3.761690 -2.248360 0.000000000000000e+00 1851878480
7.114434 -4.101060 -2.247291 0.000000000000000e+00 1851878480
7.313597 -2.664350 -2.238107 0.000000000000000e+00 1851878480
7.194114 -2.981175 -2.238620 0.000000000000000e+00 1851878480
7.003327 -3.644093 -2.252839 0.000000000000000e+00 1851878480
6.896832 -3.978152 -2.255792 0.000000000000000e+00 1851878480
7.048714 -2.565747 -2.225851 0.000000000000000e+00 1851878480
6.978689 -2.890809 -2.241999 0.000000000000000e+00 1851878480
6.789319 -3.533921 -2.257565 0.000000000000000e+00 1851878480
6.629172 -3.826212 -2.242893 0.000000000000000e+00 1851878480
6.868017 -2.497905 -2.236151 0.000000000000000e+00 1851878480
6.807198 -2.818696 -2.255931 0.000000000000000e+00 1851878480
6.592756 -3.432761 -2.264025 0.000000000000000e+00 1851878480
6.413444 -3.704082 -2.242523 0.000000000000000e+00 1851878480
6.698081 -2.434076 -2.246845 0.000000000000000e+00 1851878480
6.574498 -2.721300 -2.245823 0.000000000000000e+00 1851878480
6.331800 -3.298005 -2.243773 0.000000000000000e+00 1851878480
6.242491 -3.607680 -2.253839 0.000000000000000e+00 1851878480
6.492892 -2.357539 -2.242344 0.000000000000000e+00 1851878480
6.383871 -2.641378 -2.246120 0.000000000000000e+00 1851878480
6.138159 -3.198232 -2.242779 0.000000000000000e+00 1851878480
6.039928 -3.492889 -2.249900 0.000000000000000e+00 1851878480
6.330534 -2.296659 -2.249329 0.000000000000000e+00 1851878480
6.233025 -2.577967 -2.257265 0.000000000000000e+00 1851878480
5.991131 -3.122694 -2.255453 0.000000000000000e+00 1851878480
5.842030 -3.380656 -2.243520 0.000000000000000e+00 1851878480
6.171602 -2.237108 -2.254668 0.000000000000000e+00 1851878480
6.035634 -2.495352 -2.248319 0.000000000000000e+00 1851878480
5.844922 -3.047535 -2.265580 0.000000000000000e+00 1851878480
5.644448 -3.268472 -2.233116 0.000000000000000e+00 1851878480
5.947832 -2.154162 -2.232821 0.000000000000000e+00 1851878480
5.908814 -2.441965 -2.262658 0.000000000000000e+00 1851878480
5.667970 -2.956298 -2.260582 0.000000000000000e+00 1851878480
5.541162 -3.210788 -2.256944 0.000000000000000e+00 1851878480
5.865996 -2.122708 -2.261522 0.000000000000000e+00 1851878480
5.741064 -2.371704 -2.258611 0.000000000000000e+00 1851878480
5.495571 -2.867377 -2.253875 0.000000000000000e+00 1851878480
5.367617 -3.112304 -2.249342 0.000000000000000e+00 1851878480
5.711504 -2.065023 -2.260162 0.000000000000000e+00 1851878480
5.559929 -2.295963 -2.246001 0.000000000000000e+00 1851878480
5.338942 -2.786633 -2.250321 0.000000000000000e+00 1851878480
5.240859 -3.040846 -2.258240 0.000000000000000e+00 1851878480
5.545663 -2.003325 -2.251394 0.000000000000000e+00 1851878480
5.416150 -2.235695 -2.245414 0.000000000000000e+00 1851878480
5.198218 -2.714140 -2.250490 0.000000000000000e+00 1851878480
5.093725 -2.957477 -2.255542 0.000000000000000e+00 1851878480
5.396096 -1.947597 -2.246349 0.000000000000000e+00 1851878480
5.310009 -2.191004 -2.258147 0.000000000000000e+00 1851878480
5.081013 -2.653890 -2.258297 0.000000000000000e+00 1851878480
4.959176 -2.881316 -2.255488 0.000000000000000e+00 1851878480
5.236434 -1.888310 -2.234258 0.000000000000000e+00 1851878480
5.168504 -2.131753 -2.253561 0.000000000000000e+00 1851878480
4.953348 -2.588134 -2.259040 0.000000000000000e+00 1851878480
4.798793 -2.790045 -2.240571 0.000000000000000e+00 1851878480
5.148436 -1.854935 -2.250528 0.000000000000000e+00 1851878480
5.032691 -2.074892 -2.248846 0.000000000000000e+00 1851878480
4.771572 -2.494056 -2.231919 0.000000000000000e+00 1851878480
4.664922 -2.714083 -2.234902 0.000000000000000e+00 1851878480
5.052429 -1.818725 -2.261734 0.000000000000000e+00 1851878480
4.916896 -2.026319 -2.250724 0.000000000000000e+00 1851878480
4.681775 -2.448007 -2.245058 0.000000000000000e+00 1851878480
4.588496 -2.671477 -2.254629 0.000000000000000e+00 1851878480
4.854943 -1.746069 -2.224779 0.000000000000000e+00 1851878480
4.788290 -1.972504 -2.244448 0.000000000000000e+00 1851878480
4.588844 -2.400295 -2.254959 0.000000000000000e+00 1851878480
4.459314 -2.598085 -2.246345 0.000000000000000e+00 1851878480
4.762532 -1.711282 -2.233264 0.000000000000000e+00 1851878480
4.691656 -1.931892 -2.251066 0.000000000000000e+00 1851878480
4.452714 -2.329948 -2.241331 0.000000000000000e+00 1851878480
4.402367 -2.566720 -2.272594 0.000000000000000e+00 1851878480
4.686775 -1.682528 -2.248129 0.000000000000000e+00 1851878480
4.586926 -1.887973 -2.251954 0.000000000000000e+00 1851878480
4.410802 -2.308877 -2.273423 0.000000000000000e+00 1851878480
4.286973 -2.501222 -2.266967 0.000000000000000e+00 1851878480
4.563759 -1.636861 -2.238556 0.000000000000000e+00 1851878480
4.480985 -1.843588 -2.250284 0.000000000000000e+00 1851878480
4.289955 -2.246461 -2.263296 0.000000000000000e+00 1851878480
4.154614 -2.425740 -2.249699 0.000000000000000e+00 1851878480
4.471376 -1.602244 -2.242048 0.000000000000000e+00 1851878480
4.385193 -1.803408 -2.251835 0.000000000000000e+00 1851878480
4.198285 -2.199287 -2.266409 0.000000000000000e+00 1851878480
4.076745 -2.381999 -2.259723 0.000000000000000e+00 1851878480
4.406927 -1.577674 -2.258212 0.000000000000000e+00 1851878480
4.317132 -1.774653 -2.266166 0.000000000000000e+00 1851878480
4.088737 -2.142717 -2.257840 0.000000000000000e+00 1851878480
3.946131 -2.307366 -2.238296 0.000000000000000e+00 1851878480
4.286349 -1.533064 -2.243957 0.000000000000000e+00 1851878480
4.187783 -1.720735 -2.246468 0.000000000000000e+00 1851878480
3.979337 -2.086188 -2.247078 0.000000000000000e+00 1851878480
3.912273 -2.289257 -2.270089 0.000000000000000e+00 1851878480
4.208605 -1.503826 -2.250310 0.000000000000000e+00 1851878480
4.093117 -1.681100 -2.243195 0.000000000000000e+00 1851878480
3.893579 -2.042021 -2.247671 0.000000000000000e+00 1851878480
3.813668 -2.233217 -2.263051 0.000000000000000e+00 1851878480
4.087266 -1.459071 -2.231510 0.000000000000000e+00 1851878480
4.014937 -1.648264 -2.247354 0.000000000000000e+00 1851878480
3.833577 -2.011341 -2.261743 0.000000000000000e+00 1851878480
3.749613 -2.197358 -2.274848 0.000000000000000e+00 1851878480
4.022672 -1.434624 -2.241985 0.000000000000000e+00 1851878480
3.905975 -1.602818 -2.232496 0.000000000000000e+00 1851878480
3.749292 -1.967896 -2.260105 0.000000000000000e+00 1851878480
3.622643 -2.124560 -2.246409 0.000000000000000e+00 1851878480
4.021747 -1.432895 -2.287599 0.000000000000000e+00 1634890835
3.870838 -1.587685 -2.258543 0.000000000000000e+00 1851878480
3.664763 -1.924298 -2.256608 0.000000000000000e+00 1851878480
3.539814 -2.077571 -2.243001 0.000000000000000e+00 1851878480
3.908908 -1.391319 -2.268654 0.000000000000000e+00 1634890835
3.810689 -1.562305 -2.269282 0.000000000000000e+00 1851878480
3.590984 -1.886315 -2.258139 0.000000000000000e+00 1851878480
3.448007 -2.025252 -2.232017 0.000000000000000e+00 1851878480
3.879144 -1.379352 -2.296682 0.000000000000000e+00 1634890835
3.688388 -1.511471 -2.241231 0.000000000000000e+00 1851878480
3.486279 -1.832059 -2.238346 0.000000000000000e+00 1851878480
3.378063 -1.985718 -2.233453 0.000000000000000e+00 1851878480
3.753933 -1.333489 -2.266799 0.000000000000000e+00 1634890835
3.622512 -1.483791 -2.245605 0.000000000000000e+00 1851878480
3.462318 -1.820217 -2.269166 0.000000000000000e+00 1851878480
3.308668 -1.946459 -2.233812 0.000000000000000e+00 1851878480
3.638968 -1.291339 -2.240681 0.000000000000000e+00 1634890835
3.589188 -1.469455 -2.269373 0.000000000000000e+00 1851878480
3.410324 -1.793627 -2.281075 0.000000000000000e+00 1851878480
3.244313 -1.910123 -2.236197 0.000000000000000e+00 1851878480
3.637916 -1.289643 -2.283744 0.000000000000000e+00 1634890835
3.492442 -1.429168 -2.251864 0.000000000000000e+00 1851878480
3.309593 -1.741378 -2.258804 0.000000000000000e+00 1851878480
3.178055 -1.872617 -2.235923 0.000000000000000e+00 1851878480
3.614878 -1.280148 -2.313146 0.000000000000000e+00 1634890835
3.455246 -1.413274 -2.271518 0.000000000000000e+00 1634890835
3.257989 -1.714953 -2.268470 0.000000000000000e+00 1851878480
3.145303 -1.854827 -2.258315 0.000000000000000e+00 1851878480
3.548385 -1.255284 -2.314088 0.000000000000000e+00 1634890835
3.434948 -1.404293 -2.302006 0.000000000000000e+00 1634890835
3.155797 -1.661872 -2.241277 0.000000000000000e+00 1851878480
3.039084 -1.793663 -2.226456 0.000000000000000e+00 1851878480
3.513314 -1.241563 -2.334723 0.000000000000000e+00 1634890835
3.362594 -1.374043 -2.296881 0.000000000000000e+00 1634890835
3.138292 -1.653369 -2.273057 0.000000000000000e+00 1851878480
3.008089 -1.776847 -2.248219 0.000000000000000e+00 1851878480
3.383510 -1.194413 -2.290803 0.000000000000000e+00 1634890835
3.285183 -1.341750 -2.286829 0.000000000000000e+00 1634890835
3.085961 -1.626512 -2.279132 0.000000000000000e+00 1851878480
2.929142 -1.731670 -2.233035 0.000000000000000e+00 1851878480
3.304161 -1.165136 -2.278868 0.000000000000000e+00 1634890835
3.215141 -1.312488 -2.280449 0.000000000000000e+00 1634890835
3.023400 -1.594244 -2.276524 0.000000000000000e+00 1851878480
2.863638 -1.694387 -2.226465 0.000000000000000e+00 1851878480
3.287166 -1.157875 -2.309175 0.000000000000000e+00 1634890835
3.148163 -1.284498 -2.274902 0.000000000000000e+00 1634890835
2.958647 -1.560799 -2.270941 0.000000000000000e+00 1851878480
2.865656 -1.697041 -2.271970 0.000000000000000e+00 1851878480
3.186727 -1.121252 -2.279815 0.000000000000000e+00 1634890835
3.098364 -1.263534 -2.280686 0.000000000000000e+00 1634890835
2.853718 -1.506127 -2.232554 0.000000000000000e+00 1851878480
2.795131 -1.656722 -2.259455 0.000000000000000e+00 1851878480
3.161271 -1.111047 -2.302934 0.000000000000000e+00 1634890835
3.074178 -1.253025 -2.304810 0.000000000000000e+00 1634890835
2.820675 -1.489373 -2.248888 0.000000000000000e+00 1851878480
2.747543 -1.629953 -2.264199 0.000000000000000e+00 1851878480
3.096840 -1.087167 -2.296954 0.000000000000000e+00 1634890835
2.999648 -1.222007 -2.290331 0.000000000000000e+00 1634890835
2.772486 -1.464608 -2.252460 0.000000000000000e+00 1851878480
0.830193 -0.492945 -0.697376 0.000000000000000e+00 1886740808
3.024067 -1.060399 -2.283443 0.000000000000000e+00 1634890835
2.950103 -1.201187 -2.293710 0.000000000000000e+00 1634890835
2.706948 -1.430661 -2.240746 0.000000000000000e+00 1851878480
0.844968 -0.502172 -0.723433 0.000000000000000e+00 1886740808
2.955042 -1.034989 -2.271337 0.000000000000000e+00 1634890835
2.909761 -1.184128 -2.303492 0.000000000000000e+00 1634890835
0.902654 -0.477293 -0.761227 0.000000000000000e+00 1886740808
0.844244 -0.502202 -0.736634 0.000000000000000e+00 1886740808
2.909250 -1.017749 -2.276016 0.000000000000000e+00 1634890835
2.855436 -1.161387 -2.301372 0.000000000000000e+00 1634890835
0.818469 -0.432988 -0.703126 0.000000000000000e+00 1886740808
0.814237 -0.484803 -0.723967 0.000000000000000e+00 1886740808
2.861553 -0.999866 -2.278409 0.000000000000000e+00 1634890835
2.823176 -1.147636 -2.316315 0.000000000000000e+00 1634890835
0.889216 -0.470645 -0.778103 0.000000000000000e+00 1886740808
0.829809 -0.494539 -0.751781 0.000000000000000e+00 1886740808
2.828871 -0.987250 -2.292140 0.000000000000000e+00 1634890835
2.752545 -1.118300 -2.298804 0.000000000000000e+00 1634890835
0.848046 -0.449078 -0.755810 0.000000000000000e+00 1886740808
0.755137 -0.450468 -0.697027 0.000000000000000e+00 1886740808
2.779438 -0.968806 -2.291648 0.000000000000000e+00 1634890835
0.830270 -0.337131 -0.705766 0.000000000000000e+00 1886740808
0.752482 -0.398673 -0.682997 0.000000000000000e+00 1886740808
0.784524 -0.468452 -0.737748 0.000000000000000e+00 1886740808
0.832036 -0.289654 -0.698012 0.000000000000000e+00 1886740808
0.826305 -0.335328 -0.714863 0.000000000000000e+00 1886740808
0.802496 -0.425387 -0.741763 0.000000000000000e+00 1886740808
0.743327 -0.444289 -0.712082 0.000000000000000e+00 1886740808
0.839122 -0.291753 -0.716219 0.000000000000000e+00 1886740808
0.839601 -0.340526 -0.739209 0.000000000000000e+00 1886740808
0.792562 -0.420339 -0.745980 0.000000000000000e+00 1886740808
0.748554 -0.447859 -0.730457 0.000000000000000e+00 1886740808
0.814121 -0.282698 -0.706938 0.000000000000000e+00 1886740808
0.777514 -0.315159 -0.696605 0.000000000000000e+00 1886740808
0.774253 -0.410844 -0.742032 0.000000000000000e+00 1886740808
0.747590 -0.447735 -0.743075 0.000000000000000e+00 1886740808
0.813203 -0.282011 -0.718353 0.000000000000000e+00 1886740808
0.790748 -0.320332 -0.720903 0.000000000000000e+00 1886740808
0.749148 -0.397735 -0.731024 0.000000000000000e+00 1886740808
0.723737 -0.433895 -0.732700 0.000000000000000e+00 1886740808
0.785091 -0.271904 -0.705476 0.000000000000000e+00 1886740808
0.805974 -0.326301 -0.747648 0.000000000000000e+00 1886740808
0.765788 -0.406789 -0.760810 0.000000000000000e+00 1886740808
0.754225 -0.452644 -0.777685 0.000000000000000e+00 1886740808
0.793576 -0.274473 -0.725358 0.000000000000000e+00 1886740808
0.773057 -0.312782 -0.729634 0.000000000000000e+00 1886740808
0.743065 -0.394935 -0.751589 0.000000000000000e+00 1886740808
0.744428 -0.447238 -0.781749 0.000000000000000e+00 1886740808
0.760169 -0.262561 -0.706735 0.000000000000000e+00 1886740808
0.780555 -0.315618 -0.749544 0.000000000000000e+00 1886740808
0.783199 -0.416499 -0.806487 0.000000000000000e+00 1886740808
0.771342 -0.463906 -0.824936 0.000000000000000e+00 1886740808
0.753353 -0.259847 -0.712380 0.000000000000000e+00 1886740808
0.743210 -0.300327 -0.726089 0.000000000000000e+00 1886740808
0.766459 -0.407828 -0.803476 0.000000000000000e+00 1886740808
2.087952 -1.257125 -2.274108 0.000000000000000e+00 1634890835
0.759623 -0.261641 -0.730573 0.000000000000000e+00 1886740808
0.748626 -0.302320 -0.744072 0.000000000000000e+00 1886740808
0.760707 -0.405001 -0.811802 0.000000000000000e+00 1886740808
2.079890 -1.253662 -2.306962 0.000000000000000e+00 1634890835
0.750378 -0.258088 -0.733983 0.000000000000000e+00 1886740808
0.764899 -0.308688 -0.773420 0.000000000000000e+00 1886740808
2.155082 -1.148037 -2.341197 0.000000000000000e+00 1634890835
2.017693 -1.217548 -2.279079 0.000000000000000e+00 1634890835
0.758586 -0.260532 -0.754641 0.000000000000000e+00 1886740808
0.786180 -0.317065 -0.808696 0.000000000000000e+00 1886740808
2.083466 -1.110548 -2.304075 0.000000000000000e+00 1634890835
0.832199 -0.502756 -0.957265 0.000000000000000e+00 1886740808
0.729043 -0.250016 -0.737583 0.000000000000000e+00 1886740808
0.746877 -0.301010 -0.781552 0.000000000000000e+00 1886740808
2.029757 -1.082575 -2.285008 0.000000000000000e+00 1634890835
0.790811 -0.478312 -0.926357 0.000000000000000e+00 1886740808
0.768699 -0.263219 -0.790916 0.000000000000000e+00 1886740808
0.743159 -0.299304 -0.791101 0.000000000000000e+00 1886740808
2.047089 -1.092491 -2.345922 0.000000000000000e+00 1634890835
0.769008 -0.465677 -0.917358 0.000000000000000e+00 1886740808
0.762514 -0.260702 -0.797874 0.000000000000000e+00 1886740808
2.118246 -0.852515 -2.293860 0.000000000000000e+00 1634890835
0.803678 -0.429177 -0.937550 0.000000000000000e+00 1886740808
0.791617 -0.479949 -0.961679 0.000000000000000e+00 1886740808
0.763684 -0.260695 -0.812664 0.000000000000000e+00 1886740808
2.100045 -0.844586 -2.313445 0.000000000000000e+00 1634890835
0.813079 -0.434475 -0.965574 0.000000000000000e+00 1886740808
0.823072 -0.499637 -1.018281 0.000000000000000e+00 1886740808
0.759090 -0.258716 -0.821489 0.000000000000000e+00 1886740808
2.054752 -0.825768 -2.302673 0.000000000000000e+00 1634890835
0.829773 -0.443683 -1.003134 0.000000000000000e+00 1886740808
1.842395 -1.119810 -2.321330 0.000000000000000e+00 1634890835
2.083601 -0.708994 -2.293177 0.000000000000000e+00 1634890835
2.009591 -0.807019 -2.291013 0.000000000000000e+00 1634890835
0.817888 -0.437619 -1.006585 0.000000000000000e+00 1886740808
1.772126 -1.078480 -2.273973 0.000000000000000e+00 1634890835
2.030679 -0.689848 -2.272914 0.000000000000000e+00 1634890835
1.991541 -0.799166 -2.309741 0.000000000000000e+00 1634890835
0.788823 -0.422352 -0.988336 0.000000000000000e+00 1886740808
0.784655 -0.478149 -1.025466 0.000000000000000e+00 1886740808
2.009044 -0.681352 -2.286953 0.000000000000000e+00 1634890835
1.960714 -0.786190 -2.313404 0.000000000000000e+00 1634890835
0.816478 -0.437459 -1.041484 0.000000000000000e+00 1886740808
1.705613 -1.040740 -2.270348 0.000000000000000e+00 1634890835
1.941898 -0.657452 -2.248168 0.000000000000000e+00 1634890835
0.825451 -0.330723 -0.990839 0.000000000000000e+00 1886740808
1.764889 -0.946273 -2.292061 0.000000000000000e+00 1634890835
1.728992 -1.056439 -2.344201 0.000000000000000e+00 1634890835
1.961923 -0.663072 -2.310097 0.000000000000000e+00 1634890835
0.823980 -0.329868 -1.006274 0.000000000000000e+00 1886740808
0.759235 -0.407367 -1.003932 0.000000000000000e+00 1886740808
1.701008 -1.040780 -2.349205 0.000000000000000e+00 1634890835
1.861256 -0.627930 -2.229019 0.000000000000000e+00 1634890835
0.777903 -0.311168 -0.966562 0.000000000000000e+00 1886740808
1.722385 -0.924817 -2.318993 0.000000000000000e+00 1634890835
1.638593 -1.004009 -2.305284 0.000000000000000e+00 1634890835
0.781012 -0.263009 -0.951350 0.000000000000000e+00 1886740808
0.783198 -0.313024 -0.990143 0.000000000000000e+00 1886740808
1.698731 -0.912798 -2.328951 0.000000000000000e+00 1634890835
1.584477 -0.972252 -2.270945 0.000000000000000e+00 1634890835
0.804604 -0.270451 -0.996913 0.000000000000000e+00 1886740808
0.771848 -0.308225 -0.992889 0.000000000000000e+00 1886740808
1.660848 -0.893121 -2.318778 0.000000000000000e+00 1634890835
1.555079 -0.955622 -2.270763 0.000000000000000e+00 1634890835
0.803237 -0.269479 -1.012351 0.000000000000000e+00 1886740808
0.769983 -0.307213 -1.007895 0.000000000000000e+00 1886740808
1.639869 -0.882527 -2.331642 0.000000000000000e+00 1634890835
1.546149 -0.951565 -2.300400 0.000000000000000e+00 1634890835
0.778173 -0.260564 -0.997696 0.000000000000000e+00 1886740808
1.746845 -0.696348 -2.326912 0.000000000000000e+00 1634890835
1.596849 -0.860057 -2.312452 0.000000000000000e+00 1634890835
1.530502 -0.943387 -2.320366 0.000000000000000e+00 1634890835
0.780679 -0.260885 -1.018249 0.000000000000000e+00 1886740808
1.714118 -0.682682 -2.323724 0.000000000000000e+00 1634890835
1.562583 -0.842285 -2.304855 0.000000000000000e+00 1634890835
1.500306 -0.926232 -2.317997 0.000000000000000e+00 1634890835
0.792332 -0.264241 -1.051415 0.000000000000000e+00 1886740808
0.776784 -0.309082 -1.071748 0.000000000000000e+00 1886740808
1.547380 -0.834784 -2.325024 0.000000000000000e+00 1634890835
1.474164 -0.911559 -2.321305 0.000000000000000e+00 1634890835
1.689870 -0.562399 -2.281579 0.000000000000000e+00 1634890835
1.623890 -0.645532 -2.280506 0.000000000000000e+00 1634890835
1.500212 -0.810026 -2.296438 0.000000000000000e+00 1634890835
1.444569 -0.894733 -2.318598 0.000000000000000e+00 1634890835
0.732346 -0.243211 -1.006109 0.000000000000000e+00 1886740808
1.599601 -0.635258 -2.286667 0.000000000000000e+00 1634890835
1.479052 -0.799298 -2.306753 0.000000000000000e+00 1634890835
1.402206 -0.869962 -2.294293 0.000000000000000e+00 1634890835
1.623570 -0.538012 -2.269762 0.000000000000000e+00 1634890835
1.593461 -0.632188 -2.318927 0.000000000000000e+00 1634890835
1.468628 -0.794371 -2.333953 0.000000000000000e+00 1634890835
1.365656 -0.848752 -2.278146 0.000000000000000e+00 1634890835
1.602634 -0.529891 -2.280138 0.000000000000000e+00 1634890835
1.549850 -0.614259 -2.296312 0.000000000000000e+00 1634890835
1.419923 -0.768729 -2.299633 0.000000000000000e+00 1634890835
1.356600 -0.844618 -2.307554 0.000000000000000e+00 1634890835
1.551847 -0.511927 -2.247152 0.000000000000000e+00 1634890835
1.528037 -0.604981 -2.305227 0.000000000000000e+00 1634890835
1.416172 -0.767415 -2.337634 0.000000000000000e+00 1634890835
1.334488 -0.832363 -2.314913 0.000000000000000e+00 1634890835
1.557384 -0.512548 -2.295500 0.000000000000000e+00 1634890835
1.483575 -0.586747 -2.279158 0.000000000000000e+00 1634890835
1.370026 -0.743123 -2.305227 0.000000000000000e+00 1634890835
1.290190 -0.806233 -2.282742 0.000000000000000e+00 1634890835
1.561197 -0.512567 -2.342513 0.000000000000000e+00 1634890835
1.449474 -0.572629 -2.267823 0.000000000000000e+00 1634890835
1.345496 -0.730536 -2.308085 0.000000000000000e+00 1634890835
1.294088 -0.810217 -2.335706 0.000000000000000e+00 1634890835
1.488166 -0.487381 -2.273346 0.000000000000000e+00 1634890835
1.470109 -0.580126 -2.342795 0.000000000000000e+00 1634890835
1.333417 -0.724709 -2.332296 0.000000000000000e+00 1634890835
1.241394 -0.778754 -2.286052 0.000000000000000e+00 1634890835
1.497995 -0.489357 -2.330049 0.000000000000000e+00 1634890835
1.431369 -0.564185 -2.323688 0.000000000000000e+00 1634890835
1.308672 -0.711999 -2.334343 0.000000000000000e+00 1634890835
1.246834 -0.783747 -2.343059 0.000000000000000e+00 1634890835
1.432347 -0.466692 -2.268798 0.000000000000000e+00 1634890835
1.383118 -0.544517 -2.287626 0.000000000000000e+00 1634890835
1.275411 -0.694643 -2.320446 0.000000000000000e+00 1634890835
1.175442 -0.740402 -2.254513 0.000000000000000e+00 1634890835
1.418202 -0.460844 -2.287890 0.000000000000000e+00 1634890835
1.387021 -0.545385 -2.337602 0.000000000000000e+00 1634890835
1.234707 -0.673210 -2.291652 0.000000000000000e+00 1634890835
1.163440 -0.734406 -2.278020 0.000000000000000e+00 1634890835
1.405710 -0.455526 -2.309943 0.000000000000000e+00 1634890835
1.345789 -0.528507 -2.311483 0.000000000000000e+00 1634890835
1.225811 -0.669115 -2.321405 0.000000000000000e+00 1634890835
1.153860 -0.729960 -2.306839 0.000000000000000e+00 1634890835
1.385411 -0.447674 -2.319290 0.000000000000000e+00 1634890835
1.343216 -0.526813 -2.351553 0.000000000000000e+00 1634890835
1.180979 -0.645390 -2.282422 0.000000000000000e+00 1634890835
1.117508 -0.708561 -2.281699 0.000000000000000e+00 1634890835
1.337056 -0.430784 -2.280673 0.000000000000000e+00 1634890835
1.287707 -0.504369 -2.298230 0.000000000000000e+00 1634890835
1.172633 -0.641597 -2.313297 0.000000000000000e+00 1634890835
1.134182 -0.720807 -2.365553 0.000000000000000e+00 1634890835
1.315939 -0.422704 -2.287470 0.000000000000000e+00 1634890835
1.268977 -0.496350 -2.309265 0.000000000000000e+00 1634890835
1.145157 -0.627334 -2.306440 0.000000000000000e+00 1634890835
1.083099 -0.689996 -2.308150 0.000000000000000e+00 1634890835
1.321386 -0.423135 -2.341146 0.000000000000000e+00 1634890835
1.234129 -0.482036 -2.290361 0.000000000000000e+00 1634890835
1.115696 -0.611970 -2.294712 0.000000000000000e+00 1634890835
1.042622 -0.665854 -2.270791 0.000000000000000e+00 1634890835
1.263270 -0.403228 -2.281658 0.000000000000000e+00 1634890835
1.233736 -0.481179 -2.335464 0.000000000000000e+00 1634890835
1.107083 -0.608042 -2.325794 0.000000000000000e+00 1634890835
1.034527 -0.662372 -2.303357 0.000000000000000e+00 1634890835
1.241519 -0.394975 -2.286356 0.000000000000000e+00 1634890835
1.198444 -0.466711 -2.314541 0.000000000000000e+00 1634890835
1.092347 -0.600760 -2.344597 0.000000000000000e+00 1634890835
1.005829 -0.645698 -2.289993 0.000000000000000e+00 1634890835
1.227127 -0.389060 -2.304626 0.000000000000000e+00 1634890835
1.159644 -0.450899 -2.285392 0.000000000000000e+00 1634890835
1.093493 -0.602230 -2.398577 0.000000000000000e+00 1634890835
0.986941 -0.635301 -2.298361 0.000000000000000e+00 1634890835
1.194160 -0.377268 -2.287616 0.000000000000000e+00 1634890835
1.140451 -0.442723 -2.294029 0.000000000000000e+00 1634890835
1.030661 -0.568443 -2.311016 0.000000000000000e+00 1634890835
0.961314 -0.620552 -2.290571 0.000000000000000e+00 1634890835
1.149820 -0.361931 -2.247259 0.000000000000000e+00 1634890835
1.123610 -0.435461 -2.307420 0.000000000000000e+00 1634890835
1.013461 -0.559793 -2.323648 0.000000000000000e+00 1634890835
0.941477 -0.609520 -2.296043 0.000000000000000e+00 1634890835
1.149230 -0.360374 -2.292084 0.000000000000000e+00 1634890835
1.108961 -0.429043 -2.325539 0.000000000000000e+00 1634890835
0.976291 -0.540094 -2.289550 0.000000000000000e+00 1634890835
0.929339 -0.603481 -2.320515 0.000000000000000e+00 1634890835
1.125768 -0.351631 -2.291795 0.000000000000000e+00 1634890835
1.074706 -0.415050 -2.302005 0.000000000000000e+00 1634890835
0.968898 -0.536862 -2.324852 0.000000000000000e+00 1634890835
0.895201 -0.583136 -2.289426 0.000000000000000e+00 1634890835
1.089361 -0.338873 -2.264172 0.000000000000000e+00 1634890835
1.045109 -0.402873 -2.287209 0.000000000000000e+00 1634890835
0.943477 -0.523645 -2.317086 0.000000000000000e+00 1634890835
0.873554 -0.570885 -2.289053 0.000000000000000e+00 1634890835
1.076412 -0.333429 -2.284756 0.000000000000000e+00 1634890835
1.018348 -0.391805 -2.277678 0.000000000000000e+00 1634890835
0.925195 -0.514383 -2.326434 0.000000000000000e+00 1634890835
0.876135 -0.574505 -2.353265 0.000000000000000e+00 1634890835
1.057221 -0.326046 -2.292288 0.000000000000000e+00 1634890835
1.017141 -0.390562 -2.325735 0.000000000000000e+00 1634890835
0.924643 -0.514994 -2.381443 0.000000000000000e+00 1634890835
0.823685 -0.542008 -2.268697 0.000000000000000e+00 1634890835
1.056281 -0.324268 -2.340182 0.000000000000000e+00 1634890835
1.000817 -0.383499 -2.340202 0.000000000000000e+00 1634890835
0.879431 -0.490723 -2.320851 0.000000000000000e+00 1634890835
0.455764 -0.301000 -1.287845 0.000000000000000e+00 1936876886
1.024056 -0.312880 -2.318948 0.000000000000000e+00 1634890835
0.959255 -0.366783 -2.294546 0.000000000000000e+00 1634890835
0.858873 -0.480179 -2.323451 0.000000000000000e+00 1634890835
0.428784 -0.284258 -1.243580 0.000000000000000e+00 1936876886
0.992813 -0.301832 -2.298629 0.000000000000000e+00 1634890835
0.950012 -0.362436 -2.325454 0.000000000000000e+00 1634890835
0.829859 -0.464892 -2.302274 0.000000000000000e+00 1634890835
0.425449 -0.283164 -1.267093 0.000000000000000e+00 1936876886
0.954091 -0.288560 -2.259276 0.000000000000000e+00 1634890835
0.921180 -0.350615 -2.308332 0.000000000000000e+00 1634890835
0.449405 -0.252288 -1.279202 0.000000000000000e+00 1936876886
0.350924 -0.234528 -1.073810 0.000000000000000e+00 1953264973
0.937851 -0.282118 -2.272180 0.000000000000000e+00 1634890835
0.910815 -0.345826 -2.337363 0.000000000000000e+00 1634890835
0.444856 -0.250282 -1.299811 0.000000000000000e+00 1936876886
0.298404 -0.200289 -0.938667 0.000000000000000e+00 1953264973
0.514226 -0.153813 -1.275119 0.000000000000000e+00 1936876886
0.860298 -0.325816 -2.261851 0.000000000000000e+00 1634890835
0.364280 -0.205417 -1.093144 0.000000000000000e+00 1953264973
0.274303 -0.184942 -0.887529 0.000000000000000e+00 1953264973
0.481726 -0.143241 -1.223072 0.000000000000000e+00 1936876886
0.863798 -0.326271 -2.327725 0.000000000000000e+00 1634890835
0.337062 -0.190524 -1.039365 0.000000000000000e+00 1953264973
0.270861 -0.183484 -0.902016 0.000000000000000e+00 1953264973
0.473932 -0.140052 -1.232535 0.000000000000000e+00 1936876886
0.822083 -0.309651 -2.271621 0.000000000000000e+00 1634890835
0.308424 -0.174773 -0.977850 0.000000000000000e+00 1953264973
0.252729 -0.172050 -0.866813 0.000000000000000e+00 1953264973
