# .PCD v0.7 - Point Cloud Data file format
VERSION 0.7
FIELDS x y z rgb label
SIZE 4 4 4 4 4
TYPE F F F F U
COUNT 1 1 1 1 1
WIDTH 532
HEIGHT 1
VIEWPOINT 0 0 0 1 0 0 0
POINTS 532
DATA ascii
34.444096 -17.586042 9.972549 0.000000000000000e+00 1954047316
33.675205 -18.734434 10.284488 0.000000000000000e+00 1954047316
33.669483 -18.742992 9.916750 0.000000000000000e+00 1954047316
30.852026 -11.461605 -2.240438 0.000000000000000e+00 1851878480
31.943274 -13.357058 -2.246379 0.000000000000000e+00 1851878480
26.946629 -10.003132 -2.201853 0.000000000000000e+00 1851878480
26.731884 -11.173986 -2.130394 0.000000000000000e+00 1851878480
26.064861 -13.458990 -1.930088 0.000000000000000e+00 1851878480
25.500109 -14.495148 -1.793394 0.000000000000000e+00 1851878480
24.250521 -8.995442 -2.202291 0.000000000000000e+00 1851878480
24.332247 -10.167359 -2.167430 0.000000000000000e+00 1851878480
23.623934 -12.202354 -1.985728 0.000000000000000e+00 1851878480
23.072191 -13.122801 -1.861591 0.000000000000000e+00 1851878480
22.091816 -8.188456 -2.207578 0.000000000000000e+00 1851878480
22.171741 -9.261333 -2.183250 0.000000000000000e+00 1851878480
21.678934 -11.201199 -2.039486 0.000000000000000e+00 1851878480
21.271875 -12.105991 -1.936984 0.000000000000000e+00 1851878480
20.381844 -7.548887 -2.222695 0.000000000000000e+00 1851878480
20.381186 -8.510397 -2.198654 0.000000000000000e+00 1851878480
20.358900 -10.522417 -2.119650 0.000000000000000e+00 1851878480
19.919537 -11.343093 -2.020830 0.000000000000000e+00 1851878480
18.913145 -6.999568 -2.235376 0.000000000000000e+00 1851878480
18.869507 -7.876400 -2.213362 0.000000000000000e+00 1851878480
19.025747 -9.836451 -2.172163 0.000000000000000e+00 1851878480
18.834801 -10.731759 -2.106880 0.000000000000000e+00 1851878480
17.577660 -6.500333 -2.238437 0.000000000000000e+00 1851878480
17.600906 -7.344270 -2.230675 0.000000000000000e+00 1851878480
17.712839 -9.160523 -2.200729 0.000000000000000e+00 1851878480
17.843178 -10.172802 -2.182117 0.000000000000000e+00 1851878480
16.396889 -6.059026 -2.238437 0.000000000000000e+00 1851878480
16.435865 -6.855715 -2.238438 0.000000000000000e+00 1851878480
16.482136 -8.526710 -2.214235 0.000000000000000e+00 1851878480
16.615969 -9.478793 -2.205786 0.000000000000000e+00 1851878480
15.362922 -5.672592 -2.238438 0.000000000000000e+00 1851878480
15.366795 -6.407504 -2.238437 0.000000000000000e+00 1851878480
15.446318 -7.993351 -2.231390 0.000000000000000e+00 1851878480
15.541132 -8.870939 -2.225999 0.000000000000000e+00 1851878480
14.449845 -5.331329 -2.238437 0.000000000000000e+00 1851878480
14.426387 -6.013242 -2.238438 0.000000000000000e+00 1851878480
14.453094 -7.481716 -2.234518 0.000000000000000e+00 1851878480
14.502235 -8.282892 -2.229595 0.000000000000000e+00 1851878480
13.637503 -5.027728 -2.238437 0.000000000000000e+00 1851878480
13.592604 -5.663687 -2.238437 0.000000000000000e+00 1851878480
13.577430 -7.030641 -2.237221 0.000000000000000e+00 1851878480
13.588254 -7.765538 -2.232265 0.000000000000000e+00 1851878480
12.910006 -4.755835 -2.238438 0.000000000000000e+00 1851878480
12.848190 -5.351592 -2.238439 0.000000000000000e+00 1851878480
12.793027 -6.626554 -2.238438 0.000000000000000e+00 1851878480
12.784112 -7.310380 -2.235266 0.000000000000000e+00 1851878480
12.254606 -4.510887 -2.238438 0.000000000000000e+00 1851878480
12.179388 -5.071207 -2.238438 0.000000000000000e+00 1851878480
12.086507 -6.262574 -2.238438 0.000000000000000e+00 1851878480
12.068107 -6.905121 -2.238006 0.000000000000000e+00 1851878480
11.661045 -4.289053 -2.238439 0.000000000000000e+00 1851878480
11.575184 -4.817896 -2.238437 0.000000000000000e+00 1851878480
11.452117 -5.935750 -2.238438 0.000000000000000e+00 1851878480
11.415784 -6.535826 -2.238437 0.000000000000000e+00 1851878480
11.120871 -4.087170 -2.238438 0.000000000000000e+00 1851878480
11.026563 -4.587886 -2.238438 0.000000000000000e+00 1851878480
10.879251 -5.640619 -2.238438 0.000000000000000e+00 1851878480
10.826599 -6.202271 -2.238438 0.000000000000000e+00 1851878480
10.627123 -3.902642 -2.238437 0.000000000000000e+00 1851878480
10.526115 -4.378078 -2.238438 0.000000000000000e+00 1851878480
10.359295 -5.372750 -2.238438 0.000000000000000e+00 1851878480
10.293449 -5.900441 -2.238438 0.000000000000000e+00 1851878480
10.173991 -3.733298 -2.238438 0.000000000000000e+00 1851878480
10.067682 -4.185882 -2.238438 0.000000000000000e+00 1851878480
9.885149 -5.128490 -2.238438 0.000000000000000e+00 1851878480
9.808615 -5.625965 -2.238438 0.000000000000000e+00 1851878480
9.756622 -3.577317 -2.238437 0.000000000000000e+00 1851878480
9.646153 -4.009161 -2.238438 0.000000000000000e+00 1851878480
9.450989 -4.904820 -2.238439 0.000000000000000e+00 1851878480
9.365772 -5.375263 -2.238438 0.000000000000000e+00 1851878480
9.370877 -3.433158 -2.238438 0.000000000000000e+00 1851878480
9.257171 -3.846085 -2.238437 0.000000000000000e+00 1851878480
9.051875 -4.699209 -2.238438 0.000000000000000e+00 1851878480
8.959616 -5.145333 -2.238438 0.000000000000000e+00 1851878480
9.013248 -3.299504 -2.238437 0.000000000000000e+00 1851878480
8.897068 -3.695114 -2.238438 0.000000000000000e+00 1851878480
8.683688 -4.509528 -2.238437 0.000000000000000e+00 1851878480
8.585713 -4.933658 -2.238437 0.000000000000000e+00 1851878480
8.680714 -3.175236 -2.238438 0.000000000000000e+00 1851878480
8.562682 -3.554927 -2.238438 0.000000000000000e+00 1851878480
8.342909 -4.333970 -2.238437 0.000000000000000e+00 1851878480
8.240314 -4.738126 -2.238437 0.000000000000000e+00 1851878480
8.370685 -3.059377 -2.238438 0.000000000000000e+00 1851878480
8.251313 -3.424389 -2.238438 0.000000000000000e+00 1851878480
8.026540 -4.170989 -2.238438 0.000000000000000e+00 1851878480
7.920234 -4.556930 -2.238438 0.000000000000000e+00 1851878480
8.080902 -2.951083 -2.238438 0.000000000000000e+00 1851878480
7.960613 -3.302520 -2.238438 0.000000000000000e+00 1851878480
7.732001 -4.019248 -2.238438 0.000000000000000e+00 1851878480
7.622732 -4.388512 -2.238438 0.000000000000000e+00 1851878480
7.809419 -2.849625 -2.238438 0.000000000000000e+00 1851878480
7.688568 -3.188470 -2.238438 0.000000000000000e+00 1851878480
7.457072 -3.877616 -2.238438 0.000000000000000e+00 1851878480
7.345471 -4.231554 -2.238438 0.000000000000000e+00 1851878480
7.554513 -2.754369 -2.238438 0.000000000000000e+00 1851878480
7.433393 -3.081490 -2.238438 0.000000000000000e+00 1851878480
7.199821 -3.745090 -2.238438 0.000000000000000e+00 1851878480
7.086406 -4.084903 -2.238437 0.000000000000000e+00 1851878480
7.314678 -2.664744 -2.238438 0.000000000000000e+00 1851878480
7.193531 -2.980934 -2.238438 0.000000000000000e+00 1851878480
6.958558 -3.620798 -2.238437 0.000000000000000e+00 1851878480
6.843771 -3.947546 -2.238437 0.000000000000000e+00 1851878480
7.088574 -2.580256 -2.238438 0.000000000000000e+00 1851878480
6.967603 -2.886217 -2.238438 0.000000000000000e+00 1851878480
6.731795 -3.503978 -2.238438 0.000000000000000e+00 1851878480
6.616005 -3.818612 -2.238438 0.000000000000000e+00 1851878480
6.875039 -2.500459 -2.238437 0.000000000000000e+00 1851878480
6.754414 -2.796840 -2.238438 0.000000000000000e+00 1851878480
6.518244 -3.393964 -2.238437 0.000000000000000e+00 1851878480
6.401760 -3.697335 -2.238438 0.000000000000000e+00 1851878480
6.673019 -2.424968 -2.238438 0.000000000000000e+00 1851878480
6.552877 -2.712351 -2.238438 0.000000000000000e+00 1851878480
6.316743 -3.290163 -2.238437 0.000000000000000e+00 1851878480
6.199832 -3.583027 -2.238438 0.000000000000000e+00 1851878480
6.481579 -2.353432 -2.238438 0.000000000000000e+00 1851878480
6.362037 -2.632344 -2.238438 0.000000000000000e+00 1851878480
6.126279 -3.192042 -2.238438 0.000000000000000e+00 1851878480
6.009158 -3.475095 -2.238437 0.000000000000000e+00 1851878480
6.299882 -2.285539 -2.238438 0.000000000000000e+00 1851878480
6.181036 -2.556465 -2.238437 0.000000000000000e+00 1851878480
5.945934 -3.099137 -2.238438 0.000000000000000e+00 1851878480
5.828794 -3.372997 -2.238437 0.000000000000000e+00 1851878480
6.127177 -2.221004 -2.238438 0.000000000000000e+00 1851878480
6.009107 -2.484384 -2.238437 0.000000000000000e+00 1851878480
5.774898 -3.011025 -2.238438 0.000000000000000e+00 1851878480
5.657898 -3.276261 -2.238438 0.000000000000000e+00 1851878480
5.962794 -2.159581 -2.238438 0.000000000000000e+00 1851878480
5.845565 -2.415825 -2.238437 0.000000000000000e+00 1851878480
5.612448 -2.927339 -2.238437 0.000000000000000e+00 1851878480
5.495727 -3.184460 -2.238438 0.000000000000000e+00 1851878480
5.806119 -2.101040 -2.238438 0.000000000000000e+00 1851878480
5.689785 -2.350520 -2.238437 0.000000000000000e+00 1851878480
5.457928 -2.847737 -2.238437 0.000000000000000e+00 1851878480
5.341594 -3.097216 -2.238437 0.000000000000000e+00 1851878480
5.656604 -2.045173 -2.238437 0.000000000000000e+00 1851878480
5.541207 -2.288232 -2.238438 0.000000000000000e+00 1851878480
5.310749 -2.771917 -2.238437 0.000000000000000e+00 1851878480
5.194903 -3.014181 -2.238438 0.000000000000000e+00 1851878480
5.513749 -1.991797 -2.238438 0.000000000000000e+00 1851878480
5.399322 -2.228749 -2.238437 0.000000000000000e+00 1851878480
5.170379 -2.699605 -2.238437 0.000000000000000e+00 1851878480
5.055099 -2.935050 -2.238438 0.000000000000000e+00 1851878480
5.377092 -1.940738 -2.238438 0.000000000000000e+00 1851878480
5.263663 -2.171881 -2.238438 0.000000000000000e+00 1851878480
5.036330 -2.630551 -2.238437 0.000000000000000e+00 1851878480
4.921688 -2.859535 -2.238437 0.000000000000000e+00 1851878480
5.246228 -1.891842 -2.238437 0.000000000000000e+00 1851878480
5.133817 -2.117446 -2.238437 0.000000000000000e+00 1851878480
4.908173 -2.564531 -2.238437 0.000000000000000e+00 1851878480
4.794224 -2.787389 -2.238438 0.000000000000000e+00 1851878480
5.120776 -1.844970 -2.238437 0.000000000000000e+00 1851878480
5.009398 -2.065289 -2.238438 0.000000000000000e+00 1851878480
4.785507 -2.501341 -2.238438 0.000000000000000e+00 1851878480
4.672302 -2.718376 -2.238437 0.000000000000000e+00 1851878480
5.000389 -1.799992 -2.238438 0.000000000000000e+00 1851878480
4.890055 -2.015258 -2.238437 0.000000000000000e+00 1851878480
4.667968 -2.440787 -2.238437 0.000000000000000e+00 1851878480
4.555544 -2.652292 -2.238438 0.000000000000000e+00 1851878480
4.884748 -1.756789 -2.238437 0.000000000000000e+00 1851878480
4.775466 -1.967222 -2.238438 0.000000000000000e+00 1851878480
4.555223 -2.382709 -2.238437 0.000000000000000e+00 1851878480
4.443616 -2.588939 -2.238438 0.000000000000000e+00 1851878480
4.773564 -1.715247 -2.238437 0.000000000000000e+00 1851878480
4.665335 -1.921054 -2.238438 0.000000000000000e+00 1851878480
4.446967 -2.326941 -2.238438 0.000000000000000e+00 1851878480
4.336200 -2.528142 -2.238437 0.000000000000000e+00 1851878480
4.666571 -1.675275 -2.238438 0.000000000000000e+00 1851878480
4.559396 -1.876642 -2.238438 0.000000000000000e+00 1851878480
4.342923 -2.273346 -2.238437 0.000000000000000e+00 1851878480
4.233023 -2.469745 -2.238438 0.000000000000000e+00 1851878480
4.563518 -1.636774 -2.238438 0.000000000000000e+00 1851878480
4.457395 -1.833883 -2.238437 0.000000000000000e+00 1851878480
4.242837 -2.221787 -2.238438 0.000000000000000e+00 1851878480
4.133818 -2.413597 -2.238437 0.000000000000000e+00 1851878480
4.464176 -1.599664 -2.238438 0.000000000000000e+00 1851878480
4.359104 -1.792678 -2.238437 0.000000000000000e+00 1851878480
4.146471 -2.172143 -2.238438 0.000000000000000e+00 1851878480
4.038344 -2.359562 -2.238438 0.000000000000000e+00 1851878480
4.368337 -1.563859 -2.238438 0.000000000000000e+00 1851878480
4.264308 -1.752938 -2.238438 0.000000000000000e+00 1851878480
4.053600 -2.124303 -2.238437 0.000000000000000e+00 1851878480
3.946381 -2.307512 -2.238438 0.000000000000000e+00 1851878480
4.275805 -1.529293 -2.238437 0.000000000000000e+00 1851878480
4.172813 -1.714584 -2.238438 0.000000000000000e+00 1851878480
3.964035 -2.078166 -2.238438 0.000000000000000e+00 1851878480
3.857725 -2.257339 -2.238437 0.000000000000000e+00 1851878480
4.186400 -1.495892 -2.238437 0.000000000000000e+00 1851878480
4.084437 -1.677535 -2.238438 0.000000000000000e+00 1851878480
3.877584 -2.033632 -2.238437 0.000000000000000e+00 1851878480
3.772190 -2.208929 -2.238437 0.000000000000000e+00 1851878480
4.099953 -1.463600 -2.238437 0.000000000000000e+00 1851878480
3.999008 -1.641725 -2.238437 0.000000000000000e+00 1851878480
3.794075 -1.990615 -2.238437 0.000000000000000e+00 1851878480
3.689598 -2.162189 -2.238438 0.000000000000000e+00 1851878480
4.088588 -1.458132 -2.278722 0.000000000000000e+00 1634890835
3.916371 -1.607084 -2.238438 0.000000000000000e+00 1851878480
3.713348 -1.949030 -2.238438 0.000000000000000e+00 1851878480
3.609789 -2.117021 -2.238437 0.000000000000000e+00 1851878480
4.006140 -1.427334 -2.278722 0.000000000000000e+00 1634890835
3.836379 -1.573551 -2.238437 0.000000000000000e+00 1851878480
3.635252 -1.908803 -2.238437 0.000000000000000e+00 1851878480
3.532611 -2.073344 -2.238437 0.000000000000000e+00 1851878480
3.926255 -1.397493 -2.278722 0.000000000000000e+00 1634890835
3.758893 -1.541070 -2.238438 0.000000000000000e+00 1851878480
3.559653 -1.869856 -2.238437 0.000000000000000e+00 1851878480
3.457925 -2.031077 -2.238437 0.000000000000000e+00 1851878480
3.848809 -1.368565 -2.278722 0.000000000000000e+00 1634890835
3.683790 -1.509587 -2.238437 0.000000000000000e+00 1851878480
3.486421 -1.832134 -2.238437 0.000000000000000e+00 1851878480
3.385602 -1.990149 -2.238437 0.000000000000000e+00 1851878480
3.773677 -1.340503 -2.278722 0.000000000000000e+00 1634890835
3.610950 -1.479054 -2.238437 0.000000000000000e+00 1851878480
3.415432 -1.795568 -2.238437 0.000000000000000e+00 1851878480
3.315518 -1.950489 -2.238437 0.000000000000000e+00 1851878480
3.700749 -1.313263 -2.278722 0.000000000000000e+00 1634890835
3.346578 -1.760101 -2.238437 0.000000000000000e+00 1851878480
3.247563 -1.912036 -2.238437 0.000000000000000e+00 1851878480
3.629916 -1.286807 -2.278722 0.000000000000000e+00 1634890835
3.534096 -1.446214 -2.278722 0.000000000000000e+00 1634890835
3.279752 -1.725677 -2.238438 0.000000000000000e+00 1851878480
3.181629 -1.874723 -2.238437 0.000000000000000e+00 1851878480
3.561082 -1.261098 -2.278722 0.000000000000000e+00 1634890835
3.466203 -1.417756 -2.278722 0.000000000000000e+00 1634890835
3.214857 -1.692249 -2.238437 0.000000000000000e+00 1851878480
3.117618 -1.838501 -2.238437 0.000000000000000e+00 1851878480
3.494154 -1.236099 -2.278722 0.000000000000000e+00 1634890835
3.400205 -1.390089 -2.278722 0.000000000000000e+00 1634890835
3.151800 -1.659766 -2.238437 0.000000000000000e+00 1851878480
3.055439 -1.803316 -2.238437 0.000000000000000e+00 1851878480
3.429043 -1.211783 -2.278722 0.000000000000000e+00 1634890835
3.336009 -1.363179 -2.278722 0.000000000000000e+00 1634890835
3.090495 -1.628188 -2.238437 0.000000000000000e+00 1851878480
2.995002 -1.769117 -2.238437 0.000000000000000e+00 1851878480
3.365667 -1.188114 -2.278722 0.000000000000000e+00 1634890835
3.273536 -1.336993 -2.278722 0.000000000000000e+00 1634890835
3.030860 -1.597470 -2.238437 0.000000000000000e+00 1851878480
2.936228 -1.735860 -2.238437 0.000000000000000e+00 1851878480
3.303949 -1.165062 -2.278722 0.000000000000000e+00 1634890835
3.212707 -1.311494 -2.278723 0.000000000000000e+00 1634890835
2.972819 -1.567572 -2.238437 0.000000000000000e+00 1851878480
2.879037 -1.703498 -2.238437 0.000000000000000e+00 1851878480
3.243816 -1.142606 -2.278723 0.000000000000000e+00 1634890835
3.153450 -1.286655 -2.278722 0.000000000000000e+00 1634890835
2.916300 -1.538460 -2.238437 0.000000000000000e+00 1851878480
2.823360 -1.671994 -2.238437 0.000000000000000e+00 1851878480
3.185199 -1.120715 -2.278722 0.000000000000000e+00 1634890835
3.095696 -1.262446 -2.278722 0.000000000000000e+00 1634890835
2.861238 -1.510096 -2.238437 0.000000000000000e+00 1851878480
2.769129 -1.641310 -2.238437 0.000000000000000e+00 1851878480
3.128035 -1.099366 -2.278723 0.000000000000000e+00 1634890835
3.039382 -1.238842 -2.278722 0.000000000000000e+00 1634890835
2.807566 -1.482452 -2.238437 0.000000000000000e+00 1851878480
2.716281 -1.611407 -2.238437 0.000000000000000e+00 1851878480
3.072260 -1.078538 -2.278722 0.000000000000000e+00 1634890835
2.984445 -1.215813 -2.278723 0.000000000000000e+00 1634890835
2.755226 -1.455490 -2.238437 0.000000000000000e+00 1851878480
0.840392 -0.499001 -0.705944 0.000000000000000e+00 1886740808
3.017816 -1.058207 -2.278722 0.000000000000000e+00 1634890835
2.930825 -1.193338 -2.278722 0.000000000000000e+00 1634890835
2.752825 -1.454908 -2.278722 0.000000000000000e+00 1634890835
0.824541 -0.490031 -0.705944 0.000000000000000e+00 1886740808
2.964650 -1.038354 -2.278722 0.000000000000000e+00 1634890835
2.878472 -1.171395 -2.278722 0.000000000000000e+00 1634890835
0.837100 -0.442630 -0.705944 0.000000000000000e+00 1886740808
0.809071 -0.481279 -0.705944 0.000000000000000e+00 1886740808
2.912710 -1.018959 -2.278722 0.000000000000000e+00 1634890835
2.827333 -1.149957 -2.278722 0.000000000000000e+00 1634890835
0.821749 -0.434723 -0.705944 0.000000000000000e+00 1886740808
0.793967 -0.472734 -0.705944 0.000000000000000e+00 1886740808
2.861946 -1.000004 -2.278722 0.000000000000000e+00 1634890835
2.777357 -1.129010 -2.278722 0.000000000000000e+00 1634890835
0.806752 -0.426999 -0.705944 0.000000000000000e+00 1886740808
0.779214 -0.464387 -0.705944 0.000000000000000e+00 1886740808
2.812311 -0.981471 -2.278722 0.000000000000000e+00 1634890835
2.728499 -1.108531 -2.278722 0.000000000000000e+00 1634890835
0.792095 -0.419449 -0.705944 0.000000000000000e+00 1886740808
0.764797 -0.456231 -0.705944 0.000000000000000e+00 1886740808
2.763761 -0.963341 -2.278723 0.000000000000000e+00 1634890835
0.830479 -0.337216 -0.705944 0.000000000000000e+00 1886740808
0.777763 -0.412067 -0.705944 0.000000000000000e+00 1886740808
0.750703 -0.448257 -0.705944 0.000000000000000e+00 1886740808
0.841490 -0.292946 -0.705944 0.000000000000000e+00 1886740808
0.815995 -0.331144 -0.705944 0.000000000000000e+00 1886740808
0.763744 -0.404846 -0.705944 0.000000000000000e+00 1886740808
0.744295 -0.444867 -0.713009 0.000000000000000e+00 1886740808
0.827083 -0.287567 -0.705944 0.000000000000000e+00 1886740808
0.801818 -0.325202 -0.705944 0.000000000000000e+00 1886740808
0.750026 -0.397780 -0.705944 0.000000000000000e+00 1886740808
0.744295 -0.445311 -0.726301 0.000000000000000e+00 1886740808
0.812976 -0.282300 -0.705944 0.000000000000000e+00 1886740808
0.787937 -0.319383 -0.705944 0.000000000000000e+00 1886740808
0.744294 -0.394947 -0.713320 0.000000000000000e+00 1886740808
0.744295 -0.445761 -0.739800 0.000000000000000e+00 1886740808
0.799155 -0.277140 -0.705944 0.000000000000000e+00 1886740808
0.774339 -0.313685 -0.705944 0.000000000000000e+00 1886740808
0.744295 -0.395158 -0.726288 0.000000000000000e+00 1886740808
0.744294 -0.446219 -0.753513 0.000000000000000e+00 1886740808
0.785612 -0.272084 -0.705944 0.000000000000000e+00 1886740808
0.761016 -0.308100 -0.705944 0.000000000000000e+00 1886740808
0.744294 -0.395372 -0.739456 0.000000000000000e+00 1886740808
0.744295 -0.446685 -0.767447 0.000000000000000e+00 1886740808
0.772336 -0.267127 -0.705944 0.000000000000000e+00 1886740808
0.747956 -0.302626 -0.705944 0.000000000000000e+00 1886740808
0.744295 -0.395589 -0.752833 0.000000000000000e+00 1886740808
0.744295 -0.447158 -0.781609 0.000000000000000e+00 1886740808
0.759317 -0.262267 -0.705944 0.000000000000000e+00 1886740808
0.744294 -0.300956 -0.714724 0.000000000000000e+00 1886740808
0.744295 -0.395810 -0.766425 0.000000000000000e+00 1886740808
0.744295 -0.447639 -0.796009 0.000000000000000e+00 1886740808
0.746546 -0.257499 -0.705944 0.000000000000000e+00 1886740808
0.744295 -0.300765 -0.727149 0.000000000000000e+00 1886740808
0.744295 -0.396034 -0.780241 0.000000000000000e+00 1886740808
2.092189 -1.259676 -2.278723 0.000000000000000e+00 1634890835
0.744294 -0.256362 -0.715831 0.000000000000000e+00 1886740808
0.744295 -0.300570 -0.739767 0.000000000000000e+00 1886740808
0.744294 -0.396263 -0.794287 0.000000000000000e+00 1886740808
2.054430 -1.238316 -2.278722 0.000000000000000e+00 1634890835
0.744295 -0.255996 -0.728032 0.000000000000000e+00 1886740808
0.744295 -0.300373 -0.752585 0.000000000000000e+00 1886740808
2.097574 -1.117402 -2.278723 0.000000000000000e+00 1634890835
2.017378 -1.217358 -2.278722 0.000000000000000e+00 1634890835
0.744295 -0.255624 -0.740424 0.000000000000000e+00 1886740808
0.744295 -0.300172 -0.765610 0.000000000000000e+00 1886740808
2.060541 -1.098329 -2.278723 0.000000000000000e+00 1634890835
0.796275 -0.481053 -0.915943 0.000000000000000e+00 1886740808
0.744295 -0.255246 -0.753013 0.000000000000000e+00 1886740808
0.744295 -0.299969 -0.778850 0.000000000000000e+00 1886740808
2.024173 -1.079597 -2.278723 0.000000000000000e+00 1634890835
0.784636 -0.474577 -0.919124 0.000000000000000e+00 1886740808
0.744295 -0.254862 -0.765806 0.000000000000000e+00 1886740808
0.744295 -0.299762 -0.792310 0.000000000000000e+00 1886740808
1.988449 -1.061196 -2.278722 0.000000000000000e+00 1634890835
0.775674 -0.469714 -0.925310 0.000000000000000e+00 1886740808
0.744295 -0.254473 -0.778810 0.000000000000000e+00 1886740808
2.104268 -0.846889 -2.278723 0.000000000000000e+00 1634890835
0.797389 -0.425818 -0.930214 0.000000000000000e+00 1886740808
0.768824 -0.466130 -0.933990 0.000000000000000e+00 1886740808
0.744295 -0.254076 -0.792031 0.000000000000000e+00 1886740808
2.068526 -0.831910 -2.278723 0.000000000000000e+00 1634890835
0.785519 -0.419748 -0.932845 0.000000000000000e+00 1886740808
0.764551 -0.464112 -0.945880 0.000000000000000e+00 1886740808
0.744295 -0.253673 -0.805478 0.000000000000000e+00 1886740808
2.033380 -0.817179 -2.278723 0.000000000000000e+00 1634890835
0.776432 -0.415161 -0.938649 0.000000000000000e+00 1886740808
1.808578 -1.099257 -2.278723 0.000000000000000e+00 1634890835
2.070468 -0.704525 -2.278723 0.000000000000000e+00 1634890835
1.998810 -0.802690 -2.278722 0.000000000000000e+00 1634890835
0.769418 -0.411685 -0.946932 0.000000000000000e+00 1886740808
1.775827 -1.080733 -2.278722 0.000000000000000e+00 1634890835
2.035868 -0.691611 -2.278723 0.000000000000000e+00 1634890835
1.964797 -0.788434 -2.278723 0.000000000000000e+00 1634890835
0.764806 -0.409492 -0.958245 0.000000000000000e+00 1886740808
0.749057 -0.456456 -0.978943 0.000000000000000e+00 1886740808
2.001814 -0.678900 -2.278723 0.000000000000000e+00 1634890835
1.931320 -0.774404 -2.278723 0.000000000000000e+00 1634890835
0.767172 -0.411042 -0.978591 0.000000000000000e+00 1886740808
1.711904 -1.044580 -2.278723 0.000000000000000e+00 1634890835
1.968290 -0.666387 -2.278723 0.000000000000000e+00 1634890835
0.797682 -0.319597 -0.957506 0.000000000000000e+00 1886740808
1.754619 -0.940766 -2.278723 0.000000000000000e+00 1634890835
1.680697 -1.026930 -2.278723 0.000000000000000e+00 1634890835
1.935277 -0.654067 -2.278722 0.000000000000000e+00 1634890835
0.785811 -0.314588 -0.959662 0.000000000000000e+00 1886740808
0.751062 -0.402982 -0.993125 0.000000000000000e+00 1886740808
1.649972 -1.009554 -2.278722 0.000000000000000e+00 1634890835
1.902759 -0.641931 -2.278723 0.000000000000000e+00 1634890835
0.776732 -0.310699 -0.965106 0.000000000000000e+00 1886740808
1.692475 -0.908757 -2.278723 0.000000000000000e+00 1634890835
1.619713 -0.992440 -2.278723 0.000000000000000e+00 1634890835
0.796758 -0.268312 -0.970530 0.000000000000000e+00 1886740808
0.769656 -0.307612 -0.973023 0.000000000000000e+00 1886740808
1.662094 -0.893112 -2.278723 0.000000000000000e+00 1634890835
1.589904 -0.975582 -2.278723 0.000000000000000e+00 1634890835
0.785169 -0.263918 -0.972832 0.000000000000000e+00 1886740808
0.764879 -0.305443 -0.983925 0.000000000000000e+00 1886740808
1.632158 -0.877693 -2.278723 0.000000000000000e+00 1634890835
1.560530 -0.958971 -2.278723 0.000000000000000e+00 1634890835
0.776223 -0.260416 -0.978304 0.000000000000000e+00 1886740808
0.765620 -0.305472 -1.002184 0.000000000000000e+00 1886740808
1.602650 -0.862496 -2.278723 0.000000000000000e+00 1634890835
1.531579 -0.942598 -2.278722 0.000000000000000e+00 1634890835
0.769283 -0.257587 -0.986298 0.000000000000000e+00 1886740808
1.710669 -0.681927 -2.278723 0.000000000000000e+00 1634890835
1.573557 -0.847512 -2.278723 0.000000000000000e+00 1634890835
1.503035 -0.926456 -2.278723 0.000000000000000e+00 1634890835
0.764663 -0.255533 -0.997358 0.000000000000000e+00 1886740808
1.680922 -0.669461 -2.278723 0.000000000000000e+00 1634890835
1.544867 -0.832736 -2.278723 0.000000000000000e+00 1634890835
1.474887 -0.910538 -2.278723 0.000000000000000e+00 1634890835
0.766227 -0.255535 -1.016774 0.000000000000000e+00 1886740808
0.744046 -0.296056 -1.026580 0.000000000000000e+00 1886740808
1.516565 -0.818160 -2.278722 0.000000000000000e+00 1634890835
1.447122 -0.894837 -2.278723 0.000000000000000e+00 1634890835
1.687755 -0.561695 -2.278723 0.000000000000000e+00 1634890835
1.622621 -0.645027 -2.278723 0.000000000000000e+00 1634890835
1.488639 -0.803777 -2.278723 0.000000000000000e+00 1634890835
1.419725 -0.879345 -2.278723 0.000000000000000e+00 1634890835
0.752068 -0.249761 -1.033204 0.000000000000000e+00 1886740808
1.594044 -0.633051 -2.278723 0.000000000000000e+00 1634890835
1.461079 -0.789586 -2.278723 0.000000000000000e+00 1634890835
1.392689 -0.864058 -2.278723 0.000000000000000e+00 1634890835
1.629979 -0.540136 -2.278723 0.000000000000000e+00 1634890835
1.565835 -0.621228 -2.278723 0.000000000000000e+00 1634890835
1.433875 -0.775574 -2.278723 0.000000000000000e+00 1634890835
1.366002 -0.848966 -2.278723 0.000000000000000e+00 1634890835
1.601639 -0.529562 -2.278723 0.000000000000000e+00 1634890835
1.537979 -0.609554 -2.278723 0.000000000000000e+00 1634890835
1.407012 -0.761739 -2.278723 0.000000000000000e+00 1634890835
1.339651 -0.834065 -2.278723 0.000000000000000e+00 1634890835
1.573649 -0.519119 -2.278723 0.000000000000000e+00 1634890835
1.510468 -0.598025 -2.278723 0.000000000000000e+00 1634890835
1.380482 -0.748075 -2.278723 0.000000000000000e+00 1634890835
1.313626 -0.819350 -2.278723 0.000000000000000e+00 1634890835
1.546001 -0.508802 -2.278723 0.000000000000000e+00 1634890835
1.483292 -0.586635 -2.278723 0.000000000000000e+00 1634890835
1.354275 -0.734579 -2.278723 0.000000000000000e+00 1634890835
1.287918 -0.804813 -2.278723 0.000000000000000e+00 1634890835
1.518683 -0.498609 -2.278723 0.000000000000000e+00 1634890835
1.456441 -0.575382 -2.278723 0.000000000000000e+00 1634890835
1.328380 -0.721243 -2.278723 0.000000000000000e+00 1634890835
1.262517 -0.790451 -2.278723 0.000000000000000e+00 1634890835
1.491686 -0.488534 -2.278723 0.000000000000000e+00 1634890835
1.429904 -0.564260 -2.278723 0.000000000000000e+00 1634890835
1.302788 -0.708063 -2.278723 0.000000000000000e+00 1634890835
1.237414 -0.776257 -2.278723 0.000000000000000e+00 1634890835
1.464998 -0.478578 -2.278723 0.000000000000000e+00 1634890835
1.403671 -0.553268 -2.278723 0.000000000000000e+00 1634890835
1.277490 -0.695034 -2.278723 0.000000000000000e+00 1634890835
1.212598 -0.762226 -2.278722 0.000000000000000e+00 1634890835
1.438613 -0.468733 -2.278723 0.000000000000000e+00 1634890835
1.377735 -0.542398 -2.278723 0.000000000000000e+00 1634890835
1.252478 -0.682153 -2.278723 0.000000000000000e+00 1634890835
1.188064 -0.748352 -2.278723 0.000000000000000e+00 1634890835
1.412520 -0.458998 -2.278723 0.000000000000000e+00 1634890835
1.352085 -0.531648 -2.278723 0.000000000000000e+00 1634890835
1.227741 -0.669412 -2.278723 0.000000000000000e+00 1634890835
1.163799 -0.734632 -2.278723 0.000000000000000e+00 1634890835
1.386711 -0.449369 -2.278723 0.000000000000000e+00 1634890835
1.326715 -0.521016 -2.278723 0.000000000000000e+00 1634890835
1.203273 -0.656812 -2.278723 0.000000000000000e+00 1634890835
1.139797 -0.721063 -2.278723 0.000000000000000e+00 1634890835
1.361178 -0.439843 -2.278723 0.000000000000000e+00 1634890835
1.301615 -0.510497 -2.278723 0.000000000000000e+00 1634890835
1.179064 -0.644344 -2.278723 0.000000000000000e+00 1634890835
1.116050 -0.707637 -2.278723 0.000000000000000e+00 1634890835
1.335913 -0.430416 -2.278723 0.000000000000000e+00 1634890835
1.276777 -0.500088 -2.278723 0.000000000000000e+00 1634890835
1.155107 -0.632008 -2.278723 0.000000000000000e+00 1634890835
1.092551 -0.694349 -2.278723 0.000000000000000e+00 1634890835
1.310907 -0.421087 -2.278723 0.000000000000000e+00 1634890835
1.252193 -0.489785 -2.278723 0.000000000000000e+00 1634890835
1.131396 -0.619795 -2.278723 0.000000000000000e+00 1634890835
1.069291 -0.681199 -2.278723 0.000000000000000e+00 1634890835
1.286154 -0.411853 -2.278723 0.000000000000000e+00 1634890835
1.227857 -0.479587 -2.278723 0.000000000000000e+00 1634890835
1.107922 -0.607706 -2.278723 0.000000000000000e+00 1634890835
1.046264 -0.668180 -2.278723 0.000000000000000e+00 1634890835
1.261645 -0.402709 -2.278723 0.000000000000000e+00 1634890835
1.203761 -0.469489 -2.278723 0.000000000000000e+00 1634890835
1.084678 -0.595736 -2.278723 0.000000000000000e+00 1634890835
1.023462 -0.655288 -2.278723 0.000000000000000e+00 1634890835
1.237374 -0.393656 -2.278723 0.000000000000000e+00 1634890835
1.179897 -0.459489 -2.278723 0.000000000000000e+00 1634890835
1.061656 -0.583881 -2.278723 0.000000000000000e+00 1634890835
1.000879 -0.642520 -2.278723 0.000000000000000e+00 1634890835
1.213334 -0.384687 -2.278723 0.000000000000000e+00 1634890835
1.156260 -0.449584 -2.278723 0.000000000000000e+00 1634890835
1.038853 -0.572137 -2.278723 0.000000000000000e+00 1634890835
0.978508 -0.629873 -2.278723 0.000000000000000e+00 1634890835
1.189518 -0.375802 -2.278723 0.000000000000000e+00 1634890835
1.132842 -0.439769 -2.278723 0.000000000000000e+00 1634890835
1.016259 -0.560500 -2.278723 0.000000000000000e+00 1634890835
0.956342 -0.617342 -2.278723 0.000000000000000e+00 1634890835
1.165919 -0.366998 -2.278723 0.000000000000000e+00 1634890835
1.109635 -0.430045 -2.278723 0.000000000000000e+00 1634890835
0.993867 -0.548970 -2.278723 0.000000000000000e+00 1634890835
0.934375 -0.604922 -2.278723 0.000000000000000e+00 1634890835
1.142531 -0.358273 -2.278723 0.000000000000000e+00 1634890835
1.086636 -0.420406 -2.278723 0.000000000000000e+00 1634890835
0.971674 -0.537540 -2.278723 0.000000000000000e+00 1634890835
0.912602 -0.592613 -2.278723 0.000000000000000e+00 1634890835
1.119347 -0.349625 -2.278723 0.000000000000000e+00 1634890835
1.063837 -0.410852 -2.278723 0.000000000000000e+00 1634890835
0.949673 -0.526210 -2.278723 0.000000000000000e+00 1634890835
0.891016 -0.580410 -2.278723 0.000000000000000e+00 1634890835
1.096362 -0.341050 -2.278723 0.000000000000000e+00 1634890835
1.041231 -0.401379 -2.278723 0.000000000000000e+00 1634890835
0.927857 -0.514975 -2.278723 0.000000000000000e+00 1634890835
0.869611 -0.568308 -2.278723 0.000000000000000e+00 1634890835
1.073569 -0.332549 -2.278723 0.000000000000000e+00 1634890835
1.018815 -0.391984 -2.278723 0.000000000000000e+00 1634890835
0.906220 -0.503833 -2.278723 0.000000000000000e+00 1634890835
0.848383 -0.556307 -2.278723 0.000000000000000e+00 1634890835
1.050964 -0.324116 -2.278723 0.000000000000000e+00 1634890835
0.996581 -0.382668 -2.278723 0.000000000000000e+00 1634890835
0.884760 -0.492781 -2.278723 0.000000000000000e+00 1634890835
0.827325 -0.544403 -2.278723 0.000000000000000e+00 1634890835
1.028541 -0.315752 -2.278723 0.000000000000000e+00 1634890835
0.974525 -0.373424 -2.278723 0.000000000000000e+00 1634890835
0.863468 -0.481816 -2.278723 0.000000000000000e+00 1634890835
0.451010 -0.297860 -1.274411 0.000000000000000e+00 1936876886
1.006293 -0.307452 -2.278723 0.000000000000000e+00 1634890835
0.952640 -0.364254 -2.278723 0.000000000000000e+00 1634890835
0.842339 -0.470935 -2.278723 0.000000000000000e+00 1634890835
0.433312 -0.287260 -1.256713 0.000000000000000e+00 1936876886
0.984215 -0.299218 -2.278723 0.000000000000000e+00 1634890835
0.930921 -0.355152 -2.278723 0.000000000000000e+00 1634890835
0.821369 -0.460137 -2.278723 0.000000000000000e+00 1634890835
0.421224 -0.280352 -1.254509 0.000000000000000e+00 1936876886
0.962303 -0.291044 -2.278723 0.000000000000000e+00 1634890835
0.909364 -0.346118 -2.278723 0.000000000000000e+00 1634890835
0.445941 -0.250343 -1.269342 0.000000000000000e+00 1936876886
0.335122 -0.223968 -1.025457 0.000000000000000e+00 1953264973
0.940551 -0.282930 -2.278723 0.000000000000000e+00 1634890835
0.887964 -0.337150 -2.278723 0.000000000000000e+00 1634890835
0.428905 -0.241307 -1.253204 0.000000000000000e+00 1936876886
0.306468 -0.205701 -0.964032 0.000000000000000e+00 1953264973
0.495093 -0.148090 -1.227675 0.000000000000000e+00 1936876886
0.866715 -0.328246 -2.278723 0.000000000000000e+00 1634890835
0.358549 -0.202185 -1.075945 0.000000000000000e+00 1953264973
0.281219 -0.189605 -0.909907 0.000000000000000e+00 1953264973
0.483539 -0.143780 -1.227675 0.000000000000000e+00 1936876886
0.845614 -0.319402 -2.278723 0.000000000000000e+00 1634890835
0.326690 -0.184661 -1.007380 0.000000000000000e+00 1953264973
0.258798 -0.175313 -0.861845 0.000000000000000e+00 1953264973
0.472063 -0.139500 -1.227674 0.000000000000000e+00 1936876886
0.824654 -0.310619 -2.278723 0.000000000000000e+00 1634890835
0.299050 -0.169461 -0.948130 0.000000000000000e+00 1953264973
0.238752 -0.162535 -0.818874 0.000000000000000e+00 1953264973
